# .PCD v0.7 - Point Cloud Data file format
VERSION 0.7
FIELDS x y z intensity
SIZE 4 4 4 4
TYPE F F F F
COUNT 1 1 1 1
WIDTH 1355
HEIGHT 1
VIEWPOINT 0 0 0 1 0 0 0
POINTS 1355
DATA ascii
-1.176 9.0889997 -2.075 0.36000001
-1.2079999 9.1099997 -2.0810001 0.38
-1.235 9.0970001 -2.079 0.30000001
-1.24 9.0270004 -2.062 0.44
-1.281 9.1140003 -2.0840001 0.31
-1.319 9.1750002 -2.0999999 0.27000001
-1.3430001 9.1359997 -2.092 0.34
-1.364 9.0839996 -2.0799999 0.31999999
-1.385 9.0279999 -2.0680001 0.27000001
-1.414 9.0310001 -2.069 0.30000001
-1.4299999 9.0380001 -2.072 0.28999999
-1.459 9.0340004 -2.072 0.28
-1.49 9.0469999 -2.076 0.38
-1.511 9 -2.066 0.36000001
-1.548 9.0450001 -2.0780001 0.28
-1.581 9.0679998 -2.085 0.33000001
-1.601 9.0159998 -2.073 0.22
-1.6160001 9.0170002 -2.0739999 0.31999999
-1.641 8.9910002 -2.069 0.38
-1.666 8.9720001 -2.066 0.31
-1.701 9.0030003 -2.075 0.38
-1.732 9.0109997 -2.0780001 0.28999999
-1.753 8.9659996 -2.0680001 0.34
-1.778 8.9469995 -2.0650001 0.33000001
-1.7869999 8.915 -2.0580001 0.30000001
-1.813 8.9020004 -2.056 0.31
-1.844 8.9110003 -2.0599999 0.34999999
-1.869 8.8920002 -2.056 0.31999999
-1.9069999 8.9300003 -2.0669999 0.31999999
-1.932 8.9130001 -2.0639999 0.31
-1.957 8.8909998 -2.0610001 0.30000001
-1.967 8.8730001 -2.0569999 0.28999999
-1.999 8.882 -2.0610001 0.30000001
-2.0209999 8.8529997 -2.0550001 0.28999999
-2.0480001 8.8389997 -2.053 0.33000001
-2.0799999 8.8529997 -2.0580001 0.31999999
-2.109 8.8509998 -2.059 0.28
-2.1359999 8.8400002 -2.0580001 0.27000001
-2.1500001 8.8389997 -2.059 0.28999999
-2.177 8.8299999 -2.0580001 0.31
-2.2030001 8.816 -2.056 0.27000001
-2.23 8.8050003 -2.0550001 0.23999999
-2.2579999 8.8000002 -2.056 0.43000001
-2.2869999 8.7959995 -2.0569999 0.28
-2.319 8.8059998 -2.0610001 0.28
-2.332 8.8000002 -2.0610001 0.28999999
-2.359 8.7889996 -2.0599999 0.28999999
-2.3829999 8.7690001 -2.056 0.31
-2.415 8.7779999 -2.0610001 0.27000001
-2.441 8.7650003 -2.059 0.27000001
-2.467 8.7510004 -2.0580001 0.27000001
-2.497 8.7530003 -2.0599999 0.27000001
-2.5220001 8.7379999 -2.0580001 0.30000001
-2.543 8.7580004 -2.0639999 0.25999999
-2.566 8.7349997 -2.0610001 0.28999999
-2.596 8.7340002 -2.062 0.28999999
-2.6240001 8.7279997 -2.063 0.28
-2.6459999 8.7030001 -2.059 0.27000001
-2.675 8.6999998 -2.0599999 0.28
-2.707 8.7069998 -2.0639999 0.28999999
-2.721 8.7040005 -2.0639999 0.28999999
-2.7409999 8.6719999 -2.0580001 0.30000001
-2.7709999 8.6719999 -2.0610001 0.28
-2.799 8.665 -2.0610001 0.27000001
-2.8310001 8.6689997 -2.0639999 0.27000001
-2.859 8.6639996 -2.0650001 0.27000001
-2.885 8.651 -2.0639999 0.28
-2.901 8.6540003 -2.066 0.28
-2.934 8.6639996 -2.0710001 0.28
-2.954 8.632 -2.0650001 0.30000001
-2.984 8.632 -2.0680001 0.28999999
-3.013 8.6280003 -2.069 0.27000001
-3.0369999 8.6090002 -2.0669999 0.27000001
-3.066 8.6040001 -2.0680001 0.28
-3.0829999 8.6099997 -2.0699999 0.27000001
-3.1070001 8.5930004 -2.0680001 0.31
-3.138 8.592 -2.0710001 0.25999999
-3.1670001 8.5880003 -2.072 0.30000001
-3.191 8.5699997 -2.0699999 0.28999999
-3.2179999 8.5600004 -2.0699999 0.27000001
-3.2520001 8.5699997 -2.075 0.28999999
-3.2609999 8.552 -2.072 0.28
-3.2880001 8.5419998 -2.072 0.28
-3.3199999 8.5459995 -2.076 0.28999999
-3.348 8.5369997 -2.076 0.25999999
-3.3759999 8.5299997 -2.0769999 0.28
-3.4059999 8.5290003 -2.0799999 0.28
-3.4289999 8.507 -2.0769999 0.30000001
-3.441 8.5 -2.076 0.28999999
-3.4749999 8.5050001 -2.0810001 0.28
-3.4949999 8.4799995 -2.0769999 0.28999999
-3.5250001 8.4759998 -2.079 0.28
-3.5580001 8.4799995 -2.082 0.28999999
-3.5769999 8.4519997 -2.0780001 0.28
-3.6070001 8.448 -2.0799999 0.25999999
-3.619 8.4390001 -2.079 0.19
-3.645 8.427 -2.079 0.28999999
-3.6719999 8.4160004 -2.079 0.25
-3.7 8.4099998 -2.0810001 0.23999999
-3.7309999 8.4069996 -2.0829999 0.25
-3.757 8.3950005 -2.0829999 0.2
-3.7909999 8.401 -2.0880001 0.20999999
-3.806 8.3990002 -2.089 0.1
-3.822 8.3640003 -2.082 0.18000001
-3.859 8.375 -2.089 0.19
-3.8789999 8.3479996 -2.085 0.090000004
-3.9070001 8.3400002 -2.086 0.17
-3.9389999 8.3400002 -2.089 0.20999999
-3.9619999 8.3219995 -2.0880001 0.2
-3.9690001 8.302 -2.0840001 0.30000001
-4.0079999 8.3170004 -2.0910001 0.28
-4.0240002 8.283 -2.086 0.22
-4.0570002 8.2849998 -2.089 0.28999999
-4.092 8.2910004 -2.095 0.31999999
-4.1100001 8.2609997 -2.0899999 0.30000001
-4.1370001 8.2510004 -2.0910001 0.33000001
-4.1680002 8.2799997 -2.0999999 0.31999999
-4.1880002 8.2559996 -2.0969999 0.31999999
-4.2199998 8.2530003 -2.0999999 0.30000001
-4.2449999 8.2379999 -2.0999999 0.28999999
-4.2639999 8.2130003 -2.096 0.28999999
-4.2880001 8.1960001 -2.096 0.28999999
-4.3099999 8.1739998 -2.0929999 0.30000001
-4.322 8.1669998 -2.0929999 0.27000001
-4.3470001 8.1520004 -2.0929999 0.28999999
-4.3740001 8.1400003 -2.0929999 0.28
-4.3899999 8.1090002 -2.089 0.28
-4.4120002 8.0880003 -2.0869999 0.30000001
-4.4310002 8.0640001 -2.0840001 0.30000001
-4.4489999 8.0360003 -2.0799999 0.31999999
-4.4530001 8.0139999 -2.076 0.31
-4.4809999 8.0050001 -2.0769999 0.31999999
-4.5019999 7.9829998 -2.075 0.33000001
-4.5279999 7.9699998 -2.075 0.34
-4.553 7.9559999 -2.075 0.33000001
-4.5749998 7.9359999 -2.0739999 0.37
-4.599 7.9200001 -2.0739999 0.36000001
-4.619 7.927 -2.0769999 0.33000001
-4.6459999 7.915 -2.0780001 0.36000001
-4.6739998 7.9060001 -2.0799999 0.34
-4.7080002 7.908 -2.0840001 0.33000001
-4.7280002 7.8850002 -2.082 0.31
-4.7490001 7.8629999 -2.0799999 0.28999999
-4.7750001 7.8499999 -2.0810001 0.28999999
-4.7919998 7.8509998 -2.0829999 0.31999999
-4.8189998 7.8390002 -2.0840001 0.28999999
-4.848 7.8319998 -2.086 0.31999999
-4.8699999 7.8119998 -2.085 0.28
-4.8920002 7.7930002 -2.0840001 0.28999999
-4.9260001 7.7919998 -2.0880001 0.28999999
-4.9429998 7.7649999 -2.085 0.28999999
-4.9629998 7.7690001 -2.0880001 0.30000001
-4.987 7.7529998 -2.0880001 0.28999999
-5.007 7.7309999 -2.086 0.28999999
-5.0339999 7.7189999 -2.0869999 0.31
-5.0700002 7.7210002 -2.092 0.31999999
-5.0799999 7.684 -2.086 0.28
-5.105 7.6690001 -2.0869999 0.28999999
-5.1350002 7.6609998 -2.089 0.28999999
-5.1479998 7.6550002 -2.089 0.31999999
-5.165 7.6290002 -2.0869999 0.30000001
-5.197 7.6240001 -2.0899999 0.30000001
-5.2129998 7.5960002 -2.0869999 0.31
-5.237 7.5799999 -2.0869999 0.30000001
-5.257 7.559 -2.085 0.28
-5.2870002 7.5500002 -2.0880001 0.31
-5.2979999 7.5419998 -2.0880001 0.28999999
-5.3179998 7.5190001 -2.086 0.28999999
-5.3470001 7.5100002 -2.0880001 0.30000001
-5.3649998 7.4850001 -2.086 0.28999999
-5.3889999 7.4699998 -2.086 0.25999999
-5.421 7.4640002 -2.089 0.31999999
-5.4429998 7.4450002 -2.089 0.28999999
-5.4699998 7.4569998 -2.095 0.30000001
-5.4860001 7.4310002 -2.092 0.30000001
-5.5110002 7.415 -2.0929999 0.30000001
-5.5370002 7.402 -2.0940001 0.30000001
-5.559 7.3829999 -2.0940001 0.31
-5.5780001 7.3590002 -2.092 0.27000001
-5.6100001 7.3540001 -2.096 0.31
-5.6220002 7.3449998 -2.096 0.28999999
-5.6420002 7.323 -2.0940001 0.30000001
-5.6680002 7.3099999 -2.096 0.28999999
-5.6890001 7.289 -2.095 0.28
-5.7049999 7.2639999 -2.092 0.27000001
-5.7389998 7.2589998 -2.096 0.31
-5.737 7.2329998 -2.0910001 0.28999999
-5.7649999 7.2220001 -2.0929999 0.28999999
-5.7919998 7.2090001 -2.095 0.28999999
-5.809 7.184 -2.0929999 0.30000001
-5.8340001 7.1680002 -2.0940001 0.28999999
-5.8530002 7.145 -2.092 0.28999999
-5.8740001 7.1259999 -2.092 0.28
-5.8959999 7.1069999 -2.092 0.28
-5.9109998 7.1020002 -2.0929999 0.28
-5.9219999 7.0700002 -2.089 0.28999999
-5.9510002 7.059 -2.0910001 0.28999999
-5.98 7.0489998 -2.0940001 0.28999999
-5.9899998 7.0159998 -2.089 0.28999999
-6.0219998 7.0089998 -2.0929999 0.30000001
-6.0479999 6.994 -2.095 0.30000001
-6.059 6.9850001 -2.095 0.27000001
-6.0809999 6.9650002 -2.095 0.28999999
-6.1059999 6.9510002 -2.096 0.20999999
-6.1329999 6.9369998 -2.098 0.30000001
-6.1539998 6.9169998 -2.0969999 0.25
-6.1950002 6.9190001 -2.1040001 0.1
-6.21 6.8920002 -2.102 0.090000004
-6.2179999 6.8800001 -2.1010001 0.039999999
-6.237 6.8569999 -2.0999999 0.07
-6.2119999 6.7859998 -2.0829999 0.15000001
-6.237 6.7709999 -2.085 0.22
-6.2540002 6.7470002 -2.0829999 0.23
-6.277 6.7280002 -2.0840001 0.27000001
-6.302 6.7129998 -2.085 0.28
-6.3210001 6.7129998 -2.089 0.30000001
-6.3249998 6.6750002 -2.082 0.28999999
-6.3509998 6.6599998 -2.0840001 0.28999999
-6.3740001 6.6420002 -2.085 0.28999999
-6.382 6.6090002 -2.0810001 0.28
-6.4050002 6.5900002 -2.0810001 0.28999999
-6.4330001 6.579 -2.0840001 0.30000001
-6.427 6.552 -2.0780001 0.27000001
-6.4419999 6.526 -2.076 0.28999999
-6.4710002 6.5139999 -2.079 0.30000001
-6.4749999 6.4770002 -2.0739999 0.30000001
-6.5019999 6.4640002 -2.076 0.30000001
-6.52 6.4400001 -2.075 0.28
-6.5300002 6.4099998 -2.072 0.28
-6.539 6.3990002 -2.0710001 0.30000001
-6.559 6.3779998 -2.0710001 0.30000001
-6.5689998 6.348 -2.0680001 0.28999999
-6.592 6.3299999 -2.069 0.28999999
-6.6199999 6.3169999 -2.072 0.30000001
-6.632 6.289 -2.069 0.30000001
-6.6389999 6.256 -2.0650001 0.30000001
-6.664 6.2600002 -2.0699999 0.28999999
-6.6789999 6.2350001 -2.0680001 0.28999999
-6.6900001 6.2059999 -2.066 0.28999999
-6.717 6.191 -2.0680001 0.30000001
-6.7290001 6.164 -2.066 0.28
-6.7529998 6.1469998 -2.0669999 0.28999999
-6.7750001 6.1279998 -2.0680001 0.30000001
-6.7779999 6.1110001 -2.066 0.28999999
-6.8010001 6.0929999 -2.0669999 0.30000001
-6.8140001 6.0669999 -2.0650001 0.28999999
-6.8189998 6.0320001 -2.0610001 0.28999999
-6.8460002 6.0190001 -2.063 0.28999999
-6.868 6 -2.0639999 0.28999999
-6.8769999 5.9689999 -2.0610001 0.28999999
-6.8850002 5.9569998 -2.0610001 0.28999999
-6.9060001 5.9380002 -2.0610001 0.28999999
-6.9120002 5.9050002 -2.0569999 0.28999999
-6.9239998 5.8779998 -2.0550001 0.28
-6.9429998 5.8559999 -2.0550001 0.28999999
-6.9520001 5.8270001 -2.053 0.30000001
-6.96 5.796 -2.049 0.28
-6.9689999 5.7849998 -2.049 0.31999999
-6.9889998 5.7649999 -2.05 0.30000001
-7.0019999 5.7389998 -2.0480001 0.30000001
-7.0079999 5.7069998 -2.0450001 0.28999999
-7.0370002 5.6939998 -2.0480001 0.28999999
-7.039 5.6589999 -2.043 0.28999999
-7.0510001 5.632 -2.0409999 0.28
-7.0539999 5.6160002 -2.04 0.30000001
-7.072 5.5939999 -2.04 0.25999999
-7.0910001 5.573 -2.04 0.28
-7.1079998 5.5510001 -2.04 0.27000001
-7.1290002 5.5310001 -2.0409999 0.28999999
-7.1350002 5.5 -2.0380001 0.28
-7.1430001 5.4699998 -2.0350001 0.28999999
-7.1560001 5.4629998 -2.036 0.28999999
-7.1659999 5.434 -2.0339999 0.28
-7.1869998 5.415 -2.0350001 0.28999999
-7.1939998 5.3850002 -2.0320001 0.28999999
-7.2010002 5.355 -2.029 0.31
-7.2150002 5.3299999 -2.0280001 0.30000001
-7.2199998 5.316 -2.027 0.28999999
-7.23 5.289 -2.026 0.30000001
-7.25 5.2690001 -2.026 0.28999999
-7.263 5.243 -2.026 0.28999999
-7.283 5.223 -2.026 0.28999999
-7.2870002 5.191 -2.023 0.27000001
-7.2839999 5.1539998 -2.017 0.27000001
-7.3080001 5.1539998 -2.0220001 0.31999999
-7.3189998 5.1279998 -2.02 0.28
-7.3270001 5.099 -2.0179999 0.28999999
-7.3470001 5.0780001 -2.0190001 0.28999999
-7.355 5.0500002 -2.017 0.27000001
-7.3639998 5.0219998 -2.0150001 0.31
-7.3730001 4.9949999 -2.013 0.22
-7.3920002 4.974 -2.0139999 0.23999999
-7.4229999 4.9770002 -2.02 0.090000004
-7.4089999 4.9349999 -2.0120001 0.079999998
-7.4000001 4.895 -2.0050001 0.090000004
-7.401 4.862 -2.0009999 0.2
-7.4239998 4.8439999 -2.003 0.23
-7.4219999 4.809 -1.998 0.17
-7.4549999 4.7969999 -2.003 0.28
-7.4489999 4.777 -1.999 0.25
-7.467 4.756 -2 0.23
-7.454 4.7150002 -1.992 0.18000001
-7.4920001 4.7059999 -1.999 0.28999999
-7.4899998 4.6719999 -1.994 0.23
-7.4980001 4.6440001 -1.992 0.2
-7.5159998 4.6230001 -1.993 0.28
-7.5019999 4.598 -1.987 0.25
-7.5079999 4.5689998 -1.985 0.19
-7.5320001 4.5510001 -1.988 0.25999999
-7.54 4.5240002 -1.9859999 0.2
-7.5679998 4.5079999 -1.99 0.25
-7.5619998 4.4720001 -1.984 0.23
-7.566 4.4429998 -1.9809999 0.2
-7.5809999 4.4359999 -1.984 0.25999999
-7.5830002 4.4050002 -1.98 0.22
-7.5939999 4.3790002 -1.979 0
-7.6069999 4.355 -1.979 0
-7.6290002 4.336 -1.982 0.02
-7.6209998 4.3000002 -1.976 0.07
-7.6279998 4.2880001 -1.976 0.20999999
-7.651 4.2690001 -1.978 0.20999999
-7.651 4.2379999 -1.975 0.23999999
-7.6609998 4.2119999 -1.974 0.18000001
-7.6880002 4.1950002 -1.978 0.23999999
-7.6859999 4.1630001 -1.973 0.2
-7.6989999 4.1389999 -1.973 0.12
-7.698 4.1230001 -1.971 0.2
-7.7210002 4.1040001 -1.974 0.11
-7.7069998 4.0650001 -1.967 0.20999999
-7.7280002 4.0450001 -1.969 0.2
-7.7270002 4.0139999 -1.965 0.23
-7.7480001 3.994 -1.9680001 0.20999999
-7.7750001 3.977 -1.971 0.12
-7.7459998 3.947 -1.962 0.20999999
-7.7880001 3.938 -1.97 0
-7.802 3.914 -1.971 0
-7.7740002 3.869 -1.96 0.029999999
-7.7740002 3.839 -1.957 0.16
-7.8000002 3.8210001 -1.96 0.16
-7.816 3.799 -1.961 0.25999999
-7.8130002 3.7820001 -1.959 0.23
-7.8210001 3.756 -1.9579999 0.19
-7.8309999 3.73 -1.957 0.25999999
-7.8429999 3.7060001 -1.957 0.20999999
-7.8600001 3.6830001 -1.959 0.12
-7.8449998 3.6459999 -1.952 0.20999999
-7.869 3.6270001 -1.955 0.11
-7.8730001 3.6140001 -1.955 0.19
-7.8720002 3.5840001 -1.951 0.2
-7.8860002 3.5610001 -1.952 0.090000004
-7.8920002 3.5339999 -1.951 0
-7.8909998 3.503 -1.948 0
-7.927 3.4890001 -1.954 0
-7.9200001 3.457 -1.95 0
-7.9229999 3.4430001 -1.949 0
-7.9239998 3.414 -1.946 0
-7.9250002 3.385 -1.944 0
-7.934 3.359 -1.943 0
-7.961 3.3410001 -1.948 0
-7.9840002 3.322 -1.951 0
-7.947 3.277 -1.939 0
-7.9780002 3.2750001 -1.9450001 0
-7.9920001 3.2509999 -1.946 0
-7.9860001 3.22 -1.942 0
-8.0080004 3.2 -1.9450001 0
-8.0129995 3.1719999 -1.944 0
-7.9990001 3.138 -1.938 0
-8.0039997 3.1110001 -1.936 0
-8.0279999 3.1059999 -1.942 0
-8.0240002 3.075 -1.938 0
-8.0410004 3.052 -1.9400001 0
-8.0249996 3.0179999 -1.933 0
-8.0319996 2.9920001 -1.933 0
-8.0270004 2.961 -1.929 0
-8.0469999 2.9400001 -1.932 0
-8.0410004 2.9230001 -1.929 0
-8.0450001 2.8959999 -1.928 0
-8.0679998 2.8759999 -1.931 0
-8.0550003 2.8429999 -1.926 0
-8.0509996 2.813 -1.9220001 0
-8.0749998 2.793 -1.926 0.07
-8.0609999 2.76 -1.921 0.15000001
-8.0690002 2.7479999 -1.9220001 0.16
-8.085 2.7249999 -1.923 0.18000001
-8.0719995 2.6919999 -1.918 0.16
-8.0769997 2.6659999 -1.9170001 0.039999999
-8.085 2.6400001 -1.9170001 0.18000001
-8.1059999 2.619 -1.92 0.20999999
-8.0810003 2.5829999 -1.9119999 0.16
-8.1000004 2.575 -1.915 0.23
-8.0970001 2.546 -1.913 0.19
-8.1070004 2.5209999 -1.913 0.22
-8.118 2.497 -1.914 0.18000001
-8.1219997 2.47 -1.913 0.25
-8.1230001 2.4419999 -1.911 0.20999999
-8.1280003 2.4159999 -1.911 0.23
-8.1099997 2.3970001 -1.905 0.18000001
-8.1269999 2.3740001 -1.908 0.23999999
-8.1210003 2.345 -1.904 0.23
-8.1190004 2.3169999 -1.902 0.2
-8.1370001 2.2939999 -1.905 0.23999999
-8.1459999 2.2690001 -1.905 0.23
-8.1420002 2.24 -1.902 0.20999999
-8.1549997 2.23 -1.905 0.25
-8.1470003 2.201 -1.901 0.23
-8.1350002 2.1700001 -1.896 0.18000001
-8.1660004 2.151 -1.902 0.27000001
-8.1520004 2.1199999 -1.897 0.23
-8.1440001 2.0899999 -1.8940001 0.18000001
-8.177 2.0710001 -1.9 0.25999999
-8.1709995 2.056 -1.898 0.25
-8.1429996 2.0220001 -1.8890001 0.17
-8.1780005 2.003 -1.896 0.28999999
-8.1780005 1.976 -1.895 0.20999999
-8.1789999 1.949 -1.8940001 0.12
-8.1890001 1.924 -1.895 0
-8.1990004 1.899 -1.895 0
-8.2060003 1.874 -1.896 0.12
-8.1689997 1.852 -1.886 0.18000001
-8.198 1.832 -1.892 0.27000001
-8.1870003 1.802 -1.888 0.25
-8.1619997 1.77 -1.88 0.2
-8.2089996 1.753 -1.89 0.25999999
-8.1960001 1.723 -1.886 0.22
-8.1809998 1.707 -1.881 0.18000001
-8.2150002 1.687 -1.888 0.28
-8.1859999 1.654 -1.88 0.23999999
-8.1949997 1.6289999 -1.881 0.20999999
-8.2229996 1.608 -1.887 0.25
-8.2010002 1.577 -1.88 0.23
-8.2019997 1.55 -1.8789999 0.2
-8.2139997 1.539 -1.881 0.27000001
-8.2329998 1.516 -1.885 0
-8.2600002 1.494 -1.89 0
-8.2270002 1.461 -1.881 0.02
-8.2200003 1.434 -1.878 0.16
-8.2180004 1.4069999 -1.877 0.16
-8.2670002 1.388 -1.888 0.25999999
-8.2379999 1.37 -1.88 0.23
-8.2290001 1.342 -1.877 0.18000001
-8.2770004 1.323 -1.888 0.25999999
-8.2679996 1.295 -1.8839999 0.23
-8.3339996 1.279 -1.899 0.2
-8.3509998 1.255 -1.902 0.12
-8.3339996 1.239 -1.898 0.2
-8.3800001 1.219 -1.908 0
-8.3699999 1.191 -1.905 0
-8.3570004 1.1619999 -1.901 0
-8.3470001 1.1339999 -1.897 0.02
-8.3409996 1.1059999 -1.895 0.14
-8.3710003 1.084 -1.901 0.11
-8.3649998 1.069 -1.9 0.18000001
-8.3859997 1.045 -1.904 0.12
-8.3620005 1.016 -1.897 0.2
-8.3839998 0.99199998 -1.902 0.1
-8.3699999 0.963 -1.898 0.20999999
-8.3979998 0.94 -1.904 0.11
-8.382 0.91100001 -1.899 0.20999999
-8.3909998 0.89899999 -1.901 0.11
-8.3839998 0.87199998 -1.899 0.2
-8.3959999 0.84600002 -1.901 0.1
-8.3839998 0.81800002 -1.897 0.19
-8.4060001 0.79400003 -1.902 0.11
-8.3940001 0.76599997 -1.899 0.19
-8.3940001 0.75300002 -1.898 0.11
-8.3789997 0.72500002 -1.8940001 0.20999999
-8.3959999 0.69999999 -1.898 0.11
-8.3909998 0.67299998 -1.896 0.18000001
-8.4020004 0.64700001 -1.898 0.22
-8.3929996 0.62 -1.895 0.2
-8.3990002 0.59399998 -1.896 0.23
-8.401 0.58099997 -1.897 0.2
-8.4069996 0.55500001 -1.898 0.23
-8.3950005 0.52700001 -1.895 0.18000001
-8.4119997 0.50199997 -1.898 0.23
-8.3889999 0.47400001 -1.892 0.20999999
-8.3999996 0.44800001 -1.895 0.12
-8.382 0.421 -1.89 0.20999999
-8.375 0.40700001 -1.888 0.19
-8.4069996 0.382 -1.895 0.27000001
-8.3929996 0.35499999 -1.892 0.20999999
-8.3739996 0.32800001 -1.887 0.18000001
-8.4040003 0.303 -1.8940001 0.25999999
-8.3900003 0.27599999 -1.89 0.23
-8.3769999 0.249 -1.887 0.19
-8.4069996 0.237 -1.8940001 0.25999999
-8.3879995 0.20999999 -1.8890001 0.23999999
-8.3809996 0.183 -1.888 0.19
-8.4040003 0.15800001 -1.893 0.28
-8.3839998 0.131 -1.888 0.23999999
-8.368 0.104 -1.8839999 0.18000001
-8.408 0.078000002 -1.8940001 0.27000001
-8.3800001 0.064999998 -1.887 0.25
-8.3809996 0.039000001 -1.887 0.19
-8.3920002 0.012 -1.89 0.25999999
-8.3900003 -0.014 -1.8890001 0.23
-8.3809996 -0.039999999 -1.887 0.2
-8.4060001 -0.067000002 -1.893 0.27000001
-8.3940001 -0.093000002 -1.89 0.23
-8.3920002 -0.106 -1.89 0.18000001
-8.3970003 -0.133 -1.891 0.25999999
-8.3809996 -0.15899999 -1.888 0.20999999
-8.408 -0.186 -1.8940001 0.20999999
-8.4110003 -0.212 -1.895 0.25
-8.3789997 -0.23800001 -1.888 0.23
-8.4099998 -0.26499999 -1.895 0.25
-8.3940001 -0.278 -1.891 0.2
-8.4099998 -0.30500001 -1.895 0.25
-8.4090004 -0.331 -1.895 0.19
-8.4060001 -0.35800001 -1.895 0.25
-8.3990002 -0.384 -1.8940001 0.20999999
-8.4130001 -0.41100001 -1.897 0
-8.4139996 -0.43700001 -1.898 0
-8.3959999 -0.44999999 -1.8940001 0
-8.3809996 -0.47499999 -1.89 0
-8.368 -0.50099999 -1.888 0
-8.3660002 -0.52700001 -1.888 0.02
-8.3900003 -0.55500001 -1.8940001 0.07
-8.3699999 -0.57999998 -1.8890001 0.19
-8.3990002 -0.60900003 -1.897 0.11
-8.3929996 -0.62199998 -1.895 0.2
-8.3909998 -0.648 -1.895 0.11
-8.3789997 -0.67400002 -1.893 0.18000001
-8.4040003 -0.70200002 -1.9 0.11
-8.3979998 -0.72799999 -1.899 0.20999999
-8.3940001 -0.75400001 -1.898 0.11
-8.3889999 -0.77999997 -1.898 0.18000001
-8.3859997 -0.79299998 -1.897 0.22
-8.3800001 -0.81900001 -1.896 0.18000001
-8.3909998 -0.847 -1.9 0.059999999
-8.3920002 -0.87400001 -1.901 0
-8.3830004 -0.89999998 -1.899 0
-8.3760004 -0.926 -1.898 0
-8.3620005 -0.95099998 -1.895 0
-8.3620005 -0.96399999 -1.896 0
-8.3830004 -1.02 -1.902 0.23
-8.3590002 -1.043 -1.897 0.25
-8.3629999 -1.071 -1.899 0.25999999
-8.3579998 -1.097 -1.899 0.25
-8.3699999 -1.125 -1.902 0.25999999
-8.3599997 -1.137 -1.901 0.16
-8.3509998 -1.1619999 -1.899 0.28
-8.3509998 -1.189 -1.9 0.23999999
-8.3470001 -1.215 -1.9 0.25
-8.3260002 -1.239 -1.896 0.20999999
-8.3389997 -1.268 -1.9 0.27000001
-8.3240004 -1.2920001 -1.897 0.25
-8.2950001 -1.301 -1.891 0.27000001
-8.3210001 -1.332 -1.898 0.25
-8.309 -1.357 -1.896 0.28
-8.3070002 -1.383 -1.897 0.28
-8.2989998 -1.409 -1.896 0.27000001
-8.2919998 -1.4349999 -1.895 0.27000001
-8.2840004 -1.46 -1.895 0.28999999
-8.2679996 -1.471 -1.891 0.28
-8.2749996 -1.499 -1.8940001 0.27000001
-8.257 -1.522 -1.891 0.25
-8.2519999 -1.548 -1.891 0.28999999
-8.2650003 -1.577 -1.895 0.28999999
-8.2559996 -1.603 -1.8940001 0.30000001
-8.2489996 -1.628 -1.8940001 0.30000001
-8.2600002 -1.6440001 -1.897 0.31
-8.2559996 -1.67 -1.897 0.28999999
-8.2379999 -1.693 -1.8940001 0.23
-8.2530003 -1.723 -1.899 0.40000001
-8.1999998 -1.739 -1.888 0.33000001
-8.1000004 -1.745 -1.864 0.28999999
-8.0010004 -1.75 -1.841 0.28999999
-7.8940001 -1.74 -1.816 0.27000001
-7.829 -1.752 -1.801 0.30000001
-7.8070002 -1.773 -1.7970001 0.31999999
-7.8010001 -1.7970001 -1.7970001 0.28999999
-7.7839999 -1.819 -1.794 0.28999999
-7.7820001 -1.845 -1.795 0.28999999
-7.7670002 -1.867 -1.793 0.28
-7.75 -1.876 -1.79 0.27000001
-7.7519999 -1.902 -1.791 0.31
-7.7420001 -1.925 -1.791 0.31999999
-7.7319999 -1.949 -1.79 0.31
-7.7280002 -1.973 -1.79 0.31999999
-7.7220001 -1.998 -1.79 0.31
-7.717 -2.0220001 -1.791 0.28999999
-7.697 -2.03 -1.786 0.28999999
-7.691 -2.0539999 -1.786 0.31999999
-7.684 -2.079 -1.786 0.36000001
-7.684 -2.1040001 -1.788 0.33000001
-7.6669998 -2.1259999 -1.785 0.31
-7.6529999 -2.148 -1.784 0.31
-7.652 -2.1730001 -1.785 0.30000001
-7.6490002 -2.1849999 -1.785 0.34
-7.6399999 -2.2090001 -1.784 0.28999999
-7.6329999 -2.233 -1.784 0.27000001
-7.6259999 -2.257 -1.784 0.20999999
-7.6279998 -2.2839999 -1.7869999 0.25
-7.6079998 -2.3039999 -1.784 0.19
-7.6100001 -2.3299999 -1.786 0.20999999
-7.5970001 -2.339 -1.784 0.17
-7.5910001 -2.3640001 -1.784 0.039999999
-7.5949998 -2.391 -1.7869999 0
-7.573 -2.4100001 -1.783 0
-7.5500002 -2.4289999 -1.779 0
-7.5310001 -2.45 -1.777 0
-7.5349998 -2.477 -1.779 0
-7.5359998 -2.49 -1.781 0
-7.5229998 -2.5120001 -1.779 0
-7.493 -2.5280001 -1.774 0
-7.4980001 -2.556 -1.777 0
-7.4970002 -2.582 -1.779 0
-7.4840002 -2.6040001 -1.777 0
-7.4679999 -2.625 -1.776 0
-7.4619999 -2.6359999 -1.775 0
-7.461 -2.6619999 -1.777 0
-7.4429998 -2.6819999 -1.775 0
-7.4060001 -2.6949999 -1.767 0
-7.408 -2.7219999 -1.77 0
-7.4089999 -2.7490001 -1.772 0
-7.4109998 -2.776 -1.775 0
-7.4070001 -2.7880001 -1.775 0
-7.3800001 -2.8039999 -1.77 0
-7.362 -2.8239999 -1.768 0.07
-7.342 -2.8429999 -1.765 0.14
-7.3400002 -2.869 -1.767 0.16
-7.3200002 -2.888 -1.7640001 0.18000001
-7.322 -2.915 -1.767 0.1
-7.2989998 -2.9189999 -1.763 0.16
-7.2789998 -2.938 -1.76 0.23
-7.2610002 -2.957 -1.757 0.22
-7.2280002 -2.97 -1.751 0.17
-7.2399998 -3.0020001 -1.757 0.28
-7.211 -3.016 -1.752 0.25
-7.2059999 -3.0280001 -1.752 0.25999999
-7.1950002 -3.05 -1.751 0.28
-7.1620002 -3.062 -1.745 0.27000001
-7.151 -3.0840001 -1.745 0.30000001
-7.1339998 -3.1029999 -1.743 0.31999999
-7.1170001 -3.1229999 -1.7410001 0.30000001
-7.0999999 -3.142 -1.739 0.30000001
-7.0900002 -3.151 -1.738 0.33000001
-7.066 -3.1670001 -1.734 0.31
-7.0560002 -3.1889999 -1.734 0.31999999
-7.0370002 -3.207 -1.732 0.31
-7.0250001 -3.2279999 -1.7309999 0.31
-7.0040002 -3.2449999 -1.728 0.31999999
-6.9759998 -3.2590001 -1.724 0.30000001
-6.973 -3.2709999 -1.724 0.30000001
-6.9520001 -3.2880001 -1.721 0.28999999
-6.9400001 -3.309 -1.721 0.30000001
-6.921 -3.3269999 -1.719 0.30000001
-6.9070001 -3.3469999 -1.7180001 0.34
-6.8930001 -3.3670001 -1.717 0.30000001
-6.875 -3.385 -1.715 0.34
-6.8629999 -3.392 -1.7130001 0.30000001
-6.8449998 -3.4100001 -1.711 0.30000001
-6.8309999 -3.4300001 -1.71 0.34
-6.816 -3.45 -1.709 0.33000001
-6.7950001 -3.4660001 -1.707 0.31999999
-6.783 -3.4860001 -1.706 0.33000001
-6.77 -3.507 -1.706 0.31999999
-6.7540002 -3.5120001 -1.7029999 0.30000001
-6.7480001 -3.536 -1.704 0.34
-6.73 -3.553 -1.702 0.31999999
-6.7150002 -3.573 -1.701 0.28999999
-6.7010002 -3.592 -1.7 0.33000001
-6.684 -3.6099999 -1.699 0.30000001
-6.6750002 -3.632 -1.7 0.33000001
-6.6719999 -3.645 -1.7 0.31999999
-6.6570001 -3.664 -1.7 0.31
-6.632 -3.677 -1.696 0.28999999
-6.6269999 -3.7019999 -1.698 0.34
-6.6059999 -3.717 -1.6950001 0.30000001
-6.599 -3.74 -1.696 0.34
-6.5749998 -3.7539999 -1.693 0.33000001
-6.573 -3.767 -1.694 0.31999999
-6.559 -3.786 -1.693 0.28999999
-6.5409999 -3.803 -1.692 0.34
-6.5289998 -3.823 -1.692 0.31999999
-6.5009999 -3.835 -1.687 0.30000001
-6.493 -3.8570001 -1.688 0.34
-6.487 -3.882 -1.6900001 0.28999999
-6.4679999 -3.8840001 -1.687 0.34
-6.4419999 -3.8959999 -1.683 0.28999999
-6.4330001 -3.9189999 -1.684 0.31
-6.4109998 -3.9330001 -1.681 0.30000001
-6.395 -3.951 -1.6799999 0.31
-6.3909998 -3.9760001 -1.682 0.30000001
-6.3600001 -3.9849999 -1.677 0.30000001
-6.3520002 -3.994 -1.677 0.31999999
-6.3429999 -4.0159998 -1.678 0.31999999
-6.3119998 -4.0240002 -1.673 0.31999999
-6.2950001 -4.0409999 -1.671 0.31999999
-6.2849998 -4.0630002 -1.6720001 0.30000001
-6.263 -4.0760002 -1.669 0.31999999
-6.2529998 -4.098 -1.67 0.31
-6.2420001 -4.1040001 -1.669 0.34
-6.2129998 -4.1129999 -1.664 0.33000001
-6.197 -4.131 -1.663 0.31999999
-6.1950002 -4.158 -1.666 0.33000001
-6.1719999 -4.171 -1.664 0.31999999
-6.1539998 -4.1869998 -1.6619999 0.31
-6.1440001 -4.2080002 -1.663 0.31999999
-6.1279998 -4.211 -1.66 0.33000001
-6.1079998 -4.2259998 -1.659 0.31999999
-6.1040001 -4.2519999 -1.661 0.34
-6.0749998 -4.2600002 -1.6569999 0.31999999
-6.0539999 -4.2740002 -1.654 0.31999999
-6.0469999 -4.2969999 -1.656 0.34
-6.0300002 -4.3140001 -1.655 0.31999999
-6.006 -4.3109999 -1.65 0.33000001
-6.0029998 -4.3379998 -1.653 0.33000001
-5.9710002 -4.3429999 -1.648 0.33000001
-5.9489999 -4.3559999 -1.645 0.34
-5.9450002 -4.381 -1.648 0.33000001
-5.9219999 -4.3930001 -1.645 0.34
-5.9099998 -4.3990002 -1.6440001 0.31999999
-5.901 -4.421 -1.645 0.31999999
-5.8759999 -4.4310002 -1.642 0.31999999
-5.868 -4.454 -1.6440001 0.34
-5.8590002 -4.4759998 -1.645 0.34
-5.8309999 -4.4840002 -1.641 0.31999999
-5.8169999 -4.5019999 -1.641 0.33000001
-5.816 -4.5159998 -1.643 0.34
-5.783 -4.52 -1.638 0.31999999
-5.7659998 -4.5359998 -1.637 0.31999999
-5.7670002 -4.566 -1.641 0.33000001
-5.7309999 -4.5669999 -1.635 0.34999999
-5.7179999 -4.586 -1.635 0.34
-5.7020001 -4.6030002 -1.635 0.33000001
-5.6799998 -4.5999999 -1.63 0.28999999
-5.6560001 -4.6100001 -1.627 0.34999999
-5.6430001 -4.6290002 -1.628 0.31999999
-5.632 -4.6500001 -1.6289999 0.31999999
-5.6139998 -4.665 -1.628 0.33000001
-5.592 -4.6760001 -1.625 0.31999999
-5.5710001 -4.6890001 -1.624 0.31
-5.5580001 -4.6919999 -1.622 0.31999999
-5.5570002 -4.7210002 -1.626 0.34
-5.5339999 -4.7319999 -1.624 0.31999999
-5.5180001 -4.7480001 -1.623 0.31999999
-5.5089998 -4.7709999 -1.625 0.31999999
-5.4809999 -4.777 -1.6210001 0.31999999
-5.4629998 -4.7909999 -1.62 0.31999999
-5.46 -4.8039999 -1.6210001 0.31
-5.4359999 -4.8130002 -1.618 0.31999999
-5.428 -4.8369999 -1.6210001 0.33000001
-5.4130001 -4.8540001 -1.6210001 0.33000001
-5.3889999 -4.8629999 -1.618 0.31999999
-5.3720002 -4.8779998 -1.617 0.31
-5.3590002 -4.8979998 -1.618 0.31999999
-5.349 -4.9039998 -1.617 0.33000001
-5.335 -4.9219999 -1.618 0.31999999
-5.3189998 -4.9390001 -1.618 0.33000001
-5.29 -4.9419999 -1.613 0.31999999
-5.2729998 -4.9569998 -1.613 0.31
-5.2529998 -4.9699998 -1.6109999 0.30000001
-5.2389998 -4.9879999 -1.612 0.31
-5.2249999 -4.9910002 -1.61 0.31
-5.2119999 -5.0100002 -1.6109999 0.31
-5.1849999 -5.0149999 -1.607 0.28
-5.1820002 -5.0440001 -1.6109999 0.38
-5.165 -5.0580001 -1.6109999 0.30000001
-5.1459999 -5.072 -1.61 0.31999999
-5.1230001 -5.0809999 -1.608 0.31
-5.1069999 -5.0809999 -1.605 0.38
-5.0830002 -5.0890002 -1.602 0.34999999
-5.0679998 -5.1059999 -1.603 0.34
-5.0560002 -5.1259999 -1.604 0.31999999
-5.0300002 -5.132 -1.601 0.28999999
-5.0029998 -5.1370001 -1.597 0.34999999
-4.9990001 -5.165 -1.601 0.31
-4.9759998 -5.158 -1.596 0.33000001
-4.9590001 -5.1719999 -1.596 0.31999999
-4.9489999 -5.1950002 -1.598 0.31999999
-4.927 -5.2049999 -1.596 0.31
-4.9060001 -5.2140002 -1.594 0.34
-4.8829999 -5.223 -1.592 0.30000001
-4.8639998 -5.2189999 -1.5880001 0.31
-4.8470001 -5.2340002 -1.5880001 0.31
-4.8309999 -5.2490001 -1.5880001 0.33000001
-4.8130002 -5.263 -1.5880001 0.34
-4.7909999 -5.2719998 -1.586 0.30000001
-4.7729998 -5.2859998 -1.585 0.30000001
-4.7449999 -5.2880001 -1.581 0.31999999
-4.7280002 -5.2849998 -1.5779999 0.30000001
-4.724 -5.3150001 -1.582 0.33000001
-4.6960001 -5.316 -1.5779999 0.28999999
-4.6739998 -5.3249998 -1.576 0.30000001
-4.6620002 -5.3460002 -1.5779999 0.31
-4.6350002 -5.349 -1.575 0.34
-4.6170001 -5.362 -1.574 0.31999999
-4.619 -5.381 -1.5779999 0.34
-4.5949998 -5.388 -1.576 0.31999999
-4.5710001 -5.3930001 -1.573 0.30000001
-4.5510001 -5.4050002 -1.572 0.30000001
-4.5320001 -5.4159999 -1.571 0.31999999
-4.5139999 -5.4289999 -1.5700001 0.31999999
-4.4970002 -5.4429998 -1.5700001 0.31999999
-4.4780002 -5.4380002 -1.567 0.34
-4.4629998 -5.4549999 -1.568 0.36000001
-4.4499998 -5.474 -1.569 0.30000001
-4.4250002 -5.4790001 -1.566 0.31999999
-4.4039998 -5.4879999 -1.5650001 0.31
-4.388 -5.5029998 -1.5650001 0.31999999
-4.3629999 -5.506 -1.562 0.34999999
-4.3530002 -5.5120001 -1.562 0.30000001
-4.3520002 -5.5469999 -1.568 0.34
-4.3189998 -5.54 -1.562 0.31999999
-4.296 -5.546 -1.5599999 0.28999999
-4.283 -5.566 -1.562 0.30000001
-4.2589998 -5.5700002 -1.559 0.31999999
-4.243 -5.5869999 -1.5599999 0.36000001
-4.2360001 -5.5949998 -1.5599999 0.30000001
-4.2119999 -5.5999999 -1.558 0.33000001
-4.1890001 -5.6059999 -1.5549999 0.28999999
-4.1739998 -5.6220002 -1.556 0.30000001
-4.1500001 -5.6269999 -1.554 0.34
-4.1339998 -5.6420002 -1.5549999 0.31
-4.1129999 -5.652 -1.554 0.28999999
-4.1030002 -5.6570001 -1.553 0.33000001
-4.079 -5.6599998 -1.55 0.28999999
-4.066 -5.6789999 -1.552 0.30000001
-4.0370002 -5.678 -1.548 0.30000001
-4.0300002 -5.704 -1.552 0.34
-4.0149999 -5.7220001 -1.554 0.31999999
-3.977 -5.7059999 -1.545 0.27000001
-3.9649999 -5.7069998 -1.544 0.30000001
-3.9489999 -5.723 -1.545 0.30000001
-3.931 -5.7350001 -1.545 0.34
-3.9089999 -5.7410002 -1.543 0.28999999
-3.892 -5.7550001 -1.543 0.30000001
-3.8670001 -5.7579999 -1.541 0.34
-3.846 -5.7649999 -1.539 0.30000001
-3.845 -5.7839999 -1.543 0.34
-3.8150001 -5.7779999 -1.538 0.28999999
-3.803 -5.8000002 -1.541 0.33000001
-3.783 -5.8080001 -1.54 0.31999999
-3.7539999 -5.8039999 -1.535 0.31
-3.737 -5.8169999 -1.535 0.31
-3.7309999 -5.8280001 -1.5369999 0.33000001
-3.7060001 -5.8299999 -1.534 0.33000001
-3.6849999 -5.8369999 -1.533 0.31999999
-3.664 -5.8449998 -1.5319999 0.25
-3.6459999 -5.8559999 -1.5319999 0.36000001
-3.632 -5.8740001 -1.534 0.34
-3.609 -5.8790002 -1.5319999 0.28999999
-3.6010001 -5.8870001 -1.5319999 0.36000001
-3.5780001 -5.8909998 -1.53 0.34
-3.5610001 -5.9039998 -1.531 0.33000001
-3.5409999 -5.914 -1.53 0.34999999
-3.5150001 -5.9109998 -1.527 0.30000001
-3.5050001 -5.9369998 -1.531 0.34
-3.48 -5.9369998 -1.527 0.28999999
-3.4749999 -5.9499998 -1.53 0.33000001
-3.4519999 -5.9530001 -1.527 0.33000001
-3.4260001 -5.9520001 -1.524 0.30000001
-3.408 -5.9640002 -1.525 0.31999999
-3.392 -5.98 -1.526 0.27000001
-3.3440001 -5.9380002 -1.512 0.31999999
-3.3169999 -5.9349999 -1.508 0.43000001
-3.3199999 -5.961 -1.513 0.30000001
-3.29 -5.9530001 -1.508 0.23999999
-3.2639999 -5.9489999 -1.505 0.43000001
-3.2449999 -5.9590001 -1.505 0.38999999
-3.227 -5.9699998 -1.505 0.31999999
-3.2119999 -5.987 -1.506 0.47999999
-3.204 -6.0170002 -1.512 0.38999999
-3.1960001 -6.026 -1.513 0.30000001
-3.1830001 -6.046 -1.516 0.33000001
-3.164 -6.0560002 -1.516 0.31999999
-3.142 -6.0609999 -1.5140001 0.31
-3.118 -6.0599999 -1.512 0.28999999
-3.099 -6.0700002 -1.512 0.28999999
-3.0799999 -6.0809999 -1.512 0.28999999
-3.0639999 -6.072 -1.508 0.23
-3.0450001 -6.0840001 -1.5089999 0.31999999
-3.0239999 -6.0879998 -1.507 0.38999999
-3.0020001 -6.092 -1.506 0.34
-2.9849999 -6.105 -1.507 0.33000001
-2.9549999 -6.0939999 -1.501 0.28999999
-2.941 -6.0890002 -1.499 0.31999999
-2.9200001 -6.0949998 -1.498 0.31
-2.8959999 -6.0939999 -1.495 0.36000001
-2.875 -6.099 -1.494 0.34
-2.8629999 -6.1220002 -1.498 0.43000001
-2.8410001 -6.1259999 -1.497 0.31
-2.826 -6.1440001 -1.499 0.34999999
-2.812 -6.1389999 -1.497 0.28
-2.786 -6.132 -1.492 0.30000001
-2.766 -6.1389999 -1.492 0.40000001
-2.7449999 -6.1459999 -1.492 0.33000001
-2.7190001 -6.1389999 -1.487 0.34
-2.704 -6.1560001 -1.49 0.36000001
-2.691 -6.1810002 -1.494 0.38999999
-2.681 -6.1830001 -1.493 0.34
-2.6659999 -6.2020001 -1.4960001 0.33000001
-2.645 -6.2069998 -1.495 0.30000001
-2.619 -6.2010002 -1.492 0.31
-2.598 -6.2049999 -1.4910001 0.27000001
-2.5680001 -6.1869998 -1.484 0.28
-2.5450001 -6.1880002 -1.482 0.37
-2.539 -6.2010002 -1.484 0.44
-2.536 -6.2480001 -1.494 0.36000001
-2.513 -6.2490001 -1.492 0.28999999
-2.4890001 -6.244 -1.489 0.28
-2.461 -6.2319999 -1.484 0.27000001
-2.4389999 -6.2319999 -1.482 0.28999999
-2.425 -6.2550001 -1.4859999 0.30000001
-2.408 -6.2399998 -1.4809999 0.22
-2.385 -6.2389998 -1.479 0.28999999
-2.369 -6.257 -1.482 0.38999999
-2.369 -6.3150001 -1.495 0.41
-2.3399999 -6.2989998 -1.489 0.31999999
-2.316 -6.2940001 -1.485 0.28999999
-2.303 -6.3189998 -1.49 0.27000001
-2.2820001 -6.2940001 -1.483 0.25
-2.257 -6.2880001 -1.479 0.27000001
-2.227 -6.2659998 -1.472 0.28
-2.2049999 -6.2670002 -1.471 0.31999999
-2.191 -6.289 -1.474 0.43000001
-2.187 -6.3410001 -1.4859999 0.40000001
-2.171 -6.3270001 -1.4809999 0.28
-2.1389999 -6.2979999 -1.472 0.34999999
-2.1300001 -6.336 -1.48 0.34
-2.1070001 -6.3340001 -1.478 0.37
-2.0810001 -6.3239999 -1.474 0.36000001
-2.0650001 -6.3410001 -1.477 0.33000001
-2.0369999 -6.322 -1.47 0.36000001
-2.029 -6.3309999 -1.472 0.46000001
-2.0209999 -6.3740001 -1.4809999 0.44999999
-2.003 -6.388 -1.483 0.28
-1.988 -6.4089999 -1.4859999 0.25999999
-1.961 -6.395 -1.4809999 0.23999999
-1.926 -6.3530002 -1.469 0.34999999
-1.915 -6.3860002 -1.476 0.37
-1.919 -6.4359999 -1.488 0.25
-1.8839999 -6.3940001 -1.476 0.28999999
-1.8609999 -6.388 -1.473 0.25
-1.85 -6.4260001 -1.4809999 0.31999999
-1.83 -6.4330001 -1.4809999 0.38999999
-1.808 -6.434 -1.48 0.37
-1.7869999 -6.4369998 -1.479 0.28999999
-1.767 -6.4029999 -1.47 0.28
-1.749 -6.4159999 -1.472 0.38999999
-1.735 -6.4439998 -1.478 0.34
-1.715 -6.4510002 -1.478 0.37
-1.694 -6.454 -1.478 0.31999999
-1.677 -6.4710002 -1.48 0.36000001
-1.654 -6.4650002 -1.478 0.34999999
-1.643 -6.4640002 -1.477 0.38
-1.622 -6.467 -1.476 0.37
-1.595 -6.448 -1.47 0.40000001
-1.575 -6.4510002 -1.47 0.33000001
-1.552 -6.4439998 -1.467 0.33000001
-1.531 -6.447 -1.466 0.34
-1.517 -6.4780002 -1.473 0.41999999
-1.5140001 -6.513 -1.4809999 0.36000001
-1.484 -6.4759998 -1.471 0.22
-1.469 -6.5019999 -1.476 0.27000001
-1.447 -6.5 -1.474 0.25
-1.424 -6.494 -1.472 0.20999999
-1.385 -6.414 -1.451 0.25999999
-1.378 -6.4780002 -1.465 0.30000001
-1.278 -6.0650001 -1.364 0.14
-1.235 -5.9530001 -1.335 0.37
-1.217 -5.961 -1.336 0.41999999
-1.194 -5.9460001 -1.332 0.56
-1.205 -6.098 -1.368 0.33000001
-1.261 -6.4759998 -1.459 0.23999999
-1.255 -6.5009999 -1.465 0.22
-1.226 -6.4590001 -1.454 0.23
-1.191 -6.3899999 -1.436 0.33000001
-1.181 -6.4429998 -1.448 0.49000001
-1.159 -6.441 -1.447 0.25
-1.13 -6.3930001 -1.434 0.36000001
-1.113 -6.414 -1.438 0.38
-1.112 -6.4689999 -1.451 0.2
-1.1059999 -6.553 -1.471 0.28999999
-1.084 -6.5510001 -1.47 0.25
-1.064 -6.5539999 -1.47 0.23999999
-1.036 -6.513 -1.459 0.23
-1.0140001 -6.5110002 -1.4579999 0.31
-0.99400002 -6.5139999 -1.4579999 0.28999999
-0.98100001 -6.5 -1.454 0.20999999
-0.95999998 -6.4990001 -1.4529999 0.20999999
-0.94 -6.5019999 -1.4529999 0.090000004
-0.90899998 -6.434 -1.436 0.18000001
-0.89600003 -6.4850001 -1.447 0.050000001
-0.87400001 -6.4759998 -1.444 0.16
-0.847 -6.4349999 -1.434 0.23999999
-0.83899999 -6.4510002 -1.437 0.25
-0.82599998 -6.5079999 -1.451 0.19
-0.80800003 -6.5279999 -1.455 0.20999999
-0.78899997 -6.546 -1.4579999 0.28999999
-0.77100003 -6.5700002 -1.464 0.36000001
-0.75099999 -6.572 -1.464 0.30000001
-0.73000002 -6.5700002 -1.4630001 0.34
-0.71700001 -6.552 -1.4579999 0.27000001
-0.69599998 -6.553 -1.4579999 0.38
-0.67799997 -6.572 -1.462 0.28
-0.65899998 -6.592 -1.466 0.28999999
-0.63599998 -6.5780001 -1.462 0.23
-0.616 -6.5780001 -1.462 0.25999999
-0.60699999 -6.5929999 -1.465 0.28999999
-0.58499998 -6.585 -1.4630001 0.28
-0.565 -6.5929999 -1.464 0.28
-0.54400003 -6.5939999 -1.464 0.25999999
-0.52200001 -6.5840001 -1.461 0.2
-0.50099999 -6.5760002 -1.459 0.28999999
-0.48199999 -6.5949998 -1.4630001 0.31999999
-0.47099999 -6.5879998 -1.461 0.25
-0.449 -6.5739999 -1.4579999 0.19
-0.42899999 -6.5910001 -1.461 0.28
-0.40700001 -6.5770001 -1.4579999 0.25
-0.38800001 -6.5900002 -1.46 0.23999999
-0.366 -6.5830002 -1.4579999 0.20999999
-0.345 -6.5749998 -1.456 0.28999999
-0.336 -6.5949998 -1.461 0.36000001
-0.315 -6.5879998 -1.459 0.31
-0.292 -6.5539999 -1.451 0.36000001
-0.273 -6.5879998 -1.4579999 0.31999999
-0.25299999 -6.5869999 -1.4579999 0.31999999
-0.23199999 -6.5809999 -1.457 0.25999999
-0.211 -6.5819998 -1.457 0.27000001
-0.20100001 -6.5939999 -1.459 0.46000001
-0.18000001 -6.6009998 -1.461 0.34
-0.16 -6.6069999 -1.462 0.30000001
-0.139 -6.5939999 -1.459 0.28
-0.118 -6.5809999 -1.456 0.28999999
-0.097000003 -6.585 -1.457 0.30000001
-0.077 -6.5890002 -1.4579999 0.28999999
-0.066 -6.566 -1.452 0.23999999
-0.045000002 -6.5739999 -1.454 0.31999999
-0.025 -6.599 -1.46 0.43000001
-0.0040000002 -6.599 -1.46 0.30000001
0.017000001 -6.5929999 -1.4579999 0.28
0.037 -6.5869999 -1.457 0.28999999
0.057999998 -6.5869999 -1.457 0.28
0.068000004 -6.5869999 -1.457 0.28
0.089000002 -6.579 -1.455 0.23
0.109 -6.5669999 -1.452 0.25
0.12899999 -6.4660001 -1.428 0.41
0.15099999 -6.5780001 -1.455 0.31999999
0.17299999 -6.618 -1.465 0.34999999
0.193 -6.5960002 -1.46 0.30000001
0.20200001 -6.5650001 -1.452 0.23
0.222 -6.5489998 -1.449 0.23
0.242 -6.527 -1.444 0.51999998
0.26100001 -6.4679999 -1.4299999 0.28
0.28400001 -6.552 -1.45 0.17
0.30500001 -6.5570002 -1.451 0.28999999
0.31600001 -6.5739999 -1.456 0.47
0.336 -6.5570002 -1.452 0.37
0.35299999 -6.4710002 -1.431 0.25
0.377 -6.54 -1.448 0.2
0.39899999 -6.5640001 -1.454 0.28999999
0.419 -6.5549998 -1.452 0.23
0.43900001 -6.546 -1.451 0.19
0.44800001 -6.533 -1.448 0.23
0.46799999 -6.526 -1.446 0.37
0.48899999 -6.5279999 -1.447 0.38999999
0.51099998 -6.5380001 -1.45 0.30000001
0.52999997 -6.5190001 -1.446 0.36000001
0.551 -6.5250001 -1.448 0.34
0.57300001 -6.539 -1.451 0.36000001
0.58200002 -6.5250001 -1.448 0.36000001
0.602 -6.5250001 -1.449 0.37
0.62300003 -6.527 -1.45 0.31999999
0.64300001 -6.5149999 -1.447 0.40000001
0.66500002 -6.5339999 -1.452 0.41
0.68400002 -6.513 -1.448 0.30000001
0.70499998 -6.5159998 -1.449 0.25999999
0.71399999 -6.506 -1.447 0.28
0.736 -6.513 -1.449 0.30000001
0.75700003 -6.5149999 -1.45 0.25999999
0.77600002 -6.5009999 -1.447 0.23
0.79400003 -6.4770002 -1.442 0.25
0.81400001 -6.4699998 -1.441 0.34
0.83499998 -6.4770002 -1.444 0.31999999
0.847 -6.4920001 -1.447 0.38999999
0.86900002 -6.4970002 -1.449 0.44
0.88700002 -6.4770002 -1.4450001 0.31
0.912 -6.5100002 -1.454 0.36000001
0.92900002 -6.4840002 -1.448 0.33000001
0.94400001 -6.4429998 -1.439 0.34999999
0.958 -6.4679999 -1.4450001 0.27000001
0.97899997 -6.467 -1.446 0.38999999
0.99900001 -6.46 -1.4450001 0.38
1.0190001 -6.4569998 -1.4450001 0.34
1.035 -6.4310002 -1.439 0.23999999
1.059 -6.4510002 -1.4450001 0.37
1.079 -6.4450002 -1.444 0.38999999
1.0880001 -6.4320002 -1.442 0.38999999
1.1059999 -6.4190001 -1.439 0.31999999
1.127 -6.421 -1.441 0.31999999
1.143 -6.395 -1.4349999 0.36000001
1.163 -6.3909998 -1.4349999 0.41999999
1.182 -6.3800001 -1.433 0.38999999
1.2 -6.3629999 -1.4299999 0.25999999
1.2180001 -6.3470001 -1.427 0.34
1.23 -6.3569999 -1.4299999 0.28999999
1.249 -6.3509998 -1.4299999 0.44
1.274 -6.3699999 -1.4349999 0.38
1.296 -6.3790002 -1.438 0.34999999
1.3150001 -6.369 -1.437 0.33000001
1.336 -6.369 -1.438 0.44
1.352 -6.3959999 -1.4450001 0.47
1.375 -6.4070001 -1.449 0.37
1.391 -6.3790002 -1.443 0.28
1.41 -6.3709998 -1.442 0.28999999
1.425 -6.3439999 -1.437 0.25
1.441 -6.3239999 -1.433 0.34
1.465 -6.335 -1.437 0.36000001
1.387 -5.9499998 -1.342 0.20999999
1.402 -5.9299998 -1.339 0.43000001
1.419 -5.9180002 -1.337 0.62
1.447 -5.9549999 -1.347 0.58999997
1.505 -6.1090002 -1.386 0.33000001
1.577 -6.3239999 -1.4400001 0.27000001
1.594 -6.3060002 -1.437 0.31999999
1.602 -6.2940001 -1.4349999 0.27000001
1.62 -6.283 -1.433 0.34999999
1.641 -6.2810001 -1.434 0.36000001
1.658 -6.2690001 -1.432 0.38999999
1.687 -6.2969999 -1.441 0.46000001
1.705 -6.2859998 -1.439 0.30000001
1.714 -6.2399998 -1.429 0.28999999
1.732 -6.2670002 -1.437 0.30000001
1.732 -6.1919999 -1.419 0.27000001
1.747 -6.1680002 -1.415 0.31999999
1.779 -6.2069998 -1.426 0.23999999
1.8049999 -6.2259998 -1.432 0.34
1.824 -6.2189999 -1.431 0.38999999
1.8380001 -6.2309999 -1.4349999 0.47999999
1.862 -6.2399998 -1.439 0.31999999
1.88 -6.2280002 -1.437 0.25999999
1.8940001 -6.204 -1.433 0.27000001
1.911 -6.1900001 -1.431 0.37
1.9349999 -6.1989999 -1.4349999 0.25999999
1.952 -6.1859999 -1.433 0.23
1.959 -6.1729999 -1.4299999 0.28
1.978 -6.165 -1.4299999 0.40000001
1.9960001 -6.1529999 -1.429 0.38
2.016 -6.1490002 -1.429 0.31999999
2.0369999 -6.1479998 -1.4299999 0.38999999
2.059 -6.151 -1.433 0.38999999
2.075 -6.1329999 -1.4299999 0.33000001
2.0840001 -6.1300001 -1.4299999 0.38999999
2.109 -6.138 -1.434 0.34
2.1229999 -6.119 -1.4299999 0.36000001
2.1440001 -6.1160002 -1.431 0.36000001
2.165 -6.1139998 -1.433 0.43000001
2.1900001 -6.1240001 -1.437 0.38999999
2.2090001 -6.1149998 -1.437 0.28999999
2.22 -6.1160002 -1.437 0.28999999
2.233 -6.0939999 -1.434 0.36000001
2.2520001 -6.085 -1.433 0.34999999
2.27 -6.0739999 -1.432 0.33000001
2.293 -6.0780001 -1.4349999 0.36000001
2.3039999 -6.0489998 -1.4299999 0.34999999
2.332 -6.0650001 -1.436 0.46000001
2.3340001 -6.0430002 -1.431 0.34
2.359 -6.052 -1.4349999 0.31
2.3859999 -6.0650001 -1.4400001 0.31999999
2.398 -6.039 -1.436 0.28999999
2.421 -6.0430002 -1.438 0.27000001
2.4400001 -6.033 -1.438 0.23999999
2.437 -5.9990001 -1.4299999 0.23999999
2.461 -6.0040002 -1.433 0.34
2.4920001 -6.026 -1.441 0.46000001
2.5009999 -5.993 -1.4349999 0.31
2.517 -5.9780002 -1.433 0.30000001
2.5380001 -5.9759998 -1.434 0.30000001
2.553 -5.961 -1.432 0.30000001
2.5639999 -5.96 -1.433 0.31
2.592 -5.974 -1.439 0.31
2.6029999 -5.947 -1.434 0.25999999
2.6259999 -5.948 -1.437 0.31999999
2.6500001 -5.9520001 -1.4400001 0.43000001
2.6570001 -5.9190001 -1.433 0.31999999
2.678 -5.9159999 -1.4349999 0.31
2.6949999 -5.928 -1.439 0.34999999
2.7090001 -5.9089999 -1.436 0.27000001
2.7260001 -5.8969998 -1.4349999 0.33000001
2.7420001 -5.8850002 -1.434 0.28999999
2.76 -5.8740001 -1.434 0.38
2.7780001 -5.8639998 -1.433 0.33000001
2.803 -5.869 -1.437 0.34
2.8050001 -5.8499999 -1.433 0.41999999
2.8340001 -5.8629999 -1.439 0.36000001
2.862 -5.875 -1.444 0.31
2.8770001 -5.8590002 -1.443 0.30000001
2.8959999 -5.8499999 -1.443 0.31
2.9130001 -5.8390002 -1.442 0.31
2.9300001 -5.8260002 -1.441 0.31999999
2.941 -5.8249998 -1.442 0.34
2.9579999 -5.8140001 -1.442 0.30000001
2.97 -5.7930002 -1.438 0.31999999
2.9909999 -5.7880001 -1.4400001 0.31999999
3.0079999 -5.777 -1.439 0.31
3.0209999 -5.757 -1.437 0.31
3.0409999 -5.7509999 -1.437 0.33000001
3.0480001 -5.743 -1.437 0.30000001
3.0669999 -5.7350001 -1.437 0.34
3.0810001 -5.717 -1.4349999 0.28999999
3.1029999 -5.7160001 -1.437 0.31
3.1159999 -5.6960001 -1.434 0.31
3.135 -5.6890001 -1.4349999 0.31
3.151 -5.6960001 -1.438 0.34
3.1600001 -5.671 -1.434 0.28999999
3.1789999 -5.6630001 -1.4349999 0.30000001
3.1919999 -5.6440001 -1.432 0.30000001
3.2090001 -5.6329999 -1.432 0.31
3.2279999 -5.6259999 -1.433 0.31999999
3.2460001 -5.6160002 -1.433 0.31999999
3.2520001 -5.6059999 -1.431 0.31999999
3.273 -5.6020002 -1.433 0.30000001
3.2950001 -5.599 -1.4349999 0.34
3.306 -5.5760002 -1.432 0.30000001
3.3369999 -5.5890002 -1.438 0.34
3.349 -5.5710001 -1.436 0.31999999
3.3559999 -5.5419998 -1.431 0.28999999
3.3699999 -5.5450001 -1.433 0.33000001
3.388 -5.5359998 -1.434 0.28999999
3.405 -5.5250001 -1.434 0.31
3.4260001 -5.5190001 -1.4349999 0.31999999
3.4460001 -5.513 -1.437 0.31999999
3.4590001 -5.4959998 -1.4349999 0.31999999
3.48 -5.4899998 -1.436 0.31
3.493 -5.4910002 -1.438 0.34
3.513 -5.4850001 -1.439 0.31999999
3.5309999 -5.4759998 -1.4400001 0.27000001
3.5469999 -5.4629998 -1.439 0.31
3.562 -5.4489999 -1.438 0.31999999
3.5739999 -5.4289999 -1.436 0.31999999
3.6059999 -5.441 -1.443 0.34999999
3.609 -5.427 -1.4400001 0.28
3.632 -5.4239998 -1.443 0.30000001
3.652 -5.4169998 -1.444 0.31
3.668 -5.4039998 -1.444 0.34
3.6800001 -5.3860002 -1.442 0.31
3.7090001 -5.3920002 -1.447 0.34999999
3.7149999 -5.381 -1.4450001 0.28999999
3.73 -5.368 -1.4450001 0.30000001
3.7579999 -5.3720002 -1.45 0.31999999
3.77 -5.3520002 -1.447 0.34
3.7880001 -5.342 -1.448 0.31
3.8080001 -5.335 -1.449 0.30000001
3.8239999 -5.323 -1.449 0.34999999
3.832 -5.3150001 -1.449 0.28999999
3.848 -5.303 -1.449 0.30000001
3.8640001 -5.29 -1.448 0.31999999
3.885 -5.2839999 -1.45 0.28
3.904 -5.2750001 -1.451 0.34999999
3.9200001 -5.2620001 -1.451 0.33000001
3.9400001 -5.2550001 -1.452 0.31999999
3.95 -5.25 -1.4529999 0.31
3.9649999 -5.2360001 -1.452 0.30000001
3.973 -5.2129998 -1.449 0.31
3.9990001 -5.2129998 -1.4529999 0.33000001
4.0120001 -5.1950002 -1.451 0.34
4.027 -5.1810002 -1.451 0.31999999
4.052 -5.1789999 -1.454 0.31
4.059 -5.171 -1.454 0.31
4.0770001 -5.1620002 -1.455 0.34
4.1020002 -5.1599998 -1.4579999 0.33000001
4.1129999 -5.1409998 -1.456 0.34
4.132 -5.131 -1.457 0.31
4.1550002 -5.1269999 -1.46 0.36000001
4.1680002 -5.1090002 -1.4579999 0.36000001
4.1739998 -5.1009998 -1.4579999 0.30000001
4.2010002 -5.1020002 -1.462 0.30000001
4.2129998 -5.0819998 -1.46 0.31
4.2350001 -5.0770001 -1.4630001 0.28
4.256 -5.0689998 -1.465 0.34999999
4.276 -5.0619998 -1.466 0.31999999
4.283 -5.0539999 -1.466 0.31999999
4.2989998 -5.04 -1.466 0.31
4.316 -5.0279999 -1.466 0.34
4.3330002 -5.0159998 -1.467 0.33000001
4.3639998 -5.02 -1.472 0.33000001
4.368 -4.993 -1.4680001 0.31999999
4.3899999 -4.987 -1.471 0.31999999
4.3979998 -4.98 -1.471 0.31999999
4.4089999 -4.96 -1.469 0.28999999
4.4330001 -4.9559999 -1.472 0.34999999
4.4569998 -4.9510002 -1.475 0.34
4.4590001 -4.9229999 -1.47 0.34
4.4749999 -4.908 -1.47 0.34
4.5009999 -4.9060001 -1.474 0.34
4.4990001 -4.8889999 -1.471 0.33000001
4.5250001 -4.8860002 -1.474 0.33000001
4.546 -4.8779998 -1.476 0.34
4.546 -4.848 -1.471 0.30000001
4.572 -4.8449998 -1.475 0.34999999
4.5970001 -4.8400002 -1.478 0.34
4.6020002 -4.816 -1.475 0.31999999
4.6209998 -4.8200002 -1.478 0.31999999
4.6389999 -4.8080001 -1.479 0.31999999
4.6459999 -4.7849998 -1.477 0.31999999
4.6630001 -4.7729998 -1.478 0.33000001
4.6820002 -4.763 -1.479 0.34
4.6929998 -4.744 -1.478 0.34
4.7160001 -4.737 -1.48 0.34
4.7249999 -4.7309999 -1.4809999 0.34
4.7319999 -4.7080002 -1.478 0.27000001
4.7620001 -4.7080002 -1.483 0.44
4.7709999 -4.6880002 -1.4809999 0.30000001
4.7940001 -4.6810002 -1.484 0.36000001
4.8070002 -4.665 -1.484 0.34
4.8189998 -4.6609998 -1.485 0.34
4.8189998 -4.6329999 -1.48 0.34
4.8439999 -4.6269999 -1.484 0.31999999
4.8639998 -4.6170001 -1.485 0.33000001
4.875 -4.599 -1.485 0.28999999
4.8870001 -4.5809999 -1.484 0.34999999
4.9000001 -4.5640001 -1.483 0.34999999
4.9039998 -4.5539999 -1.482 0.30000001
4.9299998 -4.5489998 -1.4859999 0.36000001
4.941 -4.5310001 -1.485 0.34
4.9530001 -4.513 -1.484 0.34999999
4.9710002 -4.5009999 -1.485 0.34
4.9809999 -4.4819999 -1.484 0.34
4.9889998 -4.461 -1.482 0.28999999
5.0029998 -4.4590001 -1.485 0.34999999
5.0100002 -4.4369998 -1.482 0.28999999
5.0300002 -4.427 -1.484 0.34999999
5.0450001 -4.4120002 -1.485 0.34999999
5.0609999 -4.3969998 -1.485 0.34
5.0710001 -4.3790002 -1.484 0.34
5.0970001 -4.3730001 -1.488 0.34999999
5.0960002 -4.3590002 -1.485 0.33000001
5.1129999 -4.3449998 -1.4859999 0.28999999
5.131 -4.3330002 -1.488 0.37
5.1399999 -4.3130002 -1.4859999 0.28999999
5.1669998 -4.3080001 -1.4910001 0.36000001
5.1820002 -4.2930002 -1.4910001 0.34999999
5.1999998 -4.2810001 -1.492 0.34999999
5.21 -4.2750001 -1.493 0.34
5.2280002 -4.2620001 -1.495 0.34
5.2410002 -4.2459998 -1.495 0.34
5.2620001 -4.2350001 -1.497 0.34
5.2800002 -4.223 -1.499 0.34
5.3010001 -4.2119999 -1.501 0.34
5.3080001 -4.1900001 -1.499 0.31999999
5.3249998 -4.191 -1.502 0.33000001
5.3470001 -4.1810002 -1.505 0.33000001
5.362 -4.165 -1.506 0.31999999
5.375 -4.1490002 -1.506 0.33000001
5.3969998 -4.1389999 -1.508 0.31999999
5.4039998 -4.1170001 -1.506 0.31999999
5.4180002 -4.1149998 -1.5089999 0.31999999
5.4429998 -4.1069999 -1.513 0.27000001
5.4499998 -4.085 -1.511 0.37
5.46 -4.066 -1.51 0.31
5.4850001 -4.0580001 -1.513 0.34999999
5.5019999 -4.0440001 -1.515 0.31999999
