# .PCD v0.7 - Point Cloud Data file format
VERSION 0.7
FIELDS x y z intensity
SIZE 4 4 4 4
TYPE F F F F
COUNT 1 1 1 1
WIDTH 1436
HEIGHT 1
VIEWPOINT 0 0 0 1 0 0 0
POINTS 1436
DATA ascii
-0.574 5.6609998 -1.765 0.25
-0.59200001 5.6659999 -1.767 0.23
-0.60799998 5.6420002 -1.76 0.20999999
-0.62900001 5.6719999 -1.77 0.28
-0.64600003 5.6589999 -1.767 0.22
-0.662 5.6420002 -1.762 0.16
-0.68300003 5.6680002 -1.771 0.31
-0.699 5.6539998 -1.767 0.2
-0.70599997 5.6399999 -1.763 0.18000001
-0.72500002 5.6469998 -1.766 0.28999999
-0.74400002 5.651 -1.768 0.2
-0.76099998 5.6459999 -1.767 0.25
-0.77899998 5.6459999 -1.768 0.2
-0.79400003 5.6230001 -1.761 0.23
-0.815 5.6440001 -1.7690001 0.25999999
-0.82200003 5.6300001 -1.765 0.17
-0.84299999 5.6459999 -1.771 0.25
-0.86000001 5.638 -1.7690001 0.22
-0.87800002 5.6370001 -1.77 0.23999999
-0.898 5.6490002 -1.775 0.22
-0.91299999 5.631 -1.77 0.23
-0.92799997 5.612 -1.7640001 0.14
-0.94199997 5.638 -1.773 0.28999999
-0.954 5.6069999 -1.7640001 0.20999999
-0.97600001 5.6290002 -1.772 0.2
-0.99299997 5.6199999 -1.77 0.16
-1.012 5.6240001 -1.773 0.28
-1.027 5.6059999 -1.768 0.23999999
-1.045 5.6079998 -1.77 0.14
-1.0549999 5.612 -1.772 0.28
-1.0700001 5.5939999 -1.767 0.25
-1.0930001 5.6170001 -1.775 0.23999999
-1.108 5.5999999 -1.771 0.12
-1.123 5.5840001 -1.767 0.2
-1.143 5.5910001 -1.77 0.2
-1.161 5.5910001 -1.772 0.27000001
-1.168 5.5819998 -1.7690001 0.23
-1.191 5.6009998 -1.777 0.23999999
-1.206 5.586 -1.773 0.23999999
-1.22 5.5669999 -1.768 0.25
-1.239 5.5710001 -1.77 0.16
-1.2589999 5.5780001 -1.774 0.27000001
-1.275 5.5669999 -1.772 0.23
-1.288 5.585 -1.778 0.25999999
-1.299 5.5510001 -1.768 0.20999999
-1.076 4.4920001 -1.41 0.74000001
-1.0599999 4.369 -1.369 0
-1.039 4.2270002 -1.322 0
-1.048 4.2080002 -1.316 0
-1.04 4.1490002 -1.2970001 0
-1.051 4.1360002 -1.294 0
-1.044 4.0599999 -1.2690001 0.07
-1.05 4.0310001 -1.26 0.16
-1.062 4.026 -1.2589999 0.28999999
-1.072 4.0110002 -1.255 0.30000001
-1.077 3.98 -1.2460001 0.27000001
-1.084 3.98 -1.247 0.31
-1.099 3.9860001 -1.25 0.41
-1.113 3.9879999 -1.252 0.18000001
-1.112 3.9389999 -1.2359999 0.50999999
-1.16 4.0560002 -1.277 0
-1.127 3.8989999 -1.225 0
-1.105 3.779 -1.184 0
-1.122 3.7939999 -1.191 0.059999999
-1.119 3.763 -1.181 0.15000001
-1.132 3.763 -1.182 0.16
-1.152 3.7850001 -1.191 0
-1.142 3.7130001 -1.1670001 0.02
-1.143 3.675 -1.155 0.029999999
-1.159 3.6849999 -1.16 0
-1.163 3.658 -1.152 0
-1.161 3.635 -1.1440001 0
-1.169 3.619 -1.14 0
-1.197 3.6289999 -1.146 0.31
-1.205 3.6129999 -1.142 0.050000001
-1.215 3.605 -1.14 0
-1.22 3.5840001 -1.1339999 0
-1.226 3.5829999 -1.135 0
-1.237 3.5780001 -1.1339999 0
-1.257 3.6010001 -1.143 0
-1.27 3.5999999 -1.145 0
-1.2359999 3.405 -1.08 0.36000001
-1.2640001 3.4649999 -1.102 0.12
-1.268 3.4089999 -1.085 0.63
-1.281 3.411 -1.087 0.20999999
-1.289 3.401 -1.085 0.58999997
-1.3049999 3.4100001 -1.089 0.46000001
-1.309 3.3900001 -1.084 0.31
-1.316 3.375 -1.08 0.28999999
-1.3279999 3.3900001 -1.086 0.25
-1.337 3.381 -1.084 0.27000001
-1.345 3.3710001 -1.082 0.12
-1.359 3.3740001 -1.085 0.18000001
-1.365 3.359 -1.081 0.19
-1.375 3.3529999 -1.081 0.039999999
-1.396 3.375 -1.09 0.17
-1.395 3.3570001 -1.084 0.050000001
-1.411 3.365 -1.089 0.16
-1.432 3.3559999 -1.089 0.30000001
-1.49 3.461 -1.128 0.38999999
-1.4579999 3.359 -1.0930001 0.16
-1.448 3.293 -1.072 0.55000001
-1.461 3.296 -1.074 0.16
-1.47 3.2880001 -1.073 0.44
-1.437 3.188 -1.038 0.17
-1.482 3.2609999 -1.067 0.039999999
-1.489 3.2479999 -1.064 0.16
-1.5 3.247 -1.0650001 0.2
-1.505 3.243 -1.064 0.27000001
-1.516 3.24 -1.0650001 0.34
-1.525 3.233 -1.064 0.31999999
-1.536 3.23 -1.0650001 0.33000001
-1.544 3.22 -1.063 0.31999999
-1.554 3.2149999 -1.063 0.30000001
-1.574 3.2309999 -1.071 0.31
-1.575 3.207 -1.064 0.30000001
-1.5880001 3.2219999 -1.0700001 0.23
-1.608 3.2349999 -1.077 0.31999999
-1.61 3.2149999 -1.071 0.28999999
-1.617 3.2030001 -1.069 0.19
-1.637 3.2160001 -1.076 0.30000001
-1.642 3.2030001 -1.072 0.25
-1.649 3.191 -1.0700001 0.19
-1.669 3.217 -1.081 0.25999999
-1.675 3.2049999 -1.0779999 0.2
-1.688 3.2049999 -1.08 0.12
-1.699 3.201 -1.081 0.18000001
-1.7130001 3.2019999 -1.0829999 0.11
-1.719 3.1900001 -1.081 0.18000001
-1.725 3.1889999 -1.081 0.050000001
-1.744 3.2 -1.087 0.17
-1.756 3.198 -1.089 0.2
-1.767 3.194 -1.089 0.090000004
-1.781 3.1949999 -1.092 0.090000004
-1.796 3.198 -1.095 0.090000004
-1.8099999 3.1989999 -1.098 0.090000004
-1.822 3.197 -1.099 0.079999998
-1.8200001 3.1819999 -1.094 0.039999999
-1.836 3.1860001 -1.098 0.07
-1.848 3.184 -1.099 0.039999999
-1.867 3.194 -1.1059999 0.07
-1.872 3.1800001 -1.103 0.039999999
-1.882 3.174 -1.103 0.039999999
-1.896 3.175 -1.105 0
-1.908 3.1830001 -1.109 0
-1.923 3.1849999 -1.113 0
-1.932 3.178 -1.112 0
-1.95 3.1849999 -1.117 0
-1.973 3.1989999 -1.125 0
-1.99 3.204 -1.13 0
-2.003 3.2030001 -1.131 0
-2.0139999 3.2079999 -1.135 0
-2.0250001 3.2030001 -1.135 0
-2.046 3.214 -1.142 0
-2.059 3.2130001 -1.1440001 0
-2.056 3.1849999 -1.136 0
-2.076 3.1949999 -1.142 0.12
-2.0999999 3.2090001 -1.15 0.11
-2.096 3.191 -1.145 0.039999999
-2.109 3.1889999 -1.147 0
-2.1159999 3.178 -1.145 0
-2.1370001 3.1889999 -1.152 0
-2.148 3.1830001 -1.152 0
-2.158 3.177 -1.152 0
-2.1800001 3.187 -1.159 0
-2.187 3.187 -1.16 0
-2.1949999 3.177 -1.159 0
-2.2149999 3.184 -1.165 0
-2.2279999 3.181 -1.1670001 0
-2.2420001 3.1789999 -1.169 0
-2.273 3.201 -1.181 0
-2.276 3.1849999 -1.177 0
-2.279 3.1689999 -1.173 0
-2.299 3.1849999 -1.181 0
-2.313 3.184 -1.184 0
-2.3239999 3.178 -1.184 0
-2.346 3.1860001 -1.191 0
-2.3629999 3.188 -1.194 0
-2.368 3.174 -1.192 0
-2.3829999 3.1730001 -1.194 0
-2.3970001 3.181 -1.199 0
-2.4100001 3.178 -1.201 0
-2.4300001 3.1819999 -1.206 0
-2.4449999 3.1819999 -1.209 0
-2.4549999 3.175 -1.209 0
-2.477 3.1819999 -1.216 0
-2.494 3.1830001 -1.22 0
-2.494 3.1730001 -1.217 0
-2.517 3.181 -1.224 0
-2.5320001 3.1789999 -1.226 0
-2.5450001 3.174 -1.228 0
-2.5680001 3.1830001 -1.235 0
-2.579 3.1760001 -1.235 0
-2.5899999 3.1689999 -1.2359999 0
-2.5999999 3.171 -1.238 0
-2.6259999 3.1819999 -1.247 0
-2.631 3.168 -1.244 0
-2.652 3.1730001 -1.25 0
-2.678 3.1830001 -1.258 0
-2.684 3.1700001 -1.256 0
-2.701 3.1700001 -1.26 0
-2.7179999 3.1789999 -1.265 0
-2.7279999 3.171 -1.265 0
-2.747 3.1730001 -1.27 0
-2.7909999 3.2030001 -1.2869999 0
-2.803 3.1960001 -1.288 0
-2.8180001 3.1930001 -1.291 0
-2.8369999 3.194 -1.295 0
-2.8429999 3.181 -1.293 0
-2.8399999 3.168 -1.289 0
-2.8599999 3.1700001 -1.294 0
-2.8859999 3.178 -1.302 0
-2.892 3.164 -1.3 0
-2.911 3.165 -1.304 0
-2.9230001 3.1589999 -1.306 0
-2.9360001 3.152 -1.307 0
-2.9660001 3.174 -1.319 0
-2.9679999 3.1559999 -1.3150001 0
-2.9920001 3.1619999 -1.322 0
-3.0179999 3.1689999 -1.33 0
-3.033 3.165 -1.332 0
-3.043 3.155 -1.332 0
-3.0769999 3.1700001 -1.3430001 0
-3.0829999 3.1670001 -1.344 0
-3.1040001 3.168 -1.349 0
-3.131 3.175 -1.357 0
-3.142 3.1670001 -1.358 0
-3.1700001 3.174 -1.3660001 0
-3.1919999 3.1760001 -1.372 0
-3.1989999 3.164 -1.37 0
-3.2219999 3.1760001 -1.3789999 0
-3.247 3.1800001 -1.386 0
-3.2550001 3.1689999 -1.385 0
-3.289 3.181 -1.396 0
-3.3080001 3.1800001 -1.4 0
-3.316 3.1670001 -1.399 0
-3.345 3.174 -1.408 0
-3.3659999 3.1849999 -1.415 0
-3.3900001 3.187 -1.421 0
-3.4100001 3.1849999 -1.426 0
-3.434 3.188 -1.432 0
-3.4549999 3.187 -1.437 0
-3.4790001 3.1889999 -1.443 0
-3.5090001 3.1960001 -1.452 0
-3.527 3.2019999 -1.4579999 0
-3.5580001 3.2090001 -1.467 0
-3.5910001 3.2179999 -1.477 0
-3.6010001 3.207 -1.477 0
-3.6400001 3.221 -1.49 0
-3.664 3.2219999 -1.4960001 0
-3.671 3.2079999 -1.495 0
-3.6889999 3.2130001 -1.501 0
-3.7119999 3.2130001 -1.506 0
-3.7309999 3.2079999 -1.51 0
-3.767 3.2190001 -1.521 0
-3.767 3.198 -1.517 0
-3.783 3.191 -1.5190001 0
-3.8269999 3.207 -1.534 0
-3.8499999 3.2060001 -1.54 0.02
-3.927 3.2590001 -1.5700001 0
-3.9030001 3.2190001 -1.556 0
-3.9130001 3.207 -1.556 0
-3.9059999 3.1800001 -1.548 0.059999999
-3.9130001 3.1659999 -1.5470001 0.2
-3.9300001 3.1589999 -1.55 0.19
-3.9489999 3.154 -1.554 0.14
-3.9579999 3.151 -1.556 0.19
-4.0029998 3.1659999 -1.5700001 0.11
-4.0469999 3.1800001 -1.585 0.039999999
-4.3899999 3.425 -1.724 0.15000001
-4.3200002 3.349 -1.6900001 0.14
-4.2989998 3.3110001 -1.677 0.34999999
-4.3060002 3.2950001 -1.676 0.25999999
-4.1810002 3.1900001 -1.622 0.27000001
-4.3140001 3.2690001 -1.673 0.19
-4.1890001 3.154 -1.617 0.17
-4.3070002 3.2219999 -1.6619999 0.28
-4.3260002 3.2149999 -1.665 0.34
-4.309 3.181 -1.654 0.25
-4.3000002 3.154 -1.646 0.14
-4.3099999 3.151 -1.648 0.14
-4.3600001 3.1659999 -1.665 0.30000001
-4.3730001 3.154 -1.666 0.31999999
-4.3930001 3.148 -1.67 0.20999999
-4.4169998 3.1440001 -1.676 0.039999999
-4.651 3.2869999 -1.767 0.07
-4.7420001 3.329 -1.799 0.079999998
-4.743 3.3180001 -1.7970001 0.039999999
-4.7639999 3.3110001 -1.802 0.16
-4.7639999 3.2880001 -1.7970001 0.2
-4.7849998 3.2809999 -1.802 0.090000004
-4.8080001 3.2739999 -1.807 0.15000001
-4.8039999 3.25 -1.801 0.23
-4.816 3.2360001 -1.802 0.18000001
-4.8210001 3.2279999 -1.802 0.17
-4.829 3.2119999 -1.801 0.18000001
-4.8410001 3.198 -1.802 0.18000001
-4.848 3.1800001 -1.8 0.16
-4.8660002 3.1700001 -1.804 0.1
-4.869 3.151 -1.801 0.079999998
-4.8790002 3.1359999 -1.801 0.16
-4.8829999 3.1270001 -1.8 0.20999999
-4.902 3.118 -1.804 0.17
-4.9050002 3.098 -1.802 0.16
-4.9169998 3.0840001 -1.802 0.18000001
-4.921 3.0650001 -1.8 0.1
-4.941 3.056 -1.804 0.090000004
-4.934 3.03 -1.798 0.18000001
-4.96 3.0250001 -1.804 0.11
-4.9650002 3.017 -1.804 0.18000001
-4.974 3.0009999 -1.804 0.12
-4.9970002 2.993 -1.809 0.16
-4.9860001 2.9660001 -1.802 0.050000001
-5.0009999 2.9530001 -1.804 0.17
-5.0110002 2.9389999 -1.804 0.2
-5.0209999 2.9230001 -1.804 0.23
-5.0139999 2.908 -1.8 0.11
-5.0380001 2.901 -1.806 0.15000001
-5.0450001 2.8840001 -1.8049999 0.22
-5.0489998 2.8659999 -1.803 0.16
-5.0679998 2.855 -1.807 0.25
-5.0739999 2.8369999 -1.806 0.16
-5.0809999 2.8210001 -1.8049999 0.23
-5.085 2.813 -1.8049999 0.20999999
-5.086 2.7920001 -1.802 0.050000001
-5.0960002 2.777 -1.802 0.16
-5.1100001 2.7639999 -1.804 0.11
-5.112 2.744 -1.802 0.19
-5.1199999 2.7279999 -1.802 0.2
-5.1370001 2.7160001 -1.8049999 0.18000001
-5.1500001 2.7130001 -1.808 0.13
-5.1430001 2.688 -1.802 0.17
-5.1620002 2.677 -1.806 0.20999999
-5.165 2.6589999 -1.804 0.25
-5.1739998 2.642 -1.804 0.11
-5.1789999 2.6240001 -1.803 0.2
-5.1869998 2.608 -1.803 0.20999999
-5.1929998 2.6010001 -1.804 0.13
-5.1939998 2.5810001 -1.801 0.19
-5.1989999 2.563 -1.8 0.17
-5.2129998 2.55 -1.802 0.25999999
-5.2179999 2.5320001 -1.801 0.22
-5.2329998 2.5190001 -1.804 0.22
-5.2319999 2.4990001 -1.8 0.19
-5.2379999 2.4909999 -1.801 0.12
-5.2509999 2.477 -1.803 0.20999999
-5.2519999 2.457 -1.8 0.11
-5.257 2.4400001 -1.8 0.18000001
-5.2620001 2.4219999 -1.799 0.050000001
-5.2659998 2.404 -1.7970001 0.17
-5.277 2.3889999 -1.799 0.2
-5.2870002 2.3840001 -1.801 0.22
-5.2880001 2.3640001 -1.799 0.12
-5.2919998 2.346 -1.7970001 0.19
-5.3099999 2.3340001 -1.801 0.11
-5.296 2.3080001 -1.794 0.20999999
-5.3210001 2.299 -1.8 0.11
-5.3140001 2.276 -1.795 0.2
-5.3179998 2.2579999 -1.794 0.11
-5.323 2.25 -1.794 0.19
-5.3319998 2.234 -1.795 0.18000001
-5.3400002 2.2179999 -1.795 0.14
-5.3530002 2.204 -1.7970001 0.34999999
-5.3649998 2.1889999 -1.799 0.41
-5.3649998 2.1689999 -1.7970001 0.51999998
-5.375 2.154 -1.798 0.38
-5.3839998 2.1470001 -1.8 0.44999999
-5.3870001 2.1289999 -1.799 0.41
-5.3850002 2.109 -1.795 0.62
-5.4250002 2.105 -1.807 0.57999998
-5.4000001 2.076 -1.796 0
-5.4180002 2.063 -1.8 0.1
-5.4219999 2.0550001 -1.8 0.19
-5.4120002 2.0320001 -1.795 0.2
-5.4180002 2.0150001 -1.795 0
-5.4180002 1.995 -1.7920001 0
-5.4289999 1.98 -1.794 0
-5.441 1.965 -1.796 0
-5.6100001 1.456 -1.8 0.02
-5.6199999 1.4400001 -1.802 0.13
-5.612 1.419 -1.7970001 0.18000001
-5.5960002 1.396 -1.79 0.16
-5.612 1.381 -1.794 0.23999999
-5.618 1.364 -1.795 0.2
-5.618 1.355 -1.794 0.23
-5.6170001 1.336 -1.7920001 0.18000001
-5.6339998 1.321 -1.7970001 0.25
-5.6209998 1.3 -1.791 0.15000001
-5.6350002 1.284 -1.794 0.25999999
-5.6350002 1.265 -1.793 0.18000001
-5.6430001 1.249 -1.794 0.23
-5.631 1.237 -1.79 0.23
-5.6389999 1.22 -1.791 0.2
-5.645 1.2029999 -1.7920001 0.25
-5.6500001 1.1849999 -1.7920001 0.25
-5.6599998 1.169 -1.794 0.20999999
-5.6560001 1.149 -1.7920001 0.23
-5.6690001 1.133 -1.795 0.19
-5.6799998 1.126 -1.798 0.23
-5.665 1.105 -1.7920001 0.2
-5.6890001 1.091 -1.799 0.23999999
-5.6830001 1.071 -1.795 0.20999999
-5.677 1.052 -1.7920001 0.23
-5.678 1.034 -1.7920001 0.20999999
-5.6739998 1.015 -1.789 0.12
-5.6919999 1.0089999 -1.795 0.18000001
-5.6900001 0.99000001 -1.793 0.23
-5.7020001 0.97299999 -1.796 0.19
-5.6869998 0.95200002 -1.79 0.23
-5.697 0.93599999 -1.7920001 0.19
-5.7129998 0.92000002 -1.7970001 0.20999999
-5.691 0.898 -1.789 0.23
-5.7069998 0.88200003 -1.793 0.11
-5.7290001 0.87599999 -1.8 0.18000001
-5.7150002 0.85600001 -1.794 0.23
-5.7069998 0.83600003 -1.79 0.18000001
-5.724 0.81999999 -1.795 0.23
-5.7080002 0.80000001 -1.789 0.2
-5.7179999 0.78299999 -1.7920001 0.22
-5.7129998 0.764 -1.789 0.20999999
-5.7199998 0.75599998 -1.791 0.11
-5.7220001 0.73799998 -1.791 0.090000004
-5.7340002 0.72100002 -1.794 0.18000001
-5.7270002 0.70200002 -1.791 0.22
-5.7249999 0.68300003 -1.79 0.17
-5.7399998 0.667 -1.794 0.23999999
-5.7309999 0.648 -1.79 0.1
-5.7280002 0.63800001 -1.789 0.2
-5.7340002 0.62099999 -1.79 0.23
-5.7270002 0.602 -1.7869999 0.13
-5.717 0.583 -1.784 0.18000001
-5.7259998 0.565 -1.786 0.17
-5.7319999 0.54799998 -1.7869999 0.25999999
-5.7360001 0.52999997 -1.788 0.16
-5.7480001 0.52200001 -1.7920001 0.23999999
-5.7379999 0.50300002 -1.788 0.2
-5.7410002 0.48500001 -1.789 0.20999999
-5.7509999 0.46700001 -1.791 0.1
-5.744 0.449 -1.789 0.18000001
-5.7459998 0.43099999 -1.789 0.20999999
-5.7529998 0.41299999 -1.79 0.20999999
-5.7379999 0.403 -1.785 0.22
-5.7410002 0.38499999 -1.786 0.18000001
-5.743 0.36700001 -1.786 0.23999999
-5.7379999 0.34900001 -1.784 0.16
-5.737 0.331 -1.784 0.050000001
-5.7459998 0.31299999 -1.786 0.18000001
-5.7449999 0.29499999 -1.785 0.2
-5.7449999 0.28600001 -1.785 0.18000001
-5.7519999 0.26800001 -1.7869999 0.23
-5.7470002 0.25 -1.785 0.19
-5.7529998 0.23199999 -1.7869999 0.12
-5.7600002 0.214 -1.789 0.18000001
-5.7490001 0.19599999 -1.785 0.23
-5.7589998 0.178 -1.789 0.2
-5.7540002 0.169 -1.7869999 0.12
-5.7490001 0.15000001 -1.785 0.19
-5.7360001 0.132 -1.78 0.18000001
-5.7589998 0.114 -1.788 0.25999999
-5.7399998 0.096000001 -1.7819999 0.18000001
-5.7459998 0.078000002 -1.784 0.25
-5.7600002 0.059999999 -1.788 0.2
-5.756 0.050999999 -1.7869999 0.12
-5.7519999 0.033 -1.785 0.18000001
-5.7540002 0.015 -1.786 0.12
-5.7579999 -0.003 -1.7869999 0.17
-5.7410002 -0.021 -1.7819999 0.050000001
-5.7410002 -0.039000001 -1.7819999 0.17
-5.7480001 -0.057 -1.784 0.11
-5.7519999 -0.075000003 -1.785 0.19
-5.7589998 -0.085000001 -1.788 0.2
-5.763 -0.103 -1.789 0.11
-5.763 -0.121 -1.789 0.18000001
-5.7620001 -0.139 -1.789 0.23
-5.7519999 -0.15700001 -1.786 0.18000001
-5.763 -0.175 -1.79 0.23
-5.7719998 -0.19400001 -1.793 0.19
-5.7659998 -0.212 -1.791 0.12
-5.7670002 -0.221 -1.7920001 0.18000001
-5.7659998 -0.23899999 -1.7920001 0.22
-5.756 -0.257 -1.789 0.18000001
-5.7519999 -0.27399999 -1.7869999 0.23
-5.756 -0.29300001 -1.789 0.18000001
-5.7589998 -0.31099999 -1.79 0.23
-5.7540002 -0.329 -1.789 0.22
-5.756 -0.338 -1.79 0.20999999
-5.7620001 -0.35699999 -1.7920001 0.18000001
-5.7550001 -0.37400001 -1.79 0.25
-5.7540002 -0.39300001 -1.79 0.16
-5.7509999 -0.41 -1.79 0.23
-5.7399998 -0.428 -1.7869999 0.1
-5.7449999 -0.44600001 -1.789 0.18000001
-5.7509999 -0.456 -1.791 0.20999999
-5.7480001 -0.47400001 -1.79 0.20999999
-5.7350001 -0.491 -1.7869999 0.12
-5.724 -0.50800002 -1.784 0.19
-5.7360001 -0.52700001 -1.788 0.11
-5.7379999 -0.546 -1.789 0.17
-5.7379999 -0.56400001 -1.79 0.22
-5.7410002 -0.57300001 -1.791 0.19
-5.7410002 -0.59200001 -1.7920001 0.23
-5.7319999 -0.60900003 -1.789 0.14
-5.7350001 -0.62699997 -1.791 0.27000001
-5.7389998 -0.64600003 -1.793 0.2
-5.7259998 -0.66299999 -1.789 0.12
-5.7160001 -0.68000001 -1.7869999 0.19
-5.7210002 -0.68900001 -1.789 0.18000001
-5.7319999 -0.70899999 -1.793 0.25999999
-5.7220001 -0.72600001 -1.79 0.2
-5.7210002 -0.74400002 -1.791 0.12
-5.7150002 -0.76200002 -1.79 0.2
-5.7049999 -0.77899998 -1.7869999 0.17
-5.7119999 -0.79799998 -1.79 0.25999999
-5.7179999 -0.80800003 -1.793 0.2
-5.71 -0.82499999 -1.791 0.23
-5.698 -0.84200001 -1.788 0.22
-5.6919999 -0.85900003 -1.7869999 0.18000001
-5.7210002 -0.88200003 -1.7970001 0.25999999
-5.7010002 -0.89700001 -1.7920001 0.18000001
-5.6999998 -0.91500002 -1.7920001 0.23
-5.7119999 -0.926 -1.7970001 0.2
-5.7030001 -0.94300002 -1.795 0.20999999
-5.6849999 -0.95899999 -1.79 0.20999999
-5.697 -0.97899997 -1.795 0.17
-5.6849999 -0.99599999 -1.7920001 0.14
-5.6739998 -1.012 -1.789 0.20999999
-5.697 -1.035 -1.798 0.11
-5.6620002 -1.0470001 -1.7869999 0.19
-5.6700001 -1.057 -1.79 0.22
-5.6739998 -1.076 -1.793 0.25
-5.658 -1.092 -1.789 0.23999999
-5.6469998 -1.108 -1.786 0.15000001
-5.6690001 -1.131 -1.795 0.28999999
-5.6430001 -1.1440001 -1.7869999 0.19
-5.658 -1.1569999 -1.793 0.13
-5.651 -1.174 -1.7920001 0.20999999
-5.6360002 -1.189 -1.788 0.17
-5.6409998 -1.209 -1.791 0.25999999
-5.6399999 -1.227 -1.7920001 0.22
-5.6279998 -1.243 -1.789 0.2
-5.6079998 -1.257 -1.784 0.17
-5.6459999 -1.275 -1.7970001 0.25
-5.605 -1.284 -1.785 0.19
-5.6269999 -1.308 -1.794 0.25
-5.6209998 -1.325 -1.793 0.20999999
-5.6110001 -1.341 -1.791 0.12
-5.6069999 -1.359 -1.791 0.18000001
-5.6209998 -1.381 -1.7970001 0.23
-5.5910001 -1.392 -1.789 0.25
-5.5819998 -1.399 -1.786 0.16
-5.6100001 -1.425 -1.7970001 0.28999999
-5.5890002 -1.438 -1.7920001 0.25
-5.5809999 -1.455 -1.79 0.25
-5.5780001 -1.473 -1.791 0.22
-5.5749998 -1.4910001 -1.7920001 0.25999999
-5.585 -1.513 -1.7970001 0
-5.5679998 -1.5549999 -1.795 0.34
-5.5539999 -1.5700001 -1.7920001 0.38999999
-5.5310001 -1.582 -1.785 0.44999999
-5.5380001 -1.603 -1.79 0.37
-5.5349998 -1.6210001 -1.79 0.47999999
-5.527 -1.628 -1.789 0.36000001
-5.5149999 -1.643 -1.786 0.44999999
-5.5240002 -1.665 -1.791 0.37
-5.5079999 -1.679 -1.7869999 0.47
-5.5009999 -1.696 -1.7869999 0.38
-5.4949999 -1.7130001 -1.7869999 0.43000001
-5.4899998 -1.73 -1.7869999 0.52999997
-5.3410001 -1.692 -1.7359999 0
-5.4980001 -1.761 -1.7920001 0
-5.3249998 -2.2780001 -1.799 0.090000004
-5.289 -2.2820001 -1.788 0.20999999
-5.29 -2.293 -1.79 0.25
-5.3039999 -2.319 -1.7970001 0.23
-5.2969999 -2.335 -1.7970001 0.28999999
-5.2810001 -2.348 -1.794 0.27000001
-5.2779999 -2.3670001 -1.796 0.28999999
-5.2729998 -2.3840001 -1.7970001 0.31999999
-5.2620001 -2.3989999 -1.795 0.31
-5.2459998 -2.402 -1.791 0.27000001
-5.2470002 -2.4219999 -1.794 0.28999999
-5.237 -2.438 -1.794 0.30000001
-5.2309999 -2.4549999 -1.794 0.31
-5.2290001 -2.474 -1.796 0.31999999
-5.2140002 -2.487 -1.794 0.30000001
-5.2010002 -2.5009999 -1.7920001 0.28999999
-5.2049999 -2.523 -1.796 0.34
-5.1999998 -2.5309999 -1.795 0.30000001
-5.1919999 -2.5469999 -1.795 0.30000001
-5.1750002 -2.559 -1.7920001 0.25999999
-5.165 -2.575 -1.7920001 0.31999999
-5.1690001 -2.5969999 -1.796 0.36000001
-5.1539998 -2.6099999 -1.794 0.31999999
-5.138 -2.6210001 -1.79 0.28
-5.145 -2.6359999 -1.795 0.33000001
-5.1300001 -2.648 -1.7920001 0.28
-5.1199999 -2.6630001 -1.7920001 0.34
-5.125 -2.687 -1.7970001 0.31999999
-5.1100001 -2.6989999 -1.794 0.30000001
-5.0949998 -2.7119999 -1.7920001 0.27000001
-5.0929999 -2.7309999 -1.794 0.30000001
-5.092 -2.7409999 -1.795 0.34999999
-5.0770001 -2.753 -1.793 0.30000001
-5.0650001 -2.767 -1.7920001 0.28999999
-5.0679998 -2.79 -1.796 0.34
-5.046 -2.7980001 -1.791 0.28999999
-5.0380001 -2.8150001 -1.7920001 0.33000001
-5.0279999 -2.8299999 -1.791 0.31
-5.0229998 -2.8380001 -1.791 0.31999999
-5.0110002 -2.852 -1.79 0.31
-5.0089998 -2.8710001 -1.7920001 0.31999999
-5.0050001 -2.8900001 -1.794 0.31
-4.9970002 -2.9059999 -1.795 0.34
-4.9850001 -2.9200001 -1.794 0.28999999
-4.98 -2.9389999 -1.795 0.36000001
-4.9559999 -2.9349999 -1.788 0.25999999
-4.9650002 -2.961 -1.795 0.38999999
-4.941 -2.9679999 -1.789 0.28999999
-4.9400001 -2.9879999 -1.7920001 0.34
-4.927 -3.0020001 -1.791 0.30000001
-4.914 -3.0150001 -1.79 0.34
-4.9050002 -3.0309999 -1.79 0.31
-4.902 -3.039 -1.79 0.34
-4.895 -3.0569999 -1.7920001 0.31999999
-4.8870001 -3.073 -1.7920001 0.31999999
-4.8649998 -3.0799999 -1.7869999 0.34
-4.862 -3.0999999 -1.79 0.31999999
-4.8470001 -3.112 -1.788 0.31
-4.8439999 -3.131 -1.79 0.28999999
-4.8319998 -3.135 -1.788 0.34999999
-4.8319998 -3.1559999 -1.7920001 0.31999999
-4.816 -3.1670001 -1.789 0.31999999
-4.809 -3.184 -1.79 0.33000001
-4.7930002 -3.1949999 -1.788 0.31
-4.7859998 -3.2119999 -1.789 0.31
-4.7719998 -3.2249999 -1.788 0.33000001
-4.7740002 -3.237 -1.79 0.34
-4.7509999 -3.243 -1.785 0.25999999
-4.744 -3.2609999 -1.7869999 0.28999999
-4.7319999 -3.2739999 -1.786 0.41
-4.7290001 -3.2950001 -1.789 0.33000001
-4.7160001 -3.3069999 -1.788 0.30000001
-4.7049999 -3.322 -1.788 0.31
-4.691 -3.323 -1.784 0.28999999
-4.6939998 -3.348 -1.79 0.36000001
-4.6810002 -3.3599999 -1.789 0.31999999
-4.664 -3.3699999 -1.786 0.33000001
-4.6529999 -3.385 -1.786 0.31
-4.6539998 -3.4070001 -1.79 0.31
-4.6350002 -3.4159999 -1.7869999 0.31999999
-4.6300001 -3.424 -1.7869999 0.31999999
-4.619 -3.438 -1.7869999 0.33000001
-4.6100001 -3.454 -1.788 0.31999999
-4.5929999 -3.464 -1.785 0.31
-4.5890002 -3.484 -1.789 0.31
-4.5749998 -3.4960001 -1.7869999 0.31
-4.5700002 -3.5150001 -1.79 0.37
-4.553 -3.513 -1.785 0.30000001
-4.552 -3.5350001 -1.789 0.31999999
-4.54 -3.5480001 -1.789 0.31
-4.5229998 -3.5580001 -1.786 0.31
-4.5219998 -3.5799999 -1.79 0.34
-4.5110002 -3.595 -1.79 0.34
-4.493 -3.6040001 -1.788 0.30000001
-4.4889998 -3.612 -1.789 0.28999999
-4.4749999 -3.6240001 -1.7869999 0.36000001
-4.4650002 -3.6389999 -1.788 0.33000001
-4.4499998 -3.651 -1.7869999 0.27000001
-4.4330001 -3.6600001 -1.784 0.36000001
-4.4299998 -3.681 -1.788 0.34999999
-4.4130001 -3.6900001 -1.785 0.33000001
-4.4099998 -3.6989999 -1.7869999 0.31
-4.4060001 -3.7190001 -1.79 0.31999999
-4.3940001 -3.733 -1.79 0.34999999
-4.3720002 -3.7379999 -1.785 0.33000001
-4.3600001 -3.7520001 -1.785 0.34
-4.3590002 -3.7739999 -1.79 0.30000001
-4.3379998 -3.7809999 -1.786 0.38
-4.3260002 -3.7820001 -1.784 0.31
-4.3270001 -3.8069999 -1.789 0.38999999
-4.3039999 -3.8110001 -1.784 0.28
-4.2950001 -3.8269999 -1.785 0.37
-4.2870002 -3.8440001 -1.7869999 0.27000001
-4.2649999 -3.849 -1.783 0.31999999
-4.2610002 -3.8699999 -1.7869999 0.36000001
-4.2579999 -3.8789999 -1.788 0.28
-4.2420001 -3.888 -1.786 0.40000001
-4.224 -3.8970001 -1.784 0.30000001
-4.223 -3.9200001 -1.789 0.36000001
-4.197 -3.9200001 -1.7819999 0.28999999
-4.1880002 -3.938 -1.784 0.38999999
-4.1789999 -3.9530001 -1.785 0.30000001
-4.164 -3.964 -1.784 0.34999999
-4.1589999 -3.9719999 -1.785 0.31999999
-4.1459999 -3.9849999 -1.785 0.31999999
-4.1350002 -3.9990001 -1.785 0.36000001
-4.1170001 -4.007 -1.783 0.30000001
-4.1030002 -4.0180001 -1.7819999 0.33000001
-4.085 -4.026 -1.78 0.31999999
-4.0700002 -4.0359998 -1.778 0.31999999
-4.0749998 -4.0539999 -1.784 0.34
-4.0549998 -4.059 -1.78 0.37
-4.0409999 -4.0700002 -1.78 0.30000001
-4.0359998 -4.0910001 -1.784 0.36000001
-4.0149999 -4.0960002 -1.78 0.28999999
-4.007 -4.1139998 -1.7819999 0.37
-3.99 -4.1220002 -1.78 0.31
-3.983 -4.1269999 -1.78 0.31999999
-3.9679999 -4.138 -1.779 0.33000001
-3.964 -4.1599998 -1.784 0.28999999
-3.9400001 -4.1599998 -1.778 0.36000001
-3.925 -4.171 -1.777 0.34
-3.915 -4.1859999 -1.778 0.38999999
-3.902 -4.1859999 -1.775 0.31
-3.8959999 -4.2059999 -1.779 0.41
-3.8789999 -4.2140002 -1.777 0.31
-3.8659999 -4.2259998 -1.777 0.31999999
-3.855 -4.2410002 -1.778 0.36000001
-3.839 -4.2509999 -1.777 0.34
-3.823 -4.2600002 -1.776 0.31
-3.812 -4.2750001 -1.777 0.33000001
-3.8039999 -4.2789998 -1.777 0.33000001
-3.7839999 -4.283 -1.773 0.31999999
-3.7750001 -4.3000002 -1.775 0.25999999
-3.7579999 -4.3080001 -1.773 0.44999999
-3.7409999 -4.3150001 -1.772 0.31999999
-3.733 -4.3340001 -1.775 0.41
-3.7160001 -4.3410001 -1.773 0.30000001
-3.7130001 -4.3520002 -1.775 0.36000001
-3.6919999 -4.355 -1.771 0.33000001
-3.6889999 -4.3790002 -1.777 0.28999999
-3.668 -4.382 -1.773 0.31999999
-3.6470001 -4.3850002 -1.7690001 0.31999999
-3.6440001 -4.4089999 -1.775 0.31999999
-3.6229999 -4.4120002 -1.771 0.41
-3.6110001 -4.4120002 -1.768 0.31
-3.598 -4.4250002 -1.7690001 0.36000001
-3.5829999 -4.434 -1.768 0.34999999
-3.5739999 -4.4520001 -1.771 0.36000001
-3.5580001 -4.46 -1.77 0.31999999
-3.539 -4.4650002 -1.767 0.38
-3.526 -4.4780002 -1.768 0.31999999
-3.5209999 -4.4860001 -1.7690001 0.34
-3.5039999 -4.493 -1.767 0.38
-3.49 -4.5040002 -1.767 0.33000001
-3.4760001 -4.5149999 -1.767 0.34
-3.4579999 -4.5209999 -1.765 0.34
-3.447 -4.5359998 -1.767 0.38
-3.4330001 -4.5469999 -1.767 0.36000001
-3.4219999 -4.5479999 -1.765 0.36000001
-3.411 -4.5630002 -1.767 0.31999999
-3.3989999 -4.5770001 -1.768 0.34
-3.3840001 -4.586 -1.768 0.34
-3.3670001 -4.5939999 -1.767 0.36000001
-3.359 -4.6129999 -1.77 0.36000001
-3.339 -4.6160002 -1.767 0.37
-3.336 -4.6279998 -1.77 0.31999999
-3.3210001 -4.6370001 -1.7690001 0.36000001
-3.303 -4.6420002 -1.767 0.36000001
-3.2809999 -4.6420002 -1.763 0.37
-3.27 -4.658 -1.765 0.38999999
-3.2509999 -4.6620002 -1.763 0.33000001
-3.244 -4.6830001 -1.767 0.43000001
-3.2379999 -4.6900001 -1.768 0.38
-3.2119999 -4.6830001 -1.761 0.34999999
-3.201 -4.6989999 -1.763 0.38999999
-3.184 -4.7059999 -1.762 0.38
-3.1630001 -4.7069998 -1.758 0.25
-3.1389999 -4.7020001 -1.753 0.52999997
-3.1340001 -4.7280002 -1.7589999 0.36000001
-3.122 -4.7249999 -1.756 0.41999999
-3.1070001 -4.7350001 -1.756 0.38
-3.0969999 -4.7529998 -1.7589999 0.34
-3.072 -4.7459998 -1.753 0.37
-3.0469999 -4.7399998 -1.7460001 0.37
-3.0339999 -4.7529998 -1.748 0.38
-3.007 -4.743 -1.74 0.37
-3 -4.7480001 -1.74 0.38
-2.98 -4.7490001 -1.737 0.44999999
-2.957 -4.7449999 -1.732 0.36000001
-2.9349999 -4.743 -1.728 0.43000001
-2.9170001 -4.7480001 -1.726 0.36000001
-2.895 -4.7449999 -1.721 0.37
-2.875 -4.7459998 -1.7180001 0.37
-2.8699999 -4.7540002 -1.719 0.41
-2.839 -4.737 -1.709 0.34999999
-2.8239999 -4.7459998 -1.709 0.38999999
-2.809 -4.7529998 -1.709 0.34999999
-2.7820001 -4.7420001 -1.701 0.38999999
-2.766 -4.7490001 -1.701 0.37
-2.753 -4.744 -1.697 0.37
-2.7320001 -4.7410002 -1.692 0.34
-2.717 -4.7490001 -1.692 0.37
-2.7 -4.7540002 -1.691 0.34
-2.674 -4.743 -1.684 0.33000001
-2.658 -4.75 -1.683 0.36000001
-2.642 -4.756 -1.682 0.43000001
-2.6140001 -4.7399998 -1.673 0.36000001
-2.6040001 -4.7389998 -1.671 0.37
-2.5899999 -4.75 -1.6720001 0.36000001
-2.569 -4.7470002 -1.668 0.36000001
-2.549 -4.7449999 -1.664 0.36000001
-2.5369999 -4.7579999 -1.666 0.38
-2.513 -4.7490001 -1.66 0.34999999
-2.4909999 -4.743 -1.655 0.34
-2.4890001 -4.757 -1.658 0.34
-2.4649999 -4.7480001 -1.652 0.37
-2.4460001 -4.7470002 -1.649 0.36000001
-2.4289999 -4.7519999 -1.648 0.33000001
-2.405 -4.7410002 -1.641 0.34999999
-2.3900001 -4.7480001 -1.641 0.38
-2.3710001 -4.7470002 -1.638 0.36000001
-2.3599999 -4.744 -1.635 0.34
-2.3469999 -4.7550001 -1.636 0.34999999
-2.3299999 -4.7589998 -1.635 0.36000001
-2.3099999 -4.7540002 -1.631 0.34
-2.2950001 -4.763 -1.631 0.33000001
-2.2809999 -4.7719998 -1.632 0.36000001
-2.263 -4.7719998 -1.6289999 0.36000001
-2.256 -4.777 -1.63 0.36000001
-2.243 -4.7880001 -1.631 0.36000001
-2.223 -4.7849998 -1.628 0.36000001
-2.21 -4.7950001 -1.6289999 0.34999999
-2.1949999 -4.8039999 -1.6289999 0.34999999
-2.1760001 -4.802 -1.626 0.34
-2.164 -4.8140001 -1.628 0.34
-2.1570001 -4.8189998 -1.6289999 0.36000001
-2.141 -4.8239999 -1.628 0.34
-2.1270001 -4.8340001 -1.6289999 0.33000001
-2.1110001 -4.8390002 -1.6289999 0.34
-2.092 -4.835 -1.625 0.31999999
-2.075 -4.8379998 -1.624 0.33000001
-2.0610001 -4.848 -1.625 0.33000001
-2.0480001 -4.8390002 -1.6210001 0.33000001
-2.0350001 -4.8509998 -1.623 0.33000001
-2.0220001 -4.8629999 -1.624 0.33000001
-2.003 -4.8579998 -1.6210001 0.34
-1.99 -4.8699999 -1.623 0.34
-1.976 -4.8800001 -1.624 0.33000001
-1.962 -4.869 -1.619 0.31
-1.952 -4.8870001 -1.623 0.34
-1.936 -4.8920002 -1.623 0.36000001
-1.918 -4.8899999 -1.62 0.34
-1.901 -4.8930001 -1.619 0.41
-1.887 -4.902 -1.62 0.34
-1.8660001 -4.8940001 -1.615 0.36000001
-1.863 -4.908 -1.619 0.34
-1.847 -4.914 -1.619 0.34
-1.8279999 -4.9089999 -1.615 0.34
-1.8099999 -4.9089999 -1.613 0.34999999
-1.8 -4.9289999 -1.618 0.34999999
-1.781 -4.9239998 -1.614 0.34
-1.765 -4.928 -1.614 0.33000001
-1.758 -4.9320002 -1.614 0.34
-1.7410001 -4.9359999 -1.614 0.34
-1.724 -4.9359999 -1.612 0.34
-1.709 -4.9429998 -1.612 0.34
-1.6900001 -4.9380002 -1.609 0.33000001
-1.679 -4.9569998 -1.614 0.33000001
-1.661 -4.9549999 -1.6109999 0.33000001
-1.651 -4.9510002 -1.609 0.34
-1.637 -4.96 -1.61 0.31999999
-1.622 -4.9679999 -1.6109999 0.33000001
-1.604 -4.9640002 -1.608 0.33000001
-1.591 -4.9780002 -1.6109999 0.33000001
-1.574 -4.9780002 -1.609 0.33000001
-1.5549999 -4.9720001 -1.6059999 0.33000001
-1.5470001 -4.974 -1.6059999 0.33000001
-1.535 -4.9899998 -1.609 0.33000001
-1.516 -4.9840002 -1.6059999 0.33000001
-1.502 -4.994 -1.607 0.33000001
-1.487 -5.0009999 -1.608 0.31999999
-1.469 -4.9980001 -1.6059999 0.31999999
-1.452 -4.9990001 -1.604 0.31999999
-1.446 -5.0089998 -1.607 0.31999999
-1.429 -5.0089998 -1.6059999 0.33000001
-1.414 -5.0159998 -1.6059999 0.33000001
-1.398 -5.02 -1.6059999 0.33000001
-1.382 -5.0209999 -1.605 0.33000001
-1.365 -5.0219998 -1.604 0.33000001
-1.351 -5.0310001 -1.6059999 0.31999999
-1.341 -5.026 -1.603 0.38
-1.326 -5.0359998 -1.605 0.31
-1.3099999 -5.0359998 -1.604 0.38
-1.2920001 -5.0349998 -1.602 0.31999999
-1.277 -5.0430002 -1.603 0.31999999
-1.261 -5.0450001 -1.602 0.33000001
-1.2460001 -5.0500002 -1.603 0.38
-1.237 -5.0489998 -1.602 0.31
-1.221 -5.053 -1.602 0.38
-1.205 -5.0549998 -1.601 0.31
-1.188 -5.0560002 -1.601 0.31999999
-1.175 -5.073 -1.605 0.37
-1.155 -5.0580001 -1.599 0.31
-1.141 -5.0669999 -1.601 0.38
-1.132 -5.0669999 -1.6 0.31999999
-1.1160001 -5.0689998 -1.599 0.31999999
-1.101 -5.0780001 -1.601 0.38
-1.086 -5.0830002 -1.602 0.31999999
-1.069 -5.085 -1.601 0.37
-1.053 -5.086 -1.601 0.30000001
-1.039 -5.099 -1.604 0.37
-1.03 -5.0970001 -1.602 0.31
-1.013 -5.0929999 -1.6 0.33000001
-0.99699998 -5.0999999 -1.601 0.38999999
-0.97899997 -5.0910001 -1.597 0.31
-0.96600002 -5.1090002 -1.602 0.38
-0.94999999 -5.1110001 -1.602 0.31
-0.93300003 -5.1079998 -1.6 0.31999999
-0.92500001 -5.1129999 -1.601 0.37
-0.90899998 -5.118 -1.602 0.31
-0.89300001 -5.1170001 -1.601 0.37
-0.87599999 -5.118 -1.6 0.31
-0.861 -5.1279998 -1.602 0.31999999
-0.84399998 -5.1199999 -1.599 0.37
-0.82700002 -5.1199999 -1.598 0.30000001
-0.82200003 -5.138 -1.604 0.38
-0.80199999 -5.1199999 -1.597 0.31
-0.787 -5.125 -1.597 0.36000001
-0.77200001 -5.1350002 -1.6 0.30000001
-0.75400001 -5.1240001 -1.596 0.36000001
-0.73900002 -5.1339998 -1.598 0.31
-0.72399998 -5.1469998 -1.602 0.37
-0.71499997 -5.1409998 -1.599 0.31
-0.69700003 -5.1339998 -1.596 0.37
-0.68199998 -5.1420002 -1.598 0.31999999
-0.66500002 -5.1360002 -1.596 0.36000001
-0.648 -5.131 -1.5930001 0.31
-0.63300002 -5.1420002 -1.596 0.34
-0.61500001 -5.131 -1.592 0.31999999
-0.60900003 -5.145 -1.596 0.37
-0.59299999 -5.1490002 -1.597 0.30000001
-0.57599998 -5.145 -1.595 0.37
-0.56 -5.145 -1.594 0.30000001
-0.54400003 -5.1539998 -1.597 0.37
-0.52600002 -5.1389999 -1.591 0.30000001
-0.51099998 -5.1440001 -1.592 0.31999999
-0.50300002 -5.1560001 -1.596 0.34999999
-0.486 -5.1389999 -1.59 0.30000001
-0.47 -5.1420002 -1.59 0.36000001
-0.45500001 -5.1589999 -1.596 0.30000001
-0.43700001 -5.1430001 -1.59 0.31999999
-0.42199999 -5.1539998 -1.5930001 0.31999999
-0.40599999 -5.1589999 -1.594 0.31999999
-0.39700001 -5.1560001 -1.5930001 0.38999999
-0.38100001 -5.1500001 -1.59 0.31999999
-0.366 -5.1719999 -1.597 0.36000001
-0.34799999 -5.1500001 -1.59 0.31
-0.33199999 -5.1589999 -1.592 0.37
-0.31600001 -5.1599998 -1.592 0.31
-0.30000001 -5.1630001 -1.5930001 0.38
-0.292 -5.165 -1.594 0.31
-0.27599999 -5.1620002 -1.592 0.31999999
-0.259 -5.1570001 -1.59 0.31999999
-0.243 -5.1539998 -1.589 0.31999999
-0.227 -5.1680002 -1.594 0.33000001
-0.211 -5.1560001 -1.589 0.31999999
-0.19400001 -5.1620002 -1.591 0.31999999
-0.186 -5.1609998 -1.59 0.31999999
-0.17 -5.1529999 -1.5880001 0.31999999
-0.154 -5.165 -1.592 0.38
-0.138 -5.164 -1.591 0.31999999
-0.121 -5.1609998 -1.59 0.37
-0.105 -5.1589999 -1.589 0.31
-0.097000003 -5.1589999 -1.589 0.34
-0.081 -5.1560001 -1.5880001 0.34
-0.064999998 -5.152 -1.587 0.31
-0.048 -5.1620002 -1.59 0.37
-0.032000002 -5.1539998 -1.587 0.31999999
-0.016000001 -5.1599998 -1.589 0.37
0 -5.1620002 -1.59 0.37
0.0080000004 -5.1659999 -1.591 0.38
0.024 -5.158 -1.589 0.30000001
0.041000001 -5.1599998 -1.589 0.31999999
0.057 -5.164 -1.59 0.37
0.072999999 -5.1609998 -1.59 0.31
0.089000002 -5.152 -1.587 0.34999999
0.105 -5.1550002 -1.5880001 0.34
0.122 -5.1620002 -1.59 0.33000001
0.13 -5.1469998 -1.585 0.31999999
0.146 -5.1560001 -1.589 0.33000001
0.162 -5.158 -1.589 0.34999999
0.178 -5.1550002 -1.589 0.37
0.19499999 -5.164 -1.592 0.38
0.211 -5.165 -1.592 0.37
0.227 -5.1570001 -1.59 0.31999999
0.235 -5.1589999 -1.59 0.36000001
0.25099999 -5.1539998 -1.589 0.31
0.26800001 -5.1570001 -1.59 0.37
0.28400001 -5.158 -1.591 0.31999999
0.30000001 -5.1589999 -1.592 0.34
0.31600001 -5.1479998 -1.589 0.33000001
0.32300001 -5.1389999 -1.585 0.34
0.34099999 -5.1560001 -1.592 0.38999999
0.35699999 -5.1529999 -1.591 0.31999999
0.373 -5.1560001 -1.592 0.37
0.389 -5.1490002 -1.59 0.31999999
0.40599999 -5.152 -1.592 0.38
0.421 -5.1430001 -1.589 0.31
0.42899999 -5.1440001 -1.59 0.37
0.44499999 -5.1350002 -1.587 0.31999999
0.461 -5.1370001 -1.589 0.36000001
0.479 -5.1529999 -1.594 0.34999999
0.49399999 -5.1360002 -1.589 0.31
0.51099998 -5.1399999 -1.591 0.36000001
0.52700001 -5.1409998 -1.592 0.31999999
0.53399998 -5.1290002 -1.5880001 0.36000001
0.551 -5.1329999 -1.59 0.30000001
0.56699997 -5.138 -1.592 0.36000001
0.583 -5.1350002 -1.592 0.34999999
0.59899998 -5.1269999 -1.59 0.30000001
0.61500001 -5.1269999 -1.59 0.34999999
0.63099998 -5.125 -1.59 0.31
0.639 -5.1199999 -1.589 0.37
0.65600002 -5.1240001 -1.591 0.30000001
0.67199999 -5.1240001 -1.592 0.38
0.68699998 -5.1100001 -1.5880001 0.31
0.70300001 -5.1100001 -1.589 0.34
0.72100002 -5.1209998 -1.5930001 0.34999999
0.73699999 -5.1209998 -1.594 0.34999999
0.745 -5.119 -1.594 0.34
0.76099998 -5.1129999 -1.592 0.34999999
0.77700001 -5.1090002 -1.592 0.28999999
0.79299998 -5.1069999 -1.592 0.34999999
0.80800003 -5.0999999 -1.59 0.30000001
0.824 -5.0960002 -1.59 0.34999999
0.84200001 -5.1040001 -1.594 0.34
0.85000002 -5.1030002 -1.594 0.34
0.86500001 -5.099 -1.5930001 0.34
0.88200003 -5.0999999 -1.594 0.34
0.898 -5.099 -1.595 0.33000001
0.91399997 -5.0939999 -1.594 0.31999999
0.93000001 -5.0890002 -1.594 0.30000001
0.949 -5.1030002 -1.599 0.34
0.95599997 -5.098 -1.598 0.31
0.972 -5.0949998 -1.598 0.31999999
0.98900002 -5.0939999 -1.599 0.31
1.003 -5.0830002 -1.596 0.28999999
1.021 -5.0910001 -1.6 0.23
1.04 -5.1009998 -1.604 0.23
1.0549999 -5.0939999 -1.603 0
1.059 -5.073 -1.597 0
1.0779999 -5.0809999 -1.601 0
1.096 -5.0890002 -1.604 0
1.11 -5.0780001 -1.602 0
3.1459999 -4.7680001 -1.772 0
3.109 -4.6810002 -1.7410001 0.050000001
3.118 -4.6620002 -1.738 0.090000004
3.1240001 -4.6550002 -1.737 0.16
3.1340001 -4.6389999 -1.734 0.25
3.145 -4.6230001 -1.732 0.23999999
3.152 -4.6020002 -1.728 0.33000001
3.1700001 -4.598 -1.73 0.31
3.1789999 -4.5809999 -1.727 0.34
3.1930001 -4.5689998 -1.726 0.34
3.2030001 -4.5689998 -1.728 0.34
3.214 -4.5539999 -1.726 0.38
3.2260001 -4.5409999 -1.725 0.36000001
3.2479999 -4.5409999 -1.729 0.34
3.2590001 -4.527 -1.728 0.34
3.2720001 -4.5149999 -1.727 0.33000001
3.293 -4.5139999 -1.7309999 0.33000001
3.2980001 -4.5050001 -1.729 0.33000001
3.3110001 -4.494 -1.729 0.34
3.3310001 -4.4910002 -1.732 0.34999999
3.339 -4.473 -1.729 0.34
3.352 -4.461 -1.728 0.34999999
3.3729999 -4.4590001 -1.732 0.36000001
3.3740001 -4.4460001 -1.729 0.34999999
3.395 -4.4450002 -1.733 0.36000001
3.405 -4.4289999 -1.7309999 0.31999999
3.4159999 -4.414 -1.729 0.36000001
3.4319999 -4.4060001 -1.73 0.38
3.451 -4.402 -1.733 0.34
3.4590001 -4.3829999 -1.729 0.37
3.4649999 -4.3779998 -1.729 0.34999999
3.4849999 -4.3740001 -1.733 0.36000001
3.493 -4.3559999 -1.729 0.36000001
3.506 -4.3449998 -1.729 0.36000001
3.523 -4.3369999 -1.7309999 0.34
3.5309999 -4.3200002 -1.728 0.34
3.5439999 -4.3070002 -1.728 0.34
3.5580001 -4.3109999 -1.7309999 0.34
3.566 -4.2940001 -1.729 0.33000001
3.582 -4.2849998 -1.73 0.33000001
3.599 -4.2779999 -1.732 0.34999999
3.612 -4.2659998 -1.7309999 0.34
3.6210001 -4.25 -1.729 0.33000001
3.6429999 -4.2490001 -1.734 0.36000001
3.6440001 -4.2360001 -1.7309999 0.31999999
3.658 -4.2259998 -1.7309999 0.41
3.6719999 -4.2140002 -1.7309999 0.31999999
3.6830001 -4.2010002 -1.7309999 0.38
3.697 -4.1900001 -1.7309999 0.31
3.7119999 -4.1810002 -1.732 0.34999999
3.724 -4.1680002 -1.7309999 0.34
3.7360001 -4.1669998 -1.734 0.34
3.744 -4.1500001 -1.7309999 0.28999999
3.757 -4.138 -1.7309999 0.33000001
3.7739999 -4.131 -1.733 0.36000001
3.7850001 -4.1170001 -1.733 0.31999999
3.793 -4.0999999 -1.73 0.31
3.806 -4.0879998 -1.73 0.31999999
3.8199999 -4.0900002 -1.734 0.34
3.8299999 -4.0749998 -1.733 0.36000001
3.842 -4.0619998 -1.732 0.30000001
3.865 -4.0609999 -1.737 0.36000001
3.8699999 -4.0409999 -1.733 0.30000001
3.8829999 -4.0279999 -1.733 0.31999999
3.898 -4.0190001 -1.734 0.31999999
3.9059999 -4.0139999 -1.735 0.31999999
3.9260001 -4.0100002 -1.739 0.34999999
3.931 -3.9890001 -1.735 0.28999999
3.9449999 -3.9779999 -1.7359999 0.31
3.954 -3.9630001 -1.734 0.34999999
3.9719999 -3.9560001 -1.737 0.31999999
3.974 -3.9330001 -1.732 0.31999999
3.987 -3.934 -1.735 0.28999999
4 -3.9219999 -1.7359999 0.34999999
4.013 -3.9100001 -1.7359999 0.31999999
4.0300002 -3.902 -1.738 0.31
4.0440001 -3.891 -1.739 0.30000001
4.0510001 -3.8729999 -1.7359999 0.31
4.0630002 -3.8599999 -1.7359999 0.31
4.0689998 -3.8540001 -1.7359999 0.30000001
4.0749998 -3.836 -1.734 0.30000001
4.092 -3.8269999 -1.7359999 0.31999999
4.1040001 -3.8139999 -1.7359999 0.30000001
4.1090002 -3.7950001 -1.733 0.30000001
4.1209998 -3.7820001 -1.733 0.28
4.1459999 -3.7820001 -1.739 0.33000001
4.1329999 -3.757 -1.73 0.28
4.1599998 -3.7579999 -1.737 0.33000001
4.1719999 -3.7449999 -1.737 0.28999999
4.1760001 -3.7260001 -1.734 0.31
4.1950002 -3.7190001 -1.737 0.34999999
4.1999998 -3.6989999 -1.734 0.25999999
4.21 -3.6849999 -1.733 0.36000001
4.2129998 -3.6760001 -1.732 0.31
4.2360001 -3.6719999 -1.737 0.31
4.2340002 -3.648 -1.7309999 0.30000001
4.2589998 -3.6459999 -1.737 0.33000001
4.27 -3.632 -1.737 0.28999999
4.2740002 -3.6129999 -1.734 0.34
4.2870002 -3.612 -1.737 0.31
4.29 -3.5910001 -1.733 0.28999999
4.3039999 -3.5799999 -1.734 0.33000001
4.3260002 -3.575 -1.739 0.33000001
4.3429999 -3.566 -1.7410001 0.31999999
4.3390002 -3.5409999 -1.735 0.31999999
4.349 -3.526 -1.734 0.31
4.368 -3.53 -1.74 0.31
4.362 -3.503 -1.733 0.31999999
4.382 -3.4960001 -1.737 0.31999999
4.3990002 -3.487 -1.74 0.31999999
4.4029999 -3.4679999 -1.7359999 0.31999999
4.414 -3.454 -1.7359999 0.31
4.4320002 -3.4460001 -1.74 0.31
4.428 -3.4319999 -1.7359999 0.31999999
4.4349999 -3.414 -1.734 0.28
4.4650002 -3.415 -1.742 0.34
4.4590001 -3.3889999 -1.735 0.30000001
4.4759998 -3.3789999 -1.738 0.33000001
4.4889998 -3.368 -1.739 0.31999999
4.4910002 -3.3469999 -1.735 0.31
4.5 -3.3429999 -1.737 0.31999999
4.5139999 -3.3310001 -1.738 0.31
4.5120001 -3.3080001 -1.733 0.28
4.5320001 -3.3 -1.737 0.34
4.5450001 -3.2880001 -1.738 0.31999999
4.5430002 -3.2650001 -1.733 0.30000001
4.572 -3.2639999 -1.7410001 0.37
4.5619998 -3.2460001 -1.734 0.25
4.5760002 -3.2349999 -1.7359999 0.34999999
4.5879998 -3.2219999 -1.737 0.31
4.6059999 -3.2130001 -1.74 0.31999999
4.6110001 -3.1949999 -1.738 0.31999999
4.618 -3.178 -1.737 0.31999999
4.6350002 -3.168 -1.74 0.31
4.6269999 -3.152 -1.734 0.28
4.6479998 -3.145 -1.739 0.34
4.6529999 -3.1270001 -1.737 0.30000001
4.664 -3.1140001 -1.738 0.34
4.6760001 -3.0999999 -1.738 0.30000001
4.697 -3.0929999 -1.743 0.34
4.6929998 -3.0699999 -1.738 0.28999999
4.7020001 -3.0639999 -1.739 0.34999999
4.7140002 -3.052 -1.74 0.31999999
4.7140002 -3.0309999 -1.7359999 0.31999999
4.7210002 -3.0139999 -1.735 0.28
4.7410002 -3.006 -1.74 0.33000001
4.744 -2.987 -1.737 0.31
4.763 -2.9779999 -1.7410001 0.31999999
4.763 -2.9679999 -1.739 0.31999999
4.7690001 -2.951 -1.738 0.31
4.7800002 -2.937 -1.738 0.28
4.7940001 -2.925 -1.74 0.36000001
4.802 -2.9089999 -1.74 0.31999999
4.8119998 -2.8940001 -1.74 0.31999999
4.8200002 -2.878 -1.74 0.31999999
4.816 -2.8659999 -1.7359999 0.30000001
4.8369999 -2.8570001 -1.7410001 0.30000001
4.8340001 -2.836 -1.7359999 0.33000001
4.8530002 -2.826 -1.74 0.30000001
4.8579998 -2.809 -1.739 0.31999999
4.8699999 -2.796 -1.74 0.31
4.8829999 -2.7820001 -1.7410001 0.31999999
4.8839998 -2.773 -1.74 0.31
4.8909998 -2.756 -1.74 0.31999999
4.8889999 -2.7349999 -1.7359999 0.28999999
4.8959999 -2.7190001 -1.735 0.30000001
4.9159999 -2.71 -1.74 0.34999999
4.9229999 -2.694 -1.739 0.30000001
4.9369998 -2.681 -1.7410001 0.33000001
4.9390001 -2.6719999 -1.74 0.31999999
4.948 -2.6570001 -1.74 0.28999999
4.9629998 -2.645 -1.743 0.31999999
4.9619999 -2.625 -1.74 0.30000001
4.9770002 -2.6129999 -1.742 0.30000001
4.9819999 -2.595 -1.7410001 0.27000001
4.9920001 -2.5799999 -1.7410001 0.27000001
4.9959998 -2.573 -1.7410001 0.27000001
4.9889998 -2.549 -1.7359999 0.18000001
5.0170002 -2.5439999 -1.743 0.28999999
5.007 -2.5190001 -1.7359999 0.23999999
5.0139999 -2.503 -1.7359999 0.18000001
5.0380001 -2.4949999 -1.742 0.28
5.04 -2.4760001 -1.74 0.2
5.0510001 -2.4719999 -1.743 0.23
5.0430002 -2.448 -1.737 0.23
5.0679998 -2.441 -1.743 0.19
5.0710001 -2.4219999 -1.7410001 0.090000004
5.0780001 -2.4059999 -1.7410001 0.16
5.0910001 -2.3929999 -1.743 0.22
5.079 -2.368 -1.7359999 0.22
5.0999999 -2.368 -1.743 0.11
5.1040001 -2.3499999 -1.7410001 0.16
5.1129999 -2.335 -1.742 0.23
5.112 -2.3150001 -1.739 0.1
5.1110001 -2.2950001 -1.7359999 0.20999999
5.1389999 -2.2880001 -1.743 0.11
5.1409998 -2.27 -1.7410001 0.16
5.1459999 -2.263 -1.742 0.20999999
5.1529999 -2.2460001 -1.742 0.16
5.1550002 -2.2279999 -1.74 0.23
5.1500001 -2.207 -1.7359999 0.14
5.1690001 -2.1960001 -1.74 0.059999999
5.1760001 -2.1789999 -1.74 0.18000001
5.1820002 -2.1630001 -1.74 0.11
5.1789999 -2.152 -1.738 0.19
5.1999998 -2.141 -1.743 0.2
5.2199998 -2.131 -1.748 0.1
5.2020001 -2.105 -1.739 0.17
5.2270002 -2.095 -1.745 0.23
5.2030001 -2.0669999 -1.734 0.13
5.2309999 -2.0680001 -1.743 0.25999999
5.2319999 -2.05 -1.7410001 0.16
5.2459998 -2.036 -1.744 0.25
5.2340002 -2.013 -1.738 0.22
5.2529998 -2.0009999 -1.742 0.11
5.243 -1.979 -1.7359999 0.18000001
5.2690001 -1.969 -1.743 0.11
5.263 -1.9579999 -1.74 0.17
5.2659998 -1.9400001 -1.739 0.12
5.2859998 -1.929 -1.744 0.18000001
5.296 -1.913 -1.745 0.23
5.3049998 -1.898 -1.7460001 0.19
5.2930002 -1.875 -1.74 0.050000001
5.2989998 -1.858 -1.74 0.17
5.302 -1.85 -1.74 0.11
5.3039999 -1.832 -1.739 0.090000004
5.3189998 -1.818 -1.742 0.15000001
5.3189998 -1.8 -1.74 0.23
5.316 -1.78 -1.737 0.17
5.3410001 -1.77 -1.744 0.23999999
5.322 -1.745 -1.735 0.22
5.3150001 -1.734 -1.732 0.14
5.335 -1.722 -1.737 0.2
5.3260002 -1.7 -1.732 0.38999999
5.3299999 -1.683 -1.7309999 0.41
5.348 -1.67 -1.7359999 0.33000001
5.3460002 -1.651 -1.733 0.46000001
5.3559999 -1.636 -1.735 0.31
5.3569999 -1.627 -1.734 0.47999999
5.3600001 -1.61 -1.734 0.31
5.3649998 -1.5930001 -1.734 0.44
5.381 -1.579 -1.738 0.36000001
5.3699999 -1.558 -1.732 0.44999999
5.3860002 -1.544 -1.7359999 0.34
5.3959999 -1.528 -1.738 0.38999999
5.3889999 -1.517 -1.734 0.49000001
5.4099998 -1.505 -1.74 0.25
5.408 -1.4859999 -1.738 0.58999997
5.6160002 -1.523 -1.807 0
5.4239998 -1.454 -1.74 0
5.4190001 -1.416 -1.735 0.25
5.4120002 -1.405 -1.732 0.23
5.4070001 -1.386 -1.729 0.16
5.4260001 -1.372 -1.734 0.28
5.414 -1.351 -1.728 0.23
5.421 -1.335 -1.729 0.14
5.4369998 -1.321 -1.733 0.28
5.4260001 -1.3 -1.728 0.20999999
5.4450002 -1.296 -1.734 0.23
5.447 -1.278 -1.733 0.25
5.4429998 -1.2589999 -1.7309999 0.20999999
5.4419999 -1.2410001 -1.729 0.12
5.4460001 -1.224 -1.729 0.17
5.4569998 -1.2079999 -1.7309999 0.23
5.4590001 -1.191 -1.7309999 0.2
5.4569998 -1.181 -1.729 0.25
5.4679999 -1.166 -1.732 0.20999999
5.4699998 -1.148 -1.7309999 0.12
5.447 -1.126 -1.723 0.18000001
5.46 -1.1109999 -1.726 0.11
5.4689999 -1.095 -1.728 0.20999999
5.4710002 -1.077 -1.727 0.11
5.4650002 -1.067 -1.724 0.18000001
5.48 -1.052 -1.728 0.11
5.4619999 -1.031 -1.721 0.2
5.4619999 -1.013 -1.72 0.19
5.4910002 -1.001 -1.729 0.15000001
5.4889998 -0.98199999 -1.727 0.20999999
5.4790001 -0.963 -1.723 0.15000001
5.5040002 -0.958 -1.7309999 0.28999999
5.4910002 -0.93800002 -1.725 0.23999999
5.4970002 -0.92199999 -1.726 0.2
5.5079999 -0.90499997 -1.729 0.13
5.494 -0.88599998 -1.723 0.20999999
5.493 -0.86799997 -1.722 0.2
5.5120001 -0.85299999 -1.728 0.23999999
5.5 -0.84200001 -1.723 0.22
5.5089998 -0.82599998 -1.725 0.12
5.5089998 -0.80800003 -1.724 0.19
5.5019999 -0.79000002 -1.721 0.20999999
5.5180001 -0.77399999 -1.726 0.25
5.5019999 -0.75400001 -1.719 0.25
5.4980001 -0.736 -1.7180001 0.25999999
5.5029998 -0.72799999 -1.719 0.23
5.5190001 -0.713 -1.723 0.13
5.5279999 -0.69599998 -1.726 0.18000001
5.5120001 -0.67699999 -1.719 0.12
5.5250001 -0.66000003 -1.723 0.18000001
5.527 -0.64300001 -1.723 0.20999999
5.52 -0.625 -1.72 0.20999999
5.5279999 -0.61699998 -1.723 0.20999999
5.5300002 -0.60000002 -1.723 0.19
5.5229998 -0.58099997 -1.719 0.22
5.5320001 -0.565 -1.722 0.090000004
5.526 -0.546 -1.719 0.18000001
5.5300002 -0.52899998 -1.72 0.20999999
5.5419998 -0.52200001 -1.724 0.1
5.5190001 -0.50199997 -1.716 0.19
5.5300002 -0.486 -1.719 0.1
5.5139999 -0.46700001 -1.7130001 0.19
5.5310001 -0.45100001 -1.7180001 0.1
5.527 -0.433 -1.716 0.2
5.539 -0.41600001 -1.72 0.19
5.5310001 -0.40700001 -1.717 0.1
5.526 -0.389 -1.715 0.18000001
5.5349998 -0.37200001 -1.7180001 0.11
5.527 -0.354 -1.714 0.19
5.539 -0.338 -1.7180001 0.11
5.5289998 -0.31999999 -1.714 0.15000001
5.5300002 -0.30199999 -1.714 0.050000001
5.5279999 -0.29300001 -1.714 0.17
5.54 -0.27700001 -1.7180001 0.11
5.5240002 -0.25799999 -1.712 0.2
5.5419998 -0.242 -1.7180001 0.1
5.5409999 -0.22400001 -1.717 0.19
5.5380001 -0.207 -1.716 0.2
5.5479999 -0.19 -1.719 0.1
5.5479999 -0.18099999 -1.719 0.18000001
5.5370002 -0.163 -1.715 0.050000001
5.5359998 -0.146 -1.714 0.079999998
5.546 -0.12899999 -1.7180001 0.17
5.5419998 -0.111 -1.716 0.23
5.5409999 -0.093999997 -1.716 0.2
5.539 -0.075999998 -1.715 0.12
5.526 -0.067000002 -1.711 0.20999999
5.54 -0.050000001 -1.715 0.2
5.54 -0.033 -1.715 0.1
5.5279999 -0.015 -1.711 0.18000001
5.3740001 0.0049999999 -1.71 0
5.369 0.022 -1.7079999 0
5.3740001 0.039000001 -1.71 0
5.3629999 0.056000002 -1.706 0
5.3610001 0.072999999 -1.705 0
5.3509998 0.089000002 -1.702 0
5.3579998 0.097999997 -1.705 0
5.3600001 0.115 -1.705 0
5.3629999 0.132 -1.707 0
5.3670001 0.149 -1.7079999 0
5.362 0.16500001 -1.707 0
5.3520002 0.182 -1.7029999 0
5.3590002 0.199 -1.706 0
5.3629999 0.208 -1.707 0
5.3559999 0.22400001 -1.705 0
5.3629999 0.241 -1.7079999 0
5.368 0.25799999 -1.71 0
5.3579998 0.27500001 -1.707 0
5.3590002 0.292 -1.707 0
5.3520002 0.308 -1.705 0
5.3540001 0.317 -1.706 0
5.3470001 0.333 -1.704 0
5.3569999 0.35100001 -1.7079999 0
5.3390002 0.36700001 -1.702 0
5.3509998 0.384 -1.707 0
5.3499999 0.40099999 -1.707 0
5.335 0.417 -1.702 0
5.3499999 0.426 -1.707 0
5.3429999 0.44299999 -1.705 0
5.3319998 0.45899999 -1.702 0
5.349 0.477 -1.709 0
5.348 0.49399999 -1.709 0
5.3369999 0.50999999 -1.705 0
5.3369999 0.52700001 -1.706 0
5.336 0.53500003 -1.706 0
5.336 0.55199999 -1.707 0
5.329 0.56800002 -1.705 0
5.3400002 0.58600003 -1.709 0
5.329 0.602 -1.706 0
5.3309999 0.61900002 -1.707 0
5.316 0.63499999 -1.7029999 0
5.3299999 0.64499998 -1.7079999 0
5.3239999 0.66100001 -1.707 0
5.3109999 0.676 -1.7029999 0
5.3099999 0.69300002 -1.7029999 0
5.3249998 0.71200001 -1.709 0
5.3189998 0.72799999 -1.7079999 0
5.3130002 0.745 -1.707 0
5.3060002 0.75199997 -1.705 0
5.3239999 0.77200001 -1.712 0
5.296 0.78500003 -1.7029999 0
5.3119998 0.80400002 -1.709 0
5.3060002 0.81999999 -1.7079999 0
