# .PCD v0.7 - Point Cloud Data file format
VERSION 0.7
FIELDS x y z intensity
SIZE 4 4 4 4
TYPE F F F F
COUNT 1 1 1 1
WIDTH 1361
HEIGHT 1
VIEWPOINT 0 0 0 1 0 0 0
POINTS 1361
DATA ascii
10.898 43.013 -2.5420001 0.050000001
11.423 45.694 -2.711 0.079999998
11.36 46.056999 -2.7320001 0.14
11.165 45.882999 -2.7179999 0.18000001
11.026 45.942001 -2.72 0.16
10.854 45.859001 -2.7119999 0.1
10.564 44.946999 -2.6530001 0.14
10.463 45.153999 -2.664 0.1
10.328 45.216999 -2.6659999 0.14
10.161 45.139 -2.6589999 0
10.217 46.063 -2.7160001 0
10.115 46.292 -2.7279999 0.079999998
9.9709997 46.331001 -2.7290001 0.090000004
9.5760002 45.181 -2.654 0.17
9.4580002 44.973 -2.6400001 0.25
9.5579996 46.168999 -2.714 0.25
1.819 8.9680004 -0.36300001 0
1.726 8.6409998 -0.34299999 0.15000001
1.646 8.5179996 -0.33399999 0.18000001
8.7889996 46.488998 -2.724 0.14
8.6239996 46.414001 -2.717 0.13
1.614 8.8839998 -0.35600001 0.25
1.572 8.8059998 -0.35100001 0.18000001
1.5470001 8.9949999 -0.36199999 0
7.9109998 47.092999 -2.7509999 0.079999998
7.467 45.318001 -2.638 0.090000004
7.316 45.287998 -2.635 0.18000001
7.3109999 46.18 -2.6889999 0.25
7.1729999 46.248001 -2.6919999 0.1
7.053 46.439999 -2.7030001 0
6.9239998 46.573002 -2.71 0
6.8670001 46.698002 -2.717 0
6.7049999 46.612999 -2.71 0
6.4990001 46.205002 -2.6830001 0
6.4310002 46.792 -2.7190001 0.059999999
6.2579999 46.612 -2.7060001 0.090000004
6.0609999 46.25 -2.6830001 0
5.9130001 46.247002 -2.681 0
5.9819999 47.381001 -2.7509999 0.059999999
5.7340002 46.591 -2.701 0.2
5.3930001 44.981998 -2.5999999 0.11
5.4400001 46.618 -2.7 0.17
5.2719998 46.446999 -2.6889999 0.11
5.1350002 46.541 -2.694 0.14
4.973 46.408001 -2.684 0.1
4.9190001 46.596001 -2.6960001 0
4.7729998 46.618999 -2.6960001 0.079999998
4.6459999 46.827 -2.7079999 0.20999999
4.48 46.647999 -2.6960001 0.11
4.336 46.686001 -2.698 0
4.1209998 45.928001 -2.6500001 0.079999998
4.006 46.286999 -2.671 0.16
3.95 46.486 -2.6830001 0.19
3.789 46.325001 -2.6719999 0.31
3.655 46.478001 -2.681 0.19
3.513 46.539001 -2.684 0.18000001
3.3629999 46.506001 -2.681 0.22
3.223 46.599998 -2.687 0.23999999
3.0829999 46.702999 -2.6919999 0.27000001
3.013 46.773998 -2.697 0.11
2.846 46.450001 -2.6760001 0.16
2.6960001 46.387001 -2.671 0
2.552 46.422001 -2.6730001 0.050000001
2.47 47.668999 -2.75 0.18000001
2.263 46.497002 -2.677 0.19
2.115 46.464001 -2.674 0.16
1.954 46.105 -2.652 0.23
1.887 46.243999 -2.6600001 0.18000001
1.7539999 46.588001 -2.681 0.23
1.6160001 46.847 -2.697 0.1
1.472 46.939999 -2.7019999 0.18000001
1.3200001 46.785999 -2.6919999 0.27000001
1.169 46.629002 -2.6819999 0.2
1.098 46.700001 -2.687 0.18000001
0.949 46.605999 -2.681 0.13
0.801 46.528999 -2.6760001 0.15000001
0.65799999 46.752998 -2.6889999 0
0.51200002 46.816002 -2.6930001 0.11
0.366 46.973 -2.7030001 0.23
0.221 47.556999 -2.7390001 0.25999999
0.145 47.113998 -2.7119999 0.18000001
-0.003 47.130001 -2.7130001 0.18000001
-0.15099999 47.071999 -2.7090001 0.28
-0.303 47.661999 -2.7460001 0.25
-0.44499999 46.915001 -2.6989999 0
-0.59299999 46.932999 -2.701 0
-0.76099998 48.169998 -2.777 0.13
-0.89300001 47.174 -2.7160001 0.20999999
-0.958 46.763 -2.6900001 0
-1.105 46.757999 -2.6900001 0
-1.255 46.863998 -2.697 0.090000004
-1.395 46.631001 -2.6830001 0
-1.55 46.884998 -2.6989999 0.12
-1.744 48.143002 -2.777 0
-1.858 47.216 -2.72 0.1
-1.9119999 46.709999 -2.6889999 0.13
-2.0550001 46.622002 -2.684 0
-2.2349999 47.325001 -2.7279999 0
-2.3940001 47.519001 -2.74 0.050000001
-2.5109999 46.91 -2.7030001 0.090000004
-2.6659999 47.041 -2.7119999 0.14
-2.796 46.735001 -2.6930001 0.16
-2.8900001 47.068001 -2.714 0
-3.0179999 46.754002 -2.6949999 0
-3.2539999 48.048 -2.776 0
-3.335 47.051998 -2.7149999 0
-3.4679999 46.853001 -2.7030001 0
-3.6570001 47.368999 -2.7360001 0.11
-3.7820001 47.067001 -2.7179999 0.12
-3.846 46.945 -2.711 0
-3.961 46.547001 -2.687 0
-4.2360001 47.984001 -2.777 0
-4.3260002 47.316002 -2.7360001 0.11
-4.4239998 46.764 -2.7030001 0.18000001
-4.5949998 47.001999 -2.7190001 0.090000004
-4.7160001 46.716999 -2.7019999 0.13
-4.7859998 46.68 -2.7 0.13
-4.9699998 47.014 -2.7219999 0
-5.1409998 47.210999 -2.7349999 0.07
-5.2750001 47.070999 -2.727 0
-5.698 49.431999 -2.875 0
-5.8610001 49.473 -2.8789999 0
-5.9980001 49.307999 -2.8699999 0
-6.119 49.646999 -2.891 0
-5.9889998 47.380001 -2.7509999 0
-6.112 47.159 -2.7390001 0
-6.2340002 46.944 -2.727 0
-6.3899999 46.988998 -2.7309999 0
-5.8979998 42.389999 -2.4449999 0
-6.98 49.011002 -2.8599999 0
-7.0630002 49.043999 -2.862 0
-7.0749998 48.057999 -2.802 0.1
-7.2329998 48.078999 -2.8050001 0
-7.4720001 48.627998 -2.8410001 0
-7.3579998 46.911999 -2.7349999 0
-7.52 46.978001 -2.74 0.12
-7.6960001 47.131001 -2.7509999 0.16
-7.7420001 46.945999 -2.74 0
-8.1129999 48.25 -2.8239999 0.059999999
-8.3030005 48.448002 -2.8380001 0
-8.4659996 48.480999 -2.8410001 0
-8.3660002 47.039001 -2.753 0
-8.5539999 47.236 -2.767 0
-8.9200001 48.382999 -2.8410001 0
-9.1590004 48.818001 -2.8699999 0
-8.8669996 46.863998 -2.7479999 0
-9.224 47.924 -2.816 0
-9.7159996 49.632 -2.9260001 0
-9.9980001 50.230999 -2.9649999 0.12
-10.172 50.284 -2.971 0.1
-10.319 50.199001 -2.967 0
-10.565 50.585999 -2.994 0
-9.0939999 43.223999 -2.529 0.059999999
-9.2399998 43.240002 -2.5320001 0
-11.038 50.851002 -3.016 0
-11.024 50.029999 -2.9660001 0
-11.133 49.778999 -2.9519999 0
-11.277 49.692001 -2.9489999 0
-11.53 50.076 -2.9760001 0
-11.257 48.544998 -2.8800001 0
-11.772 50.048 -2.9779999 0
-11.938 50.046001 -2.98 0
-11.944 49.386002 -2.9400001 0
-12.494 50.955002 -3.0420001 0
-11.732 47.214001 -2.8069999 0
-2.349 9.4130001 -0.398 0
-12.294 48.493 -2.892 0
-12.129 47.221001 -2.813 0
-13.3 51.106998 -3.0639999 0
-13.507 51.238998 -3.075 0
-13.7 51.316002 -3.0829999 0
-13.647 50.483002 -3.0320001 0
-13.994 51.126999 -3.076 0
-14.091 51.164001 -3.0799999 0.12
-2.6210001 9.368 -0.39899999 0.38999999
-2.6489999 9.3540001 -0.39899999 0
-13.551 46.901001 -2.8169999 0
-13.664 46.741001 -2.8099999 0
-15.206 51.405998 -3.1129999 0
-15.266 51.314999 -3.109 0
-14.854 49.366001 -2.9860001 0
-14.903 48.969002 -2.9630001 0
-16.261 52.828999 -3.2160001 0
-16.058001 51.594002 -3.1400001 0
-15.103 48 -2.9100001 0
-16.405001 51.563999 -3.1440001 0
-16.496 51.569 -3.1459999 0
-16.672001 51.561001 -3.1489999 0.1
-2.842 8.6730003 -0.36199999 0.18000001
-2.9389999 8.7799997 -0.37 0.14
-2.9749999 8.7950001 -0.37200001 0.55000001
-2.895 8.5190001 -0.354 0.28
-3.098 9.0190001 -0.38699999 0
-2.9660001 8.4650002 -0.352 0.23
-3.1300001 8.8409996 -0.37799999 0.2
-2.9949999 8.3780003 -0.34799999 0.38
-3.1159999 8.6300001 -0.36500001 0.30000001
-3.1630001 8.6739998 -0.36899999 0.27000001
-3.174 8.6619997 -0.368 0.31999999
-3.194 8.6330004 -0.36700001 0.28
-3.211 8.5970001 -0.36500001 0.28999999
-3.243 8.5979996 -0.366 0.36000001
-3.267 8.5819998 -0.36500001 0.41
-3.2939999 8.5719995 -0.36500001 0.36000001
-3.3269999 8.5760002 -0.366 0.38
-3.3440001 8.5799999 -0.36700001 0.33000001
-3.4070001 8.6610003 -0.373 0.16
-3.5120001 8.8439999 -0.38600001 0.18000001
-3.5190001 8.7019997 -0.37799999 0.31999999
-3.5480001 8.6949997 -0.37799999 0.28
-3.5480001 8.6190004 -0.37400001 0.38
-3.5639999 8.6190004 -0.37400001 0.31999999
-3.576 8.5710001 -0.37200001 0.28999999
-3.5810001 8.5100002 -0.36899999 0.33000001
-3.6210001 8.5279999 -0.37099999 0.41
-3.5769999 8.3529997 -0.36000001 0
-22.379999 51.472 -3.2690001 0
-22.528 51.370998 -3.267 0
-22.778999 51.723 -3.293 0
-22.040001 49.624001 -3.1559999 0
-22.974001 51.289001 -3.2739999 0
-23.313 51.609001 -3.3 0
-21.636999 47.507 -3.026 0
-23.548 51.27 -3.2869999 0
-22.34 48.243 -3.086 0
-22.065001 47.455002 -3.0339999 0
-23.48 50.082001 -3.2190001 0
-22.273001 47.125 -3.0209999 0
-22.554001 47.334 -3.0409999 0
-22.646 47.146 -3.0320001 0
-22.819 47.125999 -3.036 0
-22.93 46.977001 -3.0309999 0
-23.214001 47.370998 -3.0599999 0
-21.450001 43.43 -2.793 0
-23.674999 47.550999 -3.0829999 0
-23.819 47.467999 -3.082 0
-23.934 47.325001 -3.0780001 0
-24.148001 47.377998 -3.0869999 0
-24.534 47.763 -3.119 0
-26.502001 51.390999 -3.3740001 0
-24.284 46.735001 -3.0550001 0
-25.194 48.113998 -3.1570001 0
-24.127001 45.729 -2.9949999 0
-25.489 47.942001 -3.1559999 0
-25.503 47.606998 -3.138 0
-25.705 47.625 -3.145 0
-25.818001 47.474998 -3.1400001 0
-25.671 47.029999 -3.112 0
-24.417 44.403 -2.9319999 0
-25.93 46.803001 -3.1070001 0
-26.381001 47.264999 -3.145 0
-26.349001 46.862 -3.1229999 0
-26.576 46.919998 -3.1329999 0
-27.076 47.452999 -3.177 0
-27.02 47.183998 -3.161 0
-27.257999 47.254002 -3.1719999 0
-27.288 46.965 -3.1570001 0
-27.587999 47.139 -3.1760001 0
-27.818001 47.191002 -3.1860001 0
-27.674999 46.613998 -3.151 0.11
-5.3740001 9.0279999 -0.447 0.2
-5.513 9.2270002 -0.46200001 0
-5.4310002 9.026 -0.449 0
-27.636 45.403999 -3.085 0
-28.069 45.790001 -3.119 0
-28.257 45.773998 -3.125 0
-28.865999 46.432999 -3.1789999 0
-29.459 47.056 -3.2309999 0
-29.538 47.018002 -3.2320001 0
-29.608 46.801998 -3.223 0
-29.843 46.846001 -3.233 0
-29.947001 46.685001 -3.2279999 0
-30.125999 46.640999 -3.2320001 0
-30.193001 46.424 -3.223 0
-28.525999 43.563999 -3.0179999 0
-28.518 43.403 -3.01 0
-28.525 43.118 -2.9949999 0
-28.823999 43.273998 -3.013 0
-30.594999 45.618 -3.1949999 0
-29.35 43.469002 -3.0420001 0
-29.35 43.175999 -3.027 0
-29.726 43.433998 -3.053 0
-29.875 43.506001 -3.062 0
-30.256001 43.764 -3.0880001 0
-31.044001 44.603001 -3.1589999 0
-30.285999 43.224998 -3.062 0.07
-30.462999 43.188999 -3.066 0
-30.577 43.062 -3.0639999 0
-30.719999 42.977001 -3.0650001 0
-31.044001 43.143002 -3.085 0
-31.198999 43.215 -3.0940001 0
-31.306999 43.077999 -3.0910001 0
-31.910999 43.620998 -3.1400001 0
-32.007999 43.466 -3.1359999 0
-32.278 43.543999 -3.1500001 0
-32.153999 43.094002 -3.1229999 0
-32.762001 43.620998 -3.1719999 0
-32.757999 43.473999 -3.164 0
-32.973999 43.476002 -3.1730001 0
-32.905998 43.104 -3.152 0
-33.228001 43.243999 -3.171 0
-33.379002 43.159 -3.1719999 0
-33.450001 42.972 -3.1659999 0
-33.726002 43.046001 -3.1800001 0
-33.84 43.051998 -3.184 0.07
-34.073002 43.069 -3.194 0.11
-6.9840002 8.7469997 -0.49000001 0.51999998
-7.027 8.7460003 -0.491 0.28999999
-7.256 8.9709997 -0.51099998 0.11
-7.3270001 9.0010004 -0.51499999 0.23999999
-7.3449998 8.9940004 -0.51599997 0.38
-7.5640001 9.2019997 -0.53399998 0.50999999
-7.6100001 9.198 -0.53600001 0.28999999
-7.5320001 8.9899998 -0.523 0.38
-7.6339998 9.0530005 -0.52999997 0.14
-7.1939998 8.4790001 -0.48500001 0.14
-7.184 8.4399996 -0.48300001 0.41
-7.2750001 8.493 -0.48899999 0.37
-7.2729998 8.4370003 -0.486 0.18000001
-7.3520002 8.474 -0.491 0.58999997
-7.3670001 8.4379997 -0.49000001 0.34
-7.3829999 8.4029999 -0.48899999 0.37
-7.4770002 8.4560003 -0.49599999 0.23999999
-7.4790001 8.4320002 -0.495 0.52999997
-7.6599998 8.5810003 -0.509 0.33000001
-7.737 8.6110001 -0.514 0.19
-7.6459999 8.3520002 -0.498 0.51999998
-7.6869998 8.3439999 -0.49900001 0.25999999
-7.6849999 8.3149996 -0.498 0.60000002
-7.5949998 8.1669998 -0.48699999 0
-39.039001 41.558998 -3.3239999 0
-34.640999 36.650002 -2.9170001 0
-38.645 40.625 -3.2650001 0
-38.907001 40.644001 -3.2780001 0
-39.008999 40.494999 -3.2750001 0
-39.564999 40.943001 -3.319 0
-36.137001 37.165001 -3.0039999 0
-40.548 41.435001 -3.3829999 0
-35.675999 36.233002 -2.9430001 0
-36.162998 36.497002 -2.9749999 0
-40.271 40.383999 -3.325 0
-36.424999 36.301998 -2.9779999 0
-41.005001 40.734001 -3.372 0.050000001
-9.5109997 9.3579998 -0.62300003 0
-37.536999 36.596001 -3.04 0
-37.768002 36.591 -3.05 0
-36.188 34.841999 -2.905 0
-38.081001 36.431999 -3.0569999 0.07
-38.188 36.306 -3.0569999 0
-38.313 36.310001 -3.062 0
-8.967 8.4729996 -0.56099999 0
-9.0030003 8.4530001 -0.56099999 0
-38.793999 36.077999 -3.0739999 0
-37.855 34.985001 -2.9860001 0
-38.016998 34.912998 -2.99 0
-36.950001 33.722 -2.892 0
-39.075001 35.323002 -3.0550001 0.1
-9.3039999 8.3839998 -0.57200003 0.11
-9.3129997 8.3389997 -0.57099998 0.23999999
-9.4879999 8.4420004 -0.583 0
-39.542999 34.853001 -3.0580001 0
-39.505001 34.598999 -3.046 0
-40.049 34.965 -3.086 0
-39.368999 34.153999 -3.0209999 0
-39.317001 33.893002 -3.0079999 0
-42.185001 36.132999 -3.233 0.029999999
-39.681 33.775002 -3.0209999 0
-39.915001 33.757999 -3.0309999 0
-41.070999 34.514999 -3.1159999 0
-10.013 8.3599997 -0.60399997 0.23
-10.307 8.5489998 -0.62599999 0.31999999
-10.387 8.5609999 -0.63 0.25999999
-10.041 8.224 -0.60000002 0.41999999
-10.148 8.2580004 -0.60699999 0.22
-10.051 8.1269999 -0.597 0.56
-10.011 8.0690002 -0.59299999 0.31
-10.29 8.2410002 -0.61299998 0
-42.359001 33.599998 -3.142 0.039999999
-12.245 9.6120005 -0.75999999 0
-40.362999 31.403 -2.961 0
-42.972 33.215 -3.1570001 0
-43.210999 33.291 -3.171 0
-41.714001 31.931 -3.0469999 0.059999999
-12.133 9.25 -0.741 0.11
-12.185 9.2290001 -0.74299997 0.23
-12.269 9.2329998 -0.74699998 0
-40.513 30.212999 -2.9230001 0
-43.054001 31.896 -3.112 0.1
-12.024 8.8439999 -0.72100002 0.18000001
-12.137 8.868 -0.727 0
-41.667 30.166 -2.9790001 0
-40.534 29.153 -2.8859999 0
-42.215 30.159 -3.006 0
-41.629002 29.544001 -2.9549999 0
-41.096001 28.973 -2.908 0
-41.459 29.131001 -2.931 0
-40.863998 28.521999 -2.8800001 0
-42.245998 29.289 -2.977 0
-42.09 28.985001 -2.9579999 0
-42.263 28.909 -2.9649999 0.16
-42.396999 28.806 -2.9679999 0
-42.742001 28.844 -2.987 0
-42.986 28.910999 -3.0020001 0.11
-13.361 8.8859997 -0.79000002 0
-13.193 8.7159996 -0.77600002 0
-44.389999 29.051001 -3.079 0
-44.495998 28.921 -3.0799999 0
-42.847 27.659 -2.9519999 0
-42.749001 27.500999 -2.941 0
-44.875 28.667999 -3.0910001 0
-45.648998 28.961 -3.141 0
-45.958 28.955 -3.1570001 0
-46.145 28.870001 -3.164 0.090000004
-13.876 8.6420002 -0.80900002 0.18000001
-13.898 8.5959997 -0.80800003 0
-47.129002 28.973 -3.2190001 0
-47.263 28.851 -3.2219999 0
-14.5 8.8100004 -0.847 0
-48.042 28.913 -3.266 0
-48.513 28.989 -3.293 0
-41.622002 24.698999 -2.7909999 0
-46.900002 27.628 -3.164 0
-47.245998 27.732 -3.1860001 0
-47.395 27.620001 -3.1900001 0
-47.221001 27.32 -3.1719999 0.090000004
-15.24 8.71 -0.88300002 0.31999999
-15.223 8.6370001 -0.88 0.41999999
-15.237 8.5819998 -0.87900001 0.34999999
-15.236 8.5500002 -0.87800002 0.41
-15.289 8.5170002 -0.88 0.34
-15.356 8.4910002 -0.88300002 0.50999999
-15.528 8.5220003 -0.89300001 0.19
-15.579 8.4860001 -0.89499998 0.44
-15.644 8.4580002 -0.89700001 0.23999999
-15.428 8.2790003 -0.88 0.51999998
-14.824 7.9260001 -0.83700001 0.23
-14.81 7.8590002 -0.83499998 0.23999999
-14.941 7.868 -0.84200001 0.56
-15.851 8.2819996 -0.90399998 0.2
-15.038 7.7989998 -0.84500003 0.34
-15.473 7.9619999 -0.87400001 0.30000001
-15.444 7.8860002 -0.87 0.47
-18.204 9.2539997 -1.061 0.18000001
-18.337 9.2489996 -1.068 0.46000001
-18.33 9.1739998 -1.0650001 0.34999999
-18.235001 9.0550003 -1.057 0.34999999
-18.667 9.1960001 -1.085 0.17
-18.608 9.0939999 -1.0779999 0.55000001
-18.549999 8.9940004 -1.073 0.25
-18.576 8.9709997 -1.073 0.36000001
-18.466 8.8459997 -1.064 0.28999999
-18.34 8.7159996 -1.053 0.25
-18.384001 8.6660004 -1.0549999 0.44
-18.872 8.823 -1.086 0.23
-18.528 8.592 -1.061 0.41
-18.617001 8.5620003 -1.0650001 0.30000001
-18.256001 8.3620005 -1.039 0.40000001
-18.524 8.4139996 -1.056 0.44999999
-18.414 8.2939997 -1.0470001 0.25
-18.438 8.2360001 -1.0470001 0.31999999
-18.354 8.1289997 -1.039 0.43000001
-18.521 8.1330004 -1.049 0.31999999
-18.273001 7.9569998 -1.03 0.34
-18.905001 8.1949997 -1.072 0.28
-19.077999 8.1990004 -1.082 0.46000001
-18.721001 7.9770002 -1.056 0.25
-18.757 7.9219999 -1.057 0.46000001
-18.957001 7.9359999 -1.069 0.28
-18.921 7.8520002 -1.0650001 0.38
-18.940001 7.79 -1.064 0.43000001
-18.886999 7.7340002 -1.0599999 0.30000001
-18.832001 7.6420002 -1.0549999 0.43000001
-18.863001 7.586 -1.0549999 0.27000001
-18.971001 7.5599999 -1.061 0.56
-19.347 7.6389999 -1.084 0.20999999
-19.549999 7.6479998 -1.096 0.31999999
-19.771 7.6630001 -1.109 0.31
-19.999001 7.7150002 -1.123 0.41
-20.004999 7.645 -1.122 0.28
-19.9 7.533 -1.114 0.38999999
-20.112 7.5409999 -1.126 0.25
-20.066 7.4520001 -1.1210001 0.44999999
-20.148001 7.4109998 -1.125 0.38
-20.733999 7.5510001 -1.1619999 0.2
-20.01 7.2179999 -1.113 0.44999999
-22.261999 7.987 -1.26 0.23
-22.184999 7.881 -1.2539999 0.25
-22.202 7.809 -1.253 0.30000001
-22.034 7.6719999 -1.2410001 0.37
-22.179001 7.645 -1.249 0.36000001
-22.094999 7.5380001 -1.2410001 0.38
-22.162001 7.4840002 -1.244 0.31
-22.18 7.4510002 -1.245 0.43000001
-21.948999 7.2969999 -1.228 0.34
-24.797001 8.1529999 -1.4119999 0.22
-24.919001 8.1070004 -1.418 0.16
-24.815001 7.987 -1.41 0.52999997
-25.528999 8.1280003 -1.455 0.20999999
-25.347 7.9819999 -1.441 0.23999999
-25.582001 8.0120001 -1.456 0.28
-25.865999 8.0120001 -1.472 0.40000001
-25.886 7.9289999 -1.472 0.23
-26.358 7.9819999 -1.501 0.25999999
-26.254999 7.8610001 -1.493 0.27000001
-26.417 7.8189998 -1.501 0.28999999
-26.708 7.8140001 -1.5190001 0.19
-26.707001 7.7680001 -1.518 0.25
-26.652 7.6620002 -1.513 0.25
-27.237 7.737 -1.549 0.22
-27.346001 7.6750002 -1.554 0.47
-27.618 7.6570001 -1.5700001 0.16
-27.327999 7.4850001 -1.55 0.2
-27.157 7.3460002 -1.538 0.34
-28.216999 7.585 -1.605 0.2
-28.865999 7.6609998 -1.645 0.20999999
-29.132999 7.6339998 -1.66 0.18000001
-29.216999 7.5580001 -1.664 0.19
-30.138 7.6950002 -1.721 0.13
-29.900999 7.5339999 -1.705 0
-52.219002 12.964 -3.125 0
-52.623001 12.976 -3.1500001 0
-36.240002 8.8240004 -2.105 0.14
-35.438999 8.5120001 -2.052 0
-35.438 8.3940001 -2.05 0
-35.303001 8.2449999 -2.04 0.059999999
-35.306 8.1289997 -2.0380001 0
-33.993 7.7150002 -1.954 0.07
-35.549999 8.0080004 -2.0510001 0.19
-35.342999 7.8449998 -2.0369999 0
-34.356998 7.5139999 -1.973 0.12
-36.279999 7.8140001 -2.0929999 0.15000001
-35.978001 7.631 -2.072 0.34
-35.98 7.513 -2.0710001 0.11
-36.622002 7.527 -2.1099999 0.14
-36.709999 7.4850001 -2.115 0.18000001
-36.713001 7.3660002 -2.1140001 0.25
-36.727001 7.2480001 -2.1129999 0.13
-37.544998 7.2870002 -2.1630001 0
-38.566002 7.3579998 -2.2260001 0.07
-39.641998 7.434 -2.2920001 0.14
-39.762001 7.3270001 -2.2980001 0.31
-39.544998 7.223 -2.2839999 0
-41.487999 7.4419999 -2.405 0.07
-41.535999 7.316 -2.4059999 0
-41.981998 7.2589998 -2.4330001 0
-42.507 7.2119999 -2.464 0.13
-43.091999 7.171 -2.4990001 0
-43.417999 7.085 -2.5179999 0
-38.033001 6.1490002 -2.1800001 0
-37.950001 6.013 -2.174 0.13
-36.860001 5.7220001 -2.105 0.30000001
-37.006001 5.6259999 -2.1129999 0.1
-36.821999 5.48 -2.0999999 0.16
-36.831001 5.3629999 -2.0999999 0.19
-36.816002 5.243 -2.098 0.40000001
-37.026001 5.2129998 -2.1099999 0.2
-37.09 4.9850001 -2.112 0.38
-37.514999 4.921 -2.138 0
-37.196999 4.7610002 -2.1170001 0
-37.216 4.645 -2.1170001 0
-37.209 4.5250001 -2.1159999 0
-37.216999 4.408 -2.115 0
-37.252998 4.3530002 -2.1170001 0
-37.272999 4.2360001 -2.118 0
-37.268002 4.1170001 -2.1170001 0
-37.283001 4 -2.1170001 0
-37.311001 3.885 -2.118 0
-37.299 3.7650001 -2.1159999 0
-37.319 3.6489999 -2.1170001 0
-37.313 3.589 -2.1159999 0
-37.334 3.473 -2.1170001 0
-37.344002 3.355 -2.1170001 0
-37.379002 3.24 -2.118 0
-37.395 3.1229999 -2.118 0
-37.402 3.0050001 -2.118 0
-37.414001 2.888 -2.118 0
-37.425999 2.8299999 -2.119 0
-37.459 2.714 -2.1199999 0
-37.477001 2.5969999 -2.1210001 0
-37.457001 2.477 -2.119 0
-37.481998 2.3610001 -2.1199999 0
-37.509998 2.244 -2.122 0
-37.507 2.1259999 -2.1210001 0
-37.529999 2.0680001 -2.122 0
-37.542 1.95 -2.1229999 0
-37.557999 1.8329999 -2.1229999 0
-37.571999 1.715 -2.1240001 0
-37.587002 1.598 -2.1240001 0
-37.582001 1.479 -2.1240001 0
-37.596001 1.362 -2.1240001 0
-37.619999 1.303 -2.1259999 0
-37.638 1.1849999 -2.1270001 0
-37.629002 1.067 -2.1259999 0
-37.631001 0.949 -2.1259999 0
-37.645 0.83099997 -2.1259999 0
-37.658001 0.713 -2.1270001 0
-37.664001 0.59399998 -2.1270001 0
-37.696999 0.53600001 -2.1289999 0
-37.666 0.417 -2.1270001 0
-37.733002 0.29899999 -2.131 0
-37.694 0.18000001 -2.1289999 0
-37.714001 0.061999999 -2.1300001 0
-37.728001 -0.057 -2.131 0
-37.754002 -0.175 -2.1329999 0
-37.763 -0.294 -2.1329999 0
-37.772999 -0.35299999 -2.1340001 0
-37.789001 -0.472 -2.135 0
-37.796001 -0.59100002 -2.1359999 0
-37.816002 -0.70999998 -2.1370001 0
-37.820999 -0.829 -2.1370001 0
-37.844002 -0.949 -2.1389999 0
-37.887001 -1.069 -2.142 0
-37.875 -1.128 -2.141 0
-37.858002 -1.247 -2.1400001 0
-37.876999 -1.367 -2.142 0
-37.855 -1.485 -2.141 0
-37.852001 -1.604 -2.141 0
-37.868999 -1.724 -2.142 0
-37.862999 -1.8430001 -2.142 0.039999999
-37.914001 -2.0239999 -2.1459999 0.27000001
-37.874001 -2.142 -2.1440001 0
-38.147999 -2.277 -2.161 0.090000004
-38.334999 -2.4100001 -2.1730001 0.16
-37.734001 -2.4909999 -2.1359999 0.15000001
-37.536999 -2.596 -2.125 0.34
-37.66 -2.664 -2.1329999 0.2
-37.837002 -2.796 -2.1440001 0.18000001
-37.787998 -2.9119999 -2.142 0.23
-37.886002 -3.039 -2.148 0.18000001
-37.737 -3.1459999 -2.1400001 0.33000001
-38.390999 -3.2620001 -2.181 0.07
-38.728001 -3.414 -2.2019999 0
-32.388 -2.9530001 -1.809 0
-30.02 -2.783 -1.6619999 0
-29.006001 -2.78 -1.6 0
-28.525999 -2.8239999 -1.571 0
-26.853001 -2.7420001 -1.467 0
-25.987 -2.7349999 -1.414 0
-25.296 -2.7420001 -1.3710001 0
-42.452999 -4.7550001 -2.4400001 0
-40.012001 -4.5440001 -2.2880001 0
-39.712002 -4.7620001 -2.2709999 0.31
-39.91 -4.9130001 -2.2850001 0
-44.411999 -5.612 -2.566 0.059999999
-40.219002 -5.2080002 -2.306 0
-40.240002 -5.3400002 -2.3080001 0
-44.389999 -5.9640002 -2.5680001 0
-43.779999 -6.0219998 -2.5309999 0
-42.638 -6.0009999 -2.461 0
-42.383999 -6.1009998 -2.4460001 0
-41.868999 -6.1609998 -2.415 0
-41.669998 -6.2649999 -2.404 0
-41.423 -6.3610001 -2.3900001 0.11
-40.071999 -6.217 -2.306 0.090000004
-39.555 -6.2639999 -2.2750001 0
-32.800999 -5.401 -1.854 0.22
-32.837002 -5.513 -1.857 0.25999999
-31.364 -5.3660002 -1.766 0.23
-31.198999 -5.4390001 -1.756 0.17
-30.886 -5.434 -1.737 0.34999999
-30.993 -5.553 -1.745 0.14
-31.003 -5.6560001 -1.747 0.38999999
-30.767 -5.7119999 -1.733 0.20999999
-30.518999 -5.7649999 -1.719 0.25
-30.962 -5.9499998 -1.748 0.38999999
-31.417 -6.1399999 -1.777 0.16
-31.378 -6.184 -1.776 0.15000001
-31.073 -6.2249999 -1.758 0.17
-30.298 -6.1680002 -1.71 0.25999999
-29.650999 -6.1329999 -1.67 0.14
-29.516001 -6.2020001 -1.663 0.30000001
-29.079 -6.2049999 -1.637 0.19
-25.981001 -5.6269999 -1.442 0.22
-26.017 -5.677 -1.4450001 0.27000001
-27.701 -6.138 -1.552 0.40000001
-28.181999 -6.3379998 -1.584 0.23999999
-27.667 -6.3130002 -1.553 0.25999999
-27.403999 -6.3429999 -1.5369999 0.31999999
-27.209 -6.388 -1.526 0.20999999
-26.622 -6.3379998 -1.49 0.30000001
-18.816999 -4.5339999 -0.995 0.19
-20.559 -4.9910002 -1.1059999 0.23
-20.572001 -5.0630002 -1.108 0.33000001
-20.556 -5.1269999 -1.108 0.27000001
-24.754 -6.2620001 -1.377 0.14
-23.608999 -6.0510001 -1.3049999 0.19
-20.447001 -5.3049998 -1.104 0.15000001
-20.104 -5.283 -1.0829999 0.12
-19.122 -5.0560002 -1.021 0.23
-18.924 -5.0669999 -1.0089999 0.41
-18.761999 -5.0869999 -1 0.25999999
-19.327 -5.3060002 -1.0369999 0.16
-19.716 -5.48 -1.063 0.57999998
-19.875 -5.592 -1.075 0.18000001
-18.163 -5.1690001 -0.96600002 0.14
-18.059 -5.1700001 -0.95899999 0.5
-18.42 -5.3369999 -0.98400003 0.25
-18.289 -5.3610001 -0.97600001 0.30000001
-18.351999 -5.4419999 -0.98100001 0.20999999
-18.117001 -5.434 -0.96700001 0.5
-18.083 -5.4860001 -0.96600002 0.34999999
-18.080999 -5.5469999 -0.96700001 0.34
-17.950001 -5.5380001 -0.95899999 0.33000001
-17.982 -5.6100001 -0.963 0.43000001
-18.198 -5.7399998 -0.97799999 0.37
-18.239 -5.816 -0.98199999 0.25
-18.044001 -5.8169999 -0.97000003 0.14
-17.622 -5.7410002 -0.94400001 0.28
-17.49 -5.7589998 -0.93599999 0.47
-17.427999 -5.7680001 -0.93300003 0.30000001
-17.469999 -5.8439999 -0.93699998 0.41999999
-17.264 -5.835 -0.92500001 0.43000001
-16.934 -5.7820001 -0.90399998 0.23999999
-17.082001 -5.8930001 -0.91500002 0.44999999
-16.997999 -5.9229999 -0.91100001 0.36000001
-16.958 -5.9689999 -0.90899998 0.31999999
-17.025999 -6.0240002 -0.91500002 0.49000001
-17.24 -6.1609998 -0.93000001 0.28999999
-17.583 -6.3460002 -0.954 0.57999998
-17.355 -6.3249998 -0.94 0.19
-17.365999 -6.3909998 -0.94199997 0.25999999
-17.601 -6.5409999 -0.95899999 0.27000001
-16.934 -6.3530002 -0.91600001 0.23
-17.716999 -6.6789999 -0.96899998 0.57999998
-19.357 -7.3699999 -1.079 0.12
-17.042999 -6.5469999 -0.92699999 0.28999999
-16.813 -6.5190001 -0.91299999 0.44
-15.538 -6.079 -0.829 0.31
-15.927 -6.289 -0.85699999 0.28
-15.666 -6.243 -0.84100002 0.28999999
-15.829 -6.3369999 -0.852 0.18000001
-15.749 -6.3629999 -0.84799999 0.5
-15.667 -6.3860002 -0.84399998 0.28999999
-15.652 -6.4380002 -0.84399998 0.5
-15.744 -6.5339999 -0.852 0.33000001
-15.587 -6.526 -0.84299999 0.38999999
-15.374 -6.493 -0.82999998 0.38999999
-15.066 -6.3899999 -0.81 0.28999999
-15.183 -6.4970002 -0.81900001 0.20999999
-14.831 -6.401 -0.79699999 0.43000001
-14.859 -6.4679999 -0.80000001 0.38
-14.857 -6.5229998 -0.801 0.25
-14.761 -6.5359998 -0.796 0.40000001
-14.702 -6.5650001 -0.79299998 0.44999999
-14.785 -6.6300001 -0.80000001 0.23999999
-14.72 -6.6570001 -0.79699999 0.44
-14.73 -6.717 -0.79900002 0.38
-14.734 -6.7750001 -0.801 0.38999999
-14.606 -6.7719998 -0.79299998 0.40000001
-14.609 -6.829 -0.79500002 0.20999999
-14.65 -6.9039998 -0.79900002 0.33000001
-14.697 -6.9549999 -0.80299997 0.44999999
-14.58 -6.9549999 -0.79699999 0.44
-14.356 -6.9039998 -0.78299999 0.31999999
-14.509 -7.0339999 -0.79500002 0.25999999
-14.607 -7.138 -0.80299997 0.19
-14.568 -7.1760001 -0.80199999 0.54000002
-14.474 -7.1859999 -0.79699999 0.33000001
-14.272 -7.1129999 -0.78399998 0.27000001
-13.846 -6.9549999 -0.75599998 0.52999997
-13.846 -7.0089998 -0.75700003 0.34
-12.491 -6.3699999 -0.66500002 0.25
-12.445 -6.395 -0.66299999 0.20999999
-12.446 -6.4460001 -0.66399997 0.36000001
-12.457 -6.5009999 -0.667 0.38
-12.376 -6.4840002 -0.662 0.44
-14.135 -7.4660001 -0.78600001 0.15000001
-12.323 -6.5549998 -0.66100001 0.54000002
-13.761 -7.3790002 -0.76300001 0.25
-12.273 -6.6269999 -0.66000003 0.51999998
-12.114 -6.5900002 -0.64999998 0.30000001
-11.844 -6.4910002 -0.63300002 0.20999999
-11.665 -6.4159999 -0.62099999 0.41999999
-11.678 -6.4710002 -0.62300003 0.38
-11.69 -6.527 -0.62599999 0.31
-11.691 -6.5749998 -0.62699997 0.61000001
-11.726 -6.6430001 -0.63099998 0.23
-11.68 -6.6659999 -0.62900001 0.41999999
-11.716 -6.7360001 -0.63300002 0.41
-11.749 -6.7789998 -0.63599998 0.38
-12.583 -7.3150001 -0.69800001 0.28
-11.735 -6.8699999 -0.639 0.41
-12.023 -7.0900002 -0.66100001 0.41999999
-12.129 -7.2049999 -0.67000002 0.44999999
-11.951 -7.1490002 -0.65899998 0.31999999
-12.085 -7.2820001 -0.67000002 0.23999999
-11.923 -7.2340002 -0.66000003 0.36000001
-11.778 -7.1719999 -0.64999998 0.44999999
-11.797 -7.2340002 -0.653 0.25999999
-11.876 -7.3340001 -0.66100001 0.49000001
-11.864 -7.3790002 -0.662 0.30000001
-11.814 -7.3990002 -0.66000003 0.58999997
-11.911 -7.5120001 -0.66799998 0.25999999
-11.877 -7.5430002 -0.66799998 0.58999997
-11.86 -7.6110001 -0.66900003 0.56999999
-11.802 -7.6259999 -0.667 0.27000001
-11.257 -7.323 -0.62800002 0.46000001
-11.219 -7.348 -0.62699997 0.38
-11.207 -7.3909998 -0.62800002 0.44999999
-11.265 -7.48 -0.634 0.41
-11.317 -7.54 -0.639 0.38
-11.263 -7.5560002 -0.63599998 0.40000001
-11.115 -7.507 -0.62699997 0.34
-11.092 -7.5419998 -0.62699997 0.63
-11.999 -8.217 -0.69700003 0.19
-11.047 -7.6139998 -0.62699997 0.28999999
-11.785 -8.1789999 -0.685 0.51999998
-11.928 -8.3059998 -0.69599998 0.31999999
-11.779 -8.257 -0.68699998 0.47999999
-11.652 -8.2229996 -0.68000001 0.38
-11.725 -8.3299999 -0.68699998 0.41999999
-12.03 -8.6040001 -0.71200001 0.28999999
-11.15 -8.026 -0.64700001 0.5
-11.138 -8.0699997 -0.648 0.41999999
-12.031 -8.7489996 -0.71799999 0.31
-11.991 -8.7779999 -0.71700001 0.20999999
-10.864 -8.0019999 -0.63200003 0.62
-11.916 -8.8380003 -0.71499997 0.2
-10.711 -8.0459995 -0.62599999 0.57999998
-11.082 -8.3809996 -0.65700001 0.27000001
-11.22 -8.5129995 -0.66900003 0.31999999
-10.784 -8.2349997 -0.63700002 0.28999999
-10.744 -8.2580004 -0.63599998 0.55000001
-10.957 -8.4770002 -0.65399998 0.25
-10.885 -8.4759998 -0.65100002 0.61000001
-10.865 -8.5150003 -0.65100002 0.22
-10.846 -8.5559998 -0.65200001 0.30000001
-10.782 -8.533 -0.648 0.58999997
-9.4440002 -7.5180001 -0.54400003 0.2
-10.66 -8.5450001 -0.64300001 0.40000001
-10.65 -8.5930004 -0.64399999 0.27000001
-10.552 -8.5679998 -0.63800001 0.61000001
-10.528 -8.6040001 -0.63800001 0.28999999
-9.3240004 -7.664 -0.54400003 0.41999999
-10.341 -8.5319996 -0.62699997 0.36000001
-10.988 -9.1260004 -0.68099999 0.15000001
-9.474 -7.914 -0.56099999 0.51999998
-11.607 -9.7659998 -0.736 0.16
-8.25 -6.9759998 -0.46599999 0.18000001
-11.119 -9.4750004 -0.70099998 0.57999998
-11.134 -9.5469999 -0.70499998 0.31999999
-9.1619997 -7.875 -0.54500002 0.31999999
-8.967 -7.756 -0.53100002 0.28999999
-8.4370003 -7.3429999 -0.48899999 0.30000001
-8.4289999 -7.3829999 -0.491 0.52999997
-8.4390001 -7.4380002 -0.493 0.20999999
-8.5019999 -7.5419998 -0.5 0.23
-8.4429998 -7.5359998 -0.49700001 0.43000001
-8.0550003 -7.2119999 -0.46599999 0.18000001
-7.96 -7.171 -0.46000001 0.5
-8.7419996 -7.9289999 -0.52700001 0.22
-7.8239999 -7.138 -0.45300001 0.34
-7.7839999 -7.1459999 -0.45100001 0.17
-8.5109997 -7.8670001 -0.514 0.30000001
-8.5100002 -7.9159999 -0.51599997 0.49000001
-8.5469999 -7.9749999 -0.52100003 0.31
-8.4040003 -7.8909998 -0.51099998 0.2
-8.4870005 -8.0190001 -0.51999998 0.52999997
-7.8600001 -7.4710002 -0.46799999 0.23
-7.947 -7.6020002 -0.47799999 0.43000001
-8.0740004 -7.7729998 -0.491 0.27000001
-7.948 -7.6989999 -0.48199999 0.46000001
-7.8909998 -7.6690001 -0.47799999 0.14
-8.3170004 -8.1350002 -0.51700002 0.38
-8.1719999 -8.0439997 -0.50700003 0.25
-8.1210003 -8.0439997 -0.50400001 0.46000001
-8.1370001 -8.1099997 -0.50800002 0.28
-7.9689999 -7.993 -0.49599999 0.22
-8.0839996 -8.1599998 -0.50800002 0.5
-8.0740004 -8.1750002 -0.50800002 0.31999999
-7.9299998 -8.0790005 -0.498 0.28
-8.0310001 -8.2349997 -0.509 0.43000001
-8.0649996 -8.3210001 -0.514 0.38
-8.0679998 -8.3769999 -0.51700002 0.43000001
-8.059 -8.4209995 -0.51800001 0.25
-8.0039997 -8.4160004 -0.51599997 0.51999998
-8.1569996 -8.6040001 -0.53100002 0.37
-7.0040002 -7.4299998 -0.42899999 0.25999999
-6.993 -7.4650002 -0.43000001 0.28
-6.9949999 -7.5149999 -0.433 0.47999999
-7.0770001 -7.651 -0.442 0.2
-7.138 -7.7659998 -0.44999999 0.28
-7.3000002 -7.994 -0.46700001 0.31999999
-7.2259998 -7.9380002 -0.461 0.31999999
-8.0120001 -8.8610001 -0.53600001 0.28
-8.0559998 -8.9659996 -0.54299998 0.28
-7.9530001 -8.908 -0.53600001 0.31
-7.9699998 -8.9840002 -0.54000002 0.34999999
-8.0139999 -9.0909996 -0.54699999 0.15000001
-7.9120002 -9.0319996 -0.54000002 0.37
-10.914 -12.554 -0.82599998 0.18000001
-7.6890001 -8.8610001 -0.523 0.23
-10.616 -12.326 -0.80400002 0.34999999
-7.987 -9.3240004 -0.55699998 0.31999999
-7.9549999 -9.3459997 -0.55699998 0.23
-7.3920002 -8.7370005 -0.505 0.31
-7.493 -8.9130001 -0.51800001 0.38999999
-11.477 -13.718 -0.90399998 0.2
-7.4920001 -8.9980001 -0.52200001 0.2
-7.427 -8.9759998 -0.51800001 0.30000001
-7.4429998 -9.0539999 -0.52200001 0.18000001
-7.3060002 -8.9440002 -0.51200002 0.47999999
-7.402 -9.1210003 -0.52399999 0.28999999
-7.3410001 -9.1029997 -0.52100003 0.14
-6.6469998 -8.2650003 -0.454 0.57999998
-7.1880002 -9 -0.50999999 0.16
-7.0549998 -8.8900003 -0.49900001 0.31
-7.1550002 -9.0749998 -0.51200002 0.28999999
-7.1789999 -9.165 -0.51800001 0.25
-7.1799998 -9.2259998 -0.52100003 0.43000001
-10.125 -13.113 -0.82200003 0.2
-10.203 -13.257 -0.83200002 0.37
-7.2319999 -9.4449997 -0.53299999 0.34
-7.1430001 -9.3900003 -0.52700001 0.28
-7.0970001 -9.3900003 -0.52499998 0.43000001
-9.9029999 -13.206 -0.81800002 0.25999999
-6.2459998 -8.3690004 -0.44299999 0.25999999
-6.2280002 -8.3990002 -0.44400001 0.31999999
-6.1830001 -8.3929996 -0.442 0.33000001
-8.9280005 -12.18 -0.73199999 0.34
-9.7060003 -13.332 -0.81699997 0.28999999
-6.119 -8.4449997 -0.44299999 0.38
-6.1399999 -8.5299997 -0.44800001 0.15000001
-6.1360002 -8.5819998 -0.44999999 0.50999999
-9.533 -13.447 -0.81699997 0.28
-8.8640003 -12.626 -0.75199997 0.57999998
-12.047 -17.291 -1.101 0.12
-9.9779997 -14.41 -0.88200003 0.38999999
-6.013 -8.7250004 -0.45300001 0.30000001
-5.8509998 -8.5459995 -0.43799999 0.16
-5.7490001 -8.4530001 -0.43000001 0.50999999
-5.8439999 -8.6520004 -0.44299999 0.31
-5.8099999 -8.6309996 -0.44100001 0.27000001
-5.7919998 -8.6630001 -0.442 0.16
-8.3059998 -12.528 -0.727 0.38999999
-8.29 -12.59 -0.73000002 0.31
-8.2629995 -12.636 -0.73100001 0.34
-6.5679998 -10.102 -0.54299998 0.57999998
-9.342 -14.489 -0.86400002 0.20999999
-9.0229998 -14.042 -0.82999998 0.27000001
-8.7740002 -13.748 -0.80599999 0.2
-8.1429996 -12.846 -0.73799998 0.2
-8.0780001 -12.831 -0.73500001 0.44
-8.3140001 -13.3 -0.76800001 0.58999997
-8.4790001 -13.66 -0.792 0.28999999
-6.0599999 -9.8190002 -0.51099998 0.15000001
-4.777 -7.756 -0.361 0.40000001
-4.9780002 -8.1429996 -0.38800001 0.31999999
-4.7119999 -7.7589998 -0.359 0.34
-4.9289999 -8.1780005 -0.38800001 0.30000001
-8.29 -13.887 -0.79799998 0.43000001
-4.6760001 -7.8940001 -0.36500001 0.5
-4.8509998 -8.2519999 -0.38999999 0.20999999
-4.6539998 -7.9720001 -0.368 0.34
-4.9289999 -8.507 -0.40599999 0.31
-4.862 -8.4530001 -0.40099999 0.41
-4.829 -8.4560003 -0.40000001 0.19
-4.6479998 -8.198 -0.38 0.20999999
-4.6750002 -8.2749996 -0.38499999 0.5
-4.6420002 -8.2779999 -0.384 0.23
-4.6539998 -8.3620005 -0.389 0.33000001
-4.6279998 -8.3769999 -0.389 0.2
-4.5910001 -8.3719997 -0.38800001 0.56
-4.559 -8.3760004 -0.38699999 0.14
-4.5209999 -8.3669996 -0.38600001 0.44999999
-4.4809999 -8.3570004 -0.384 0.34
-4.4650002 -8.3579998 -0.384 0.20999999
-4.46 -8.4130001 -0.38600001 0.5
-4.4640002 -8.4849997 -0.391 0.2
-4.3720002 -8.3739996 -0.382 0.23999999
-4.3860002 -8.4650002 -0.38699999 0.44
-4.3850002 -8.5290003 -0.391 0.2
-4.1700001 -8.1709995 -0.36500001 0.44
-4.171 -8.2060003 -0.36700001 0.31999999
-4.184 -8.2950001 -0.37200001 0.16
-6.7150002 -13.455 -0.72799999 0.41
-4.3330002 -8.7299995 -0.40000001 0.17
-4.3369999 -8.8079996 -0.405 0.34
-6.5040002 -13.344 -0.71600002 0.25
-6.559 -13.512 -0.72600001 0.17
-4.5640001 -9.4589996 -0.447 0.57999998
-6.316 -13.221 -0.704 0.25
-6.335 -13.369 -0.713 0.27000001
-5.9829998 -12.725 -0.667 0.20999999
-4.3109999 -9.2279997 -0.42699999 0.30000001
-6.3509998 -13.737 -0.73400003 0.28
-8.5240002 -18.612 -1.064 0.25
-6.4650002 -14.161 -0.75999999 0.44999999
-5.8720002 -12.963 -0.67799997 0.20999999
-5.8579998 -13.152 -0.68800002 0.57999998
-4.3829999 -9.908 -0.46799999 0.18000001
-3.6110001 -8.2209997 -0.35299999 0.22
-3.654 -8.3920002 -0.36399999 0.18000001
-5.8769999 -13.597 -0.71399999 0.17
-3.5120001 -8.1689997 -0.347 0.22
-5.6849999 -13.381 -0.69700003 0.14
-5.6170001 -13.338 -0.69300002 0.56999999
-5.5879998 -13.387 -0.69499999 0.28999999
-5.6599998 -13.682 -0.713 0.27000001
-3.543 -8.6169996 -0.37400001 0.20999999
-3.2750001 -7.993 -0.33199999 0.41
-5.4299998 -13.42 -0.69300002 0.12
-5.6760001 -14.162 -0.741 0.2
-5.1329999 -12.917 -0.65700001 0.57999998
-5.5869999 -14.196 -0.741 0.16
-5.0679998 -12.99 -0.66000003 0.2
-4.8109999 -12.386 -0.61900002 0.44999999
-4.7649999 -12.384 -0.61799997 0.31999999
-3.4790001 -9.1079998 -0.40099999 0.25999999
-3.178 -8.3920002 -0.35299999 0.18000001
-4.8790002 -13.048 -0.65899998 0.16
-4.8130002 -12.995 -0.65499997 0.57999998
-3.0599999 -8.3149996 -0.345 0.18000001
-4.3740001 -11.978 -0.58600003 0.34999999
-4.6139998 -12.764 -0.63700002 0.20999999
-4.5840001 -12.807 -0.639 0.38999999
-4.5619998 -12.874 -0.64200002 0.54000002
-2.918 -8.2889996 -0.34099999 0.27000001
-4.375 -12.595 -0.62199998 0.2
-4.4959998 -13.079 -0.653 0.23999999
-4.4759998 -13.088 -0.653 0.38999999
-4.21 -12.432 -0.60900003 0.47
-4.1100001 -12.394 -0.60500002 0.38
-4.1110001 -12.528 -0.61299998 0.41
-4.1350002 -12.738 -0.62599999 0.38999999
-4.1370001 -12.881 -0.634 0.33000001
-4.0339999 -12.627 -0.61699998 0.54000002
-3.9430001 -12.475 -0.60699999 0.47
-2.609 -8.3179998 -0.33700001 0.23999999
-3.9530001 -12.79 -0.625 0.25
-3.7690001 -12.329 -0.59500003 0.33000001
-3.6359999 -12.025 -0.57499999 0.25
-3.7130001 -12.425 -0.60000002 0.37
-3.5639999 -11.99 -0.57099998 0.27000001
-3.516 -11.967 -0.56900001 0.43000001
-3.5050001 -12.07 -0.57499999 0.44999999
-3.5669999 -12.43 -0.597 0.23999999
-3.586 -12.649 -0.611 0.5
-3.273 -11.677 -0.54799998 0.50999999
-3.2449999 -11.718 -0.55000001 0.20999999
-2.4360001 -8.8290005 -0.36399999 0.14
-3.3399999 -12.291 -0.58499998 0.28999999
-3.1930001 -11.896 -0.55900002 0.31
-2.573 -9.6879997 -0.417 0.18000001
-3.4779999 -13.303 -0.648 0.19
-3.395 -13.153 -0.63800001 0.51999998
-3.444 -13.52 -0.66000003 0.34
-3.388 -13.386 -0.65200001 0.54000002
-2.355 -9.3970003 -0.39700001 0.22
-3.4619999 -14.057 -0.69300002 0.23
-2.961 -12.17 -0.57200003 0.23
-3.362 -14.03 -0.69 0.38
-2.8940001 -12.229 -0.57499999 0.44999999
-2.6819999 -11.489 -0.52700001 0.44999999
-2.6530001 -11.445 -0.52399999 0.17
-2.927 -12.824 -0.611 0.31999999
-2.6500001 -11.769 -0.54400003 0.44999999
-2.7049999 -12.198 -0.56999999 0.40000001
-2.6930001 -12.326 -0.57800001 0.2
-2.6500001 -12.317 -0.57700002 0.38999999
-2.579 -12.17 -0.56699997 0.47999999
-1.913 -9.0649996 -0.37099999 0.22
-1.903 -9.1610003 -0.37599999 0.19
-2.4260001 -11.907 -0.54900002 0.23
-1.896 -9.427 -0.39199999 0.2
-2.395 -12.147 -0.56300002 0.41
-2.3469999 -12.101 -0.56 0.25
-2.4719999 -12.974 -0.61400002 0.15000001
-2.434 -12.884 -0.60799998 0.58999997
-2.1919999 -11.796 -0.54000002 0.36000001
-2.141 -11.722 -0.53399998 0.25999999
-2.197 -12.257 -0.56800002 0.38
-2.4200001 -13.767 -0.662 0.34999999
-2.092 -12.106 -0.55699998 0.23
-1.993 -11.748 -0.53399998 0.36000001
-2.017 -12.007 -0.551 0.38999999
-1.477 -8.9239998 -0.35699999 0.25
-1.972 -12.209 -0.56199998 0.38
-2.075 -13.122 -0.61900002 0.25
-2.0469999 -13.215 -0.625 0.25999999
-1.868 -12.302 -0.56699997 0.25999999
-1.927 -12.977 -0.60900003 0.38999999
-1.957 -13.326 -0.63099998 0.2
-1.795 -12.486 -0.57800001 0.18000001
-1.7460001 -12.416 -0.57300001 0.31999999
-1.877 -13.684 -0.65200001 0.25
-1.831 -13.664 -0.64999998 0.50999999
-1.688 -12.896 -0.602 0.28999999
-1.591 -12.445 -0.574 0.47999999
-1.574 -12.47 -0.57499999 0.31999999
-1.587 -12.912 -0.602 0.14
-1.518 -12.67 -0.58700001 0.55000001
-1.524 -13.079 -0.61199999 0.34999999
-1.3200001 -11.957 -0.542 0.54000002
-1.314 -12.269 -0.56099999 0.46000001
-0.88999999 -8.3529997 -0.317 0.23999999
-0.88999999 -8.6199999 -0.333 0.23
-0.86299998 -8.625 -0.33399999 0.23
-0.833 -8.5979996 -0.33199999 0.46000001
-1.091 -12.166 -0.55299997 0.47999999
-1.0599999 -12.245 -0.55800003 0.23
-0.708 -8.5570002 -0.329 0.57999998
-0.991 -12.613 -0.57999998 0.19
-1 -13.275 -0.62099999 0.23
-0.66100001 -9.0489998 -0.359 0.22
-0.82200003 -11.877 -0.53399998 0.55000001
-0.926 -14.091 -0.671 0.17
-0.59500003 -9.1260004 -0.36300001 0.20999999
-0.56599998 -9.1370001 -0.36399999 0.34
-0.79799998 -13.785 -0.65200001 0.2
-0.73000002 -13.333 -0.62300003 0.23999999
-0.461 -9.3389997 -0.37599999 0.38999999
-0.58700001 -13.416 -0.62800002 0.36000001
-0.58099997 -14.355 -0.68599999 0.38999999
-0.47999999 -12.785 -0.58899999 0.31
-0.43799999 -12.717 -0.58499998 0.22
-0.39700001 -12.7 -0.583 0.38999999
-0.389 -13.914 -0.65799999 0.38
-0.36500001 -13.813 -0.65200001 0.11
-0.185 -7.4320002 -0.257 0.12
-0.16 -7.335 -0.25099999 0.34
-0.13699999 -7.3709998 -0.25299999 0.25999999
-0.116 -7.5370002 -0.264 0.11
-0.111 -9.6429996 -0.39399999 0.090000004
-0.067000002 -7.2360001 -0.245 0.079999998
-0.085000001 -14.445 -0.69099998 0.18000001
-0.033 -7.586 -0.26699999 0.19
-0.0089999996 -7.5300002 -0.26300001 0
0.014 -7.5040002 -0.26199999 0
0.083999999 -13.021 -0.60299999 0
0.061000001 -7.448 -0.25799999 0
0.082999997 -7.362 -0.25299999 0.15000001
0.18799999 -13.092 -0.60699999 0.11
0.25999999 -14.682 -0.70599997 0.16
0.27200001 -13.185 -0.61299998 0.23
0.331 -13.872 -0.65600002 0.34999999
0.39300001 -14.491 -0.69400001 0.16
0.44100001 -14.586 -0.69999999 0.36000001
0.44800001 -13.471 -0.63099998 0.38
0.28600001 -8.4770002 -0.322 0.31999999
0.52700001 -13.858 -0.65499997 0.25999999
0.58600003 -14.225 -0.67799997 0.20999999
0.64200002 -14.461 -0.69300002 0.28
0.611 -12.907 -0.597 0.47999999
0.73400003 -14.472 -0.69400001 0.28
0.78299999 -14.536 -0.69800001 0.25
0.46200001 -8.5279999 -0.32600001 0.14
0.74599999 -12.782 -0.58899999 0.19
0.46000001 -7.652 -0.27200001 0.16
0.92900002 -14.325 -0.685 0.18000001
0.96600002 -14.197 -0.67799997 0.2
0.91500002 -12.895 -0.597 0.38999999
0.72500002 -9.665 -0.39700001 0.44
0.76999998 -9.4689999 -0.38499999 0.5
0.79900002 -9.4589996 -0.38499999 0.28999999
0.83200002 -9.4940004 -0.38699999 0.31
0.875 -9.3120003 -0.37599999 0.57999998
1.3839999 -14.338 -0.68800002 0.16
0.94300002 -9.552 -0.391 0.23
0.92500001 -9.0860004 -0.36199999 0.41
0.95599997 -9.1090002 -0.36399999 0.23999999
1.474 -13.514 -0.63800001 0.18000001
1.503 -13.393 -0.63099998 0.28999999
1.595 -13.806 -0.65700001 0.46000001
1.472 -12.591 -0.58200002 0.43000001
1.533 -12.764 -0.59299999 0.34
1.668 -13.516 -0.63999999 0.28
1.841 -14.522 -0.70300001 0.43000001
1.773 -13.656 -0.64899999 0.28999999
1.938 -14.554 -0.70599997 0.23999999
1.1900001 -8.802 -0.347 0.38999999
1.1849999 -8.6689997 -0.33899999 0.14
2.0669999 -14.643 -0.71200001 0.14
1.8559999 -12.879 -0.602 0.38999999
2.027 -13.743 -0.65700001 0.2
1.281 -8.5670004 -0.333 0.16
1.959 -12.742 -0.59500003 0.41
2.253 -14.335 -0.69499999 0.25
2.0150001 -12.709 -0.59299999 0.14
2.0409999 -12.618 -0.588 0.38999999
2.0899999 -12.669 -0.59200001 0.60000002
2.152 -12.788 -0.60000002 0.31
2.3310001 -13.584 -0.64999998 0.2
2.467 -14.103 -0.68300003 0.31999999
2.1960001 -12.347 -0.57300001 0.38
2.2049999 -12.284 -0.56900001 0.27000001
2.342 -12.807 -0.60299999 0.28999999
2.2520001 -12.111 -0.55900002 0.5
2.2809999 -12.057 -0.55599999 0.34
1.8710001 -9.7480001 -0.41100001 0.34999999
2.79 -14.23 -0.69400001 0.31999999
2.6099999 -13.213 -0.63099998 0.47999999
1.732 -8.6680002 -0.34400001 0.13
2.7060001 -13.257 -0.634 0.27000001
2.7249999 -13.139 -0.62699997 0.40000001
2.803 -13.305 -0.63800001 0.25999999
2.849 -13.317 -0.63999999 0.61000001
2.892 -13.214 -0.634 0.63999999
2.848 -12.821 -0.61000001 0.25
2.875 -12.754 -0.60600001 0.49000001
2.911 -12.729 -0.60500002 0.38999999
2.789 -12.026 -0.56099999 0.43000001
2.835 -12.052 -0.56300002 0.2
3.0580001 -12.815 -0.61199999 0.52999997
3.056 -12.718 -0.60600001 0.38
3.848 -15.767 -0.801 0.14
3.02 -12.231 -0.57700002 0.23999999
2.3010001 -9.224 -0.38499999 0.37
3.6889999 -14.531 -0.72500002 0.14
3.559 -13.839 -0.68099999 0.55000001
3.3139999 -12.731 -0.611 0.16
3.3570001 -12.732 -0.61199999 0.41
3.3380001 -12.578 -0.602 0.14
2.562 -9.5579996 -0.41 0.57999998
2.562 -9.4399996 -0.403 0.20999999
2.569 -9.3509998 -0.39700001 0.18000001
2.618 -9.4130001 -0.40200001 0.18000001
2.809 -9.9709997 -0.43799999 0.57999998
3.4890001 -12.29 -0.588 0.20999999
3.5999999 -12.529 -0.60399997 0.13
3.619 -12.448 -0.59899998 0.51999998
3.7420001 -12.72 -0.61799997 0.17
4.0619998 -13.643 -0.67799997 0.2
2.3870001 -7.9650002 -0.31200001 0.38999999
3.882 -12.749 -0.62199998 0.18000001
3.9089999 -12.768 -0.62300003 0.23
2.313 -7.507 -0.28299999 0.14
3.9660001 -12.669 -0.61900002 0.47999999
4.0029998 -12.649 -0.61799997 0.23
4.0279999 -12.589 -0.61500001 0.47
2.9219999 -9.0570002 -0.38600001 0.23
4.158 -12.718 -0.625 0.16
4.1360002 -12.585 -0.61699998 0.46000001
2.5139999 -7.6020002 -0.29300001 0.28999999
2.9100001 -8.6949997 -0.36500001 0.20999999
2.98 -8.8120003 -0.373 0.36000001
4.2989998 -12.547 -0.61799997 0.27000001
4.3769999 -12.643 -0.625 0.25
2.5880001 -7.4320002 -0.28400001 0.20999999
2.618 -7.4819999 -0.28799999 0.37
2.652 -7.5019999 -0.28999999 0.16
2.638 -7.3889999 -0.28299999 0.27000001
3.46 -9.573 -0.42699999 0.1
2.7420001 -7.5289998 -0.29300001 0.17
3.5569999 -9.6499996 -0.43399999 0.25
2.8150001 -7.5809999 -0.29800001 0.30000001
4.7410002 -12.658 -0.634 0.31
5.3639998 -14.175 -0.73500001 0.16
5.1360002 -13.448 -0.68800002 0.38999999
2.96 -7.7080002 -0.308 0.19
4.8330002 -12.426 -0.62199998 0.13
2.8829999 -7.3740001 -0.287 0
3.632 -9.2279997 -0.41100001 0.13
2.9579999 -7.46 -0.294 0.14
5.4320002 -13.518 -0.699 0.18000001
5.2389998 -12.922 -0.66000003 0.57999998
3.7750001 -9.2469997 -0.41499999 0.25999999
3.7639999 -9.1389999 -0.40900001 0.17
3.7950001 -9.1330004 -0.40900001 0.23999999
3.8659999 -9.2609997 -0.41800001 0.34
3.9219999 -9.3129997 -0.42300001 0.44
3.9690001 -9.3409996 -0.42500001 0.23
3.924 -9.1560001 -0.414 0.28999999
3.898 -9.0190001 -0.405 0.34
3.944 -9.0469999 -0.40799999 0.14
3.9530001 -8.9910002 -0.405 0.20999999
3.98 -8.9750004 -0.405 0.46000001
5.6490002 -12.659 -0.65499997 0.22
3.9960001 -8.8979998 -0.40099999 0.34
3.9949999 -8.8240004 -0.39700001 0.2
4.1820002 -9.1569996 -0.41999999 0.47
4.158 -9.0299997 -0.412 0.36000001
4.2189999 -9.0860004 -0.417 0.28999999
4.2399998 -9.0939999 -0.41800001 0.25
4.3270001 -9.2049999 -0.42699999 0.25999999
4.3460002 -9.1689997 -0.42500001 0.5
4.256 -8.9090004 -0.40799999 0.28
4.1810002 -8.684 -0.39399999 0.27000001
4.2399998 -8.7349997 -0.398 0.43000001
4.4060001 -9.0030003 -0.417 0.27000001
4.5190001 -9.1969995 -0.43099999 0.30000001
4.3130002 -8.7110004 -0.39899999 0.25
4.493 -9 -0.41999999 0.16
4.5349998 -9.0129995 -0.42199999 0.38
4.5689998 -9.0109997 -0.42199999 0.15000001
4.5450001 -8.8940001 -0.41499999 0.51999998
5.9889998 -11.612 -0.60600001 0.23
4.4819999 -8.6719999 -0.40099999 0.27000001
4.796 -9.2040005 -0.43900001 0.25
4.3509998 -8.2919998 -0.377 0.14
4.6500001 -8.7910004 -0.41299999 0.38999999
4.7540002 -8.9189997 -0.42300001 0.33000001
4.7639999 -8.8710003 -0.41999999 0.28
4.698 -8.684 -0.40799999 0.34999999
4.7179999 -8.6870003 -0.40900001 0.25
4.559 -8.335 -0.38499999 0.41999999
4.6989999 -8.5249996 -0.40000001 0.23999999
4.5240002 -8.1490002 -0.37400001 0.13
4.6079998 -8.2390003 -0.38100001 0.34
4.6810002 -8.3079996 -0.38699999 0.2
4.5640001 -8.0419998 -0.36899999 0.41
4.902 -8.6029997 -0.41 0.23
4.598 -8.0139999 -0.36899999 0.38
5.198 -8.9879999 -0.44 0.28999999
4.9450002 -8.4910002 -0.405 0.25
4.783 -8.1560001 -0.382 0.23999999
5.296 -8.9610004 -0.44100001 0.31
5.2550001 -8.8599997 -0.435 0.2
4.8210001 -8.0749998 -0.37900001 0.34999999
4.869 -8.0970001 -0.382 0.38999999
4.948 -8.1709995 -0.38800001 0.30000001
4.9250002 -8.0749998 -0.38299999 0.25
4.9180002 -8.007 -0.37900001 0.25999999
4.9029999 -7.927 -0.37400001 0.34999999
4.9460001 -7.9679999 -0.37799999 0.34
4.9860001 -7.9770002 -0.37900001 0.25999999
4.9809999 -7.914 -0.37599999 0.44999999
7.7309999 -12.171 -0.68900001 0.22
4.9710002 -7.79 -0.36899999 0.23
4.9489999 -7.7020001 -0.36399999 0.55000001
4.7480001 -7.3400002 -0.338 0.16
5.0539999 -7.7839999 -0.37200001 0.31999999
5.105 -7.8080001 -0.37400001 0.30000001
4.98 -7.5669999 -0.35800001 0.28999999
5.0510001 -7.6209998 -0.36300001 0.31
5.0949998 -7.6350002 -0.36500001 0.2
5.1329999 -7.6409998 -0.36700001 0.5
5.3590002 -7.9219999 -0.389 0.34
5.348 -7.8790002 -0.38600001 0.27000001
5.7779999 -8.3950005 -0.428 0.52999997
5.1059999 -7.3740001 -0.352 0.2
5.7880001 -8.2980003 -0.42300001 0.38999999
5.9520001 -8.4750004 -0.43799999 0.28
5.9569998 -8.4259996 -0.43599999 0.31
5.152 -7.2690001 -0.34900001 0.17
5.7740002 -8.0880003 -0.412 0.54000002
5.8540001 -8.1440001 -0.41800001 0.27000001
5.698 -7.8769999 -0.39899999 0.25999999
5.6300001 -7.7319999 -0.389 0.36000001
5.7579999 -7.855 -0.40000001 0.25
5.9439998 -8.0539999 -0.417 0.41999999
5.7940001 -7.8270001 -0.40000001 0.20999999
5.3590002 -7.1950002 -0.352 0.27000001
5.961 -7.9460001 -0.412 0.28999999
5.4949999 -7.2800002 -0.36199999 0.49000001
5.7820001 -7.5609999 -0.38600001 0.38
5.8779998 -7.6360002 -0.39300001 0.41
5.507 -7.1329999 -0.35499999 0.19
5.9629998 -7.671 -0.398 0.34999999
5.908 -7.5510001 -0.391 0.27000001
6.1659999 -7.829 -0.414 0.38999999
6.0879998 -7.6799998 -0.40400001 0.41
6.026 -7.553 -0.39500001 0.25999999
5.691 -7.0900002 -0.36000001 0.25
5.7319999 -7.118 -0.36300001 0.38999999
5.7639999 -7.112 -0.36399999 0.28
6.5229998 -7.993 -0.43599999 0.25
6.8130002 -8.2919998 -0.461 0.22
6.4099998 -7.7550001 -0.41999999 0.38999999
6.381 -7.6700001 -0.41499999 0.2
6.2290001 -7.441 -0.398 0.22
