# .PCD v0.7 - Point Cloud Data file format
VERSION 0.7
FIELDS x y z intensity
SIZE 4 4 4 4
TYPE F F F F
COUNT 1 1 1 1
WIDTH 1401
HEIGHT 1
VIEWPOINT 0 0 0 1 0 0 0
POINTS 1401
DATA ascii
60.919998 33.456001 1.265 0
38.351002 21.150999 0.87400001 0
38.301998 21.281 0.87400001 0
38.331001 21.455 0.87599999 0
60.265999 33.964001 1.26 0
59.361 33.701 1.2460001 0
58.967999 33.723 1.2410001 0
57.278999 32.998001 1.2130001 0
57.368999 33.169998 1.216 0
57.044998 33.222 1.212 0
56.616001 33.210999 1.206 0
56.701 33.5 1.21 0
55.853001 33.237 1.196 0
55.652 33.355 1.1950001 0
55.455002 33.473999 1.193 0
55.459999 33.596001 1.194 0
55.068001 33.595001 1.189 0
54.921001 33.743 1.188 0
54.882999 33.957001 1.1900001 0
54.810001 34.151001 1.1900001 0
54.521 34.209 1.187 0
53.990002 34.112999 1.179 0
50.580002 32.071999 1.119 0
50.328999 32.134998 1.1160001 0
50.063999 32.188 1.113 0
49.536999 32.069 1.105 0
49.570999 32.313 1.108 0
49.306999 32.362 1.105 0
50.838001 33.594002 1.135 0
50.805 33.687 1.135 0
51.667 34.493 1.153 0
51.444 34.577999 1.151 0
51.212002 34.657001 1.148 0
50.223999 34.219002 1.132 0
50.990002 34.974998 1.148 0.050000001
49.213001 33.985001 1.118 0.090000004
49.334 34.298 1.122 0.11
21.386 14.936 0.60500002 0.25
21.509001 15.122 0.60799998 0
48.785 34.487999 1.117 0
48.375 34.426998 1.1109999 0
20.816 15.03 0.59799999 0.28
20.704 15.048 0.597 0.31
20.583 15.01 0.59500003 0.31999999
20.448999 15.011 0.59399998 0.31999999
20.323999 15.018 0.59200001 0.31999999
20.188 15.016 0.58999997 0.31999999
20.055 15.015 0.58899999 0.33000001
19.931 15.02 0.58700001 0.34
19.788 15.01 0.58600003 0.30000001
19.694 14.988 0.58399999 0.36000001
19.569 14.991 0.583 0.31
19.438999 14.989 0.58099997 0.36000001
19.299 14.977 0.579 0.28999999
19.018 14.856 0.57499999 0.28999999
18.884001 14.847 0.57300001 0.27000001
18.856001 14.921 0.57300001 0.46000001
18.858999 14.971 0.574 0.41
18.733 14.968 0.57200003 0.31999999
18.615 14.969 0.57099998 0.33000001
18.499001 14.973 0.56999999 0.33000001
18.374001 14.968 0.56800002 0.34
18.261 14.971 0.56699997 0.33000001
18.152 14.977 0.56599998 0.34999999
18.065001 14.953 0.56400001 0.34999999
17.947001 14.951 0.56300002 0.36000001
17.839001 14.956 0.56199998 0.36000001
17.712 14.945 0.56 0.33000001
17.608999 14.953 0.55900002 0.34999999
17.502001 14.958 0.55800003 0.34
17.386999 14.954 0.55699998 0.34999999
17.309 14.934 0.55500001 0.34
17.205999 14.94 0.55400002 0.34999999
17.087999 14.932 0.55299997 0.36000001
16.979 14.932 0.55199999 0.34
16.875 14.935 0.551 0.38999999
16.74 14.91 0.54900002 0.36000001
16.556 14.839 0.546 0.34
16.457001 14.797 0.54400003 0.25999999
16.393999 14.834 0.54400003 0.36000001
16.379999 14.915 0.54500002 0.47
16.284 14.922 0.54400003 0.38
16.174999 14.916 0.542 0.38
16.077 14.919 0.54100001 0.34
15.975 14.918 0.54000002 0.34999999
15.902 14.897 0.53899997 0.34999999
15.814 14.908 0.53799999 0.40000001
15.68 14.875 0.53600001 0.40000001
15.514 14.811 0.53399998 0.34
15.404 14.799 0.53299999 0.28
15.336 14.827 0.53200001 0.34999999
15.314 14.899 0.53299999 0.43000001
15.25 14.884 0.53200001 0.37
15.162 14.891 0.53100002 0.36000001
15.065 14.889 0.52999997 0.38
14.967 14.886 0.52899998 0.38
14.881 14.893 0.528 0.38999999
14.79 14.896 0.52700001 0.38
14.7 14.898 0.52600002 0.38
14.604 14.894 0.52499998 0.38999999
14.537 14.873 0.52399999 0.38
14.448 14.876 0.523 0.38999999
14.363 14.881 0.52200001 0.40000001
14.273 14.881 0.52100003 0.38
14.186 14.884 0.51999998 0.36000001
14.099 14.886 0.51999998 0.41
14.012 14.888 0.51899999 0.40000001
13.945 14.864 0.51800001 0.34999999
13.859 14.865 0.51700002 0.40000001
13.771 14.865 0.51599997 0.36000001
13.688 14.868 0.51499999 0.41
13.603 14.87 0.514 0.36000001
13.521 14.874 0.51300001 0.37
13.434 14.872 0.51300001 0.41
13.373 14.852 0.51200002 0.36000001
13.287 14.849 0.51099998 0.41
13.208 14.855 0.50999999 0.36000001
13.124 14.854 0.509 0.37
13.033 14.844 0.50800002 0.41
12.936 14.828 0.50700003 0.46000001
12.83 14.801 0.50599998 0.34
12.756 14.762 0.50400001 0.19
12.713 14.806 0.505 0.44
12.639 14.814 0.50400001 0.43000001
12.55 14.804 0.50300002 0.41
12.453 14.783 0.50199997 0.37
12.362 14.769 0.50099999 0.23999999
12.327 14.821 0.50099999 0.38999999
12.296 14.832 0.50099999 0.38999999
12.216 14.83 0.5 0.38999999
12.143 14.836 0.49900001 0.38999999
12.062 14.832 0.49900001 0.38
11.989 14.837 0.498 0.38999999
11.903 14.827 0.49700001 0.38999999
11.833 14.834 0.49599999 0.38999999
11.785 14.822 0.49599999 0.38999999
11.706 14.818 0.495 0.40000001
11.636 14.825 0.49399999 0.38999999
11.561 14.825 0.49399999 0.40000001
11.487 14.826 0.493 0.41999999
11.411 14.824 0.49200001 0.41
11.34 14.828 0.49200001 0.38999999
11.27 14.834 0.491 0.41
11.219 14.815 0.49000001 0.41
11.145 14.813 0.49000001 0.38999999
11.073 14.815 0.48899999 0.41
10.998 14.811 0.48800001 0.41
10.924 14.808 0.48800001 0.41
10.85 14.805 0.48699999 0.34999999
10.785 14.814 0.486 0.55000001
10.694 14.738 0.48500001 0.28999999
10.589 14.691 0.48300001 0.31999999
10.563 14.752 0.484 0.28999999
10.528 14.801 0.484 0.44999999
10.426 14.756 0.48300001 0.38999999
10.379 14.787 0.48300001 0.47999999
10.285 14.752 0.48100001 0.34
10.215 14.701 0.47999999 0.25999999
10.181 14.751 0.47999999 0.41
10.143 14.795 0.48100001 0.37
10.076 14.797 0.47999999 0.44999999
10.015 14.807 0.47999999 0.37
9.9379997 14.793 0.479 0.44
9.8760004 14.801 0.47799999 0.36000001
9.8339996 14.788 0.47799999 0.5
9.552 14.464 0.47099999 0.23
9.4320002 14.381 0.46900001 0.61000001
9.4350004 14.484 0.47099999 0.22
9.5649996 14.783 0.47600001 0.44999999
9.5100002 14.8 0.47499999 0.30000001
9.4379997 14.791 0.47499999 0.58999997
9.1269999 14.404 0.46700001 0.25
9.1169996 14.438 0.46700001 0.41
9.0539999 14.44 0.46700001 0.41
8.9569998 14.385 0.465 0.52999997
9.118 14.746 0.47099999 0.33000001
9.132 14.872 0.47299999 0.38
9.1330004 14.979 0.47499999 0.37
9.1269999 15.074 0.47600001 0.34999999
9.1339998 15.14 0.477 0.34
9.1079998 15.204 0.477 0.37
9.04 15.199 0.477 0.44999999
8.9420004 15.143 0.47499999 0.44999999
9.1230001 15.56 0.48199999 0.46000001
9.1140003 15.656 0.48300001 0.28
8.3059998 14.377 0.46000001 0.38
8.2690001 14.364 0.46000001 0.38
8.2150002 14.374 0.46000001 0.40000001
8.1560001 14.377 0.45899999 0.38999999
8.0959997 14.377 0.45899999 0.38999999
8.0380001 14.378 0.458 0.34999999
7.9860001 14.391 0.458 0.44
7.9219999 14.382 0.45699999 0.31999999
7.8889999 14.376 0.45699999 0.36000001
7.8309999 14.377 0.45699999 0.36000001
7.7719998 14.376 0.456 0.37
7.7220001 14.391 0.456 0.38
7.664 14.392 0.456 0.36000001
7.605 14.39 0.45500001 0.36000001
7.546 14.389 0.45500001 0.36000001
7.5100002 14.374 0.454 0.36000001
7.4559999 14.382 0.454 0.36000001
7.3969998 14.379 0.454 0.36000001
7.3390002 14.375 0.45300001 0.36000001
7.2870002 14.386 0.45300001 0.44
7.2309999 14.387 0.45300001 0.23
7.1789999 14.397 0.45199999 0.50999999
7.2350001 14.622 0.456 0
7.1609998 14.882 0.45899999 0
7.9070001 16.693001 0.48899999 0
7.8699999 16.681999 0.48800001 0
7.8200002 16.712 0.48800001 0
6.4720001 14.071 0.44299999 0
6.4359999 14.109 0.44400001 0
6.395 14.137 0.44400001 0
6.3850002 14.233 0.44499999 0
6.3179998 14.384 0.447 0.43000001
6.349 14.579 0.44999999 0
6.2189999 14.405 0.44600001 0
7.697 18.690001 0.51499999 0
12.636 34.240002 0.76300001 0.27000001
12.485 34.161999 0.76099998 0.2
12.289 33.956001 0.75700003 0.14
12.191 34.019001 0.75700003 0.46000001
12.144 34.224998 0.75999999 0.25
12.117 34.493 0.764 0.2
11.802 33.936001 0.75400001 0.37
11.722 33.879002 0.75300002 0.2
11.623 33.938 0.75300002 0.20999999
11.461 33.810001 0.75099999 0.27000001
11.379 33.919998 0.75199997 0.27000001
11.321 34.099998 0.75400001 0.22
11.098 33.784 0.74900001 0.38
11.015 33.890999 0.75 0.23
11.006 34.042999 0.75199997 0.31999999
10.903 34.091999 0.75199997 0.2
10.756 34.000999 0.75 0.34999999
10.61 33.908001 0.74800003 0.2
10.485 33.882 0.74699998 0.27000001
10.458 34.173 0.75099999 0.34999999
10.335 34.153999 0.75099999 0.20999999
10.264 34.112999 0.75 0.34999999
10.08 33.888 0.74599999 0.23
9.9510002 33.845001 0.74400002 0.16
9.8240004 33.803001 0.74299997 0.44999999
9.7290001 33.874001 0.74400002 0.2
9.5649996 33.701 0.741 0.16
9.5450001 34.036999 0.745 0.46000001
9.4209995 33.799 0.741 0.20999999
9.21 33.449001 0.73500001 0.23
9.3430004 34.354 0.74900001 0.19
9.2130003 34.298 0.74800003 0.18000001
9.1169996 34.373001 0.74900001 0.28999999
8.9460001 34.16 0.745 0
9.0469999 34.993 0.75800002 0.11
8.8430004 34.43 0.74800003 0.17
8.698 34.312 0.74599999 0.40000001
8.5810003 34.303001 0.74599999 0.23
8.3900003 33.993999 0.74000001 0.23
8.2060003 33.702999 0.73500001 0.18000001
8.1280003 33.845001 0.73699999 0.31999999
8.184 34.551998 0.74800003 0.2
8.0279999 34.379002 0.745 0.13
7.947 34.271999 0.74299997 0.47999999
7.8610001 34.393002 0.74400002 0.25
7.6750002 34.071999 0.73900002 0.25999999
7.5469999 34 0.73799998 0.22
7.4590001 34.113998 0.73900002 0.40000001
7.3530002 34.143002 0.73900002 0.23
7.2249999 34.068001 0.73699999 0.15000001
7.1620002 34.034 0.73699999 0.43000001
7.0089998 33.834999 0.73299998 0.19
7 34.328999 0.741 0.37
6.9000001 34.394001 0.741 0.23
6.7059999 33.978001 0.73500001 0.23
6.6079998 34.043999 0.73500001 0.28999999
6.5209999 34.171001 0.73699999 0.28
6.4559999 34.119999 0.736 0.27000001
6.2800002 33.775002 0.73000002 0.2
6.2140002 34.011002 0.73400003 0.23999999
6.0960002 33.971001 0.73299998 0.28
5.9910002 33.995998 0.73299998 0.22
5.8779998 33.980999 0.73199999 0.30000001
5.802 34.181 0.73500001 0.20999999
5.7659998 34.293999 0.73699999 0.23
5.6890001 34.498001 0.74000001 0.25
5.4990001 34.012001 0.73199999 0.18000001
5.3860002 33.990002 0.73100001 0.25999999
5.1880002 33.425999 0.722 0.20999999
5.0419998 33.174999 0.71799999 0.33000001
4.9299998 33.134998 0.71700001 0.27000001
4.8280001 33.166 0.71799999 0.31
4.796 33.313999 0.72000003 0.27000001
4.6880002 33.306 0.71899998 0.30000001
4.5840001 33.321999 0.71899998 0.33000001
4.48 33.341999 0.71899998 0.28999999
4.3769999 33.368 0.72000003 0.27000001
4.4050002 34.417 0.736 0.20999999
4.4959998 36.014 0.75999999 0.090000004
4.362 35.397999 0.75 0.12
4.0500002 33.75 0.72500002 0.30000001
3.9360001 33.695 0.72399998 0.28999999
3.799 33.432999 0.72000003 0.30000001
3.7279999 33.755001 0.72399998 0.27000001
3.638 33.907001 0.72600001 0.28
3.53 33.912998 0.72600001 0.28999999
3.473 33.882 0.72600001 0.25
3.3770001 33.993999 0.727 0.28
3.2709999 34.007 0.727 0.2
3.175 34.133999 0.72899997 0.25
3.089 34.382999 0.73299998 0.15000001
3 34.613998 0.736 0.17
2.9260001 35.029999 0.74199998 0.17
2.8570001 34.867001 0.74000001 0.13
2.7550001 34.973 0.741 0.44
2.6470001 35.007999 0.74199998 0.20999999
2.5550001 35.258999 0.745 0.18000001
2.4300001 35.060001 0.74199998 0.30000001
2.342 35.396 0.74699998 0.20999999
2.2049999 35.009998 0.741 0.28
2.096 35.022999 0.741 0.27000001
2.039 35.004002 0.741 0.31
1.916 34.775002 0.73799998 0.28999999
1.798 34.609001 0.73500001 0.25
1.689 34.609001 0.73500001 0.28999999
1.591 34.848999 0.73799998 0.25999999
1.473 34.646 0.73500001 0.18000001
1.3609999 34.570999 0.73400003 0.44999999
1.312 34.719002 0.736 0.23
1.198 34.589001 0.73400003 0.12
1.063 33.778999 0.722 0.16
0.954 33.674 0.72000003 0.20999999
0.85100001 33.785 0.722 0.36000001
0.75999999 34.466999 0.73199999 0.25
0.64600003 34.18 0.72799999 0.27000001
0.59399998 34.275002 0.72899997 0.25999999
0.486 34.23 0.72799999 0.18000001
0.38 34.382 0.73100001 0.43000001
0.273 34.415001 0.73100001 0.18000001
0.164 34.285 0.72899997 0.36000001
0.056000002 34.360001 0.73000002 0.23
-0.052000001 34.273998 0.72899997 0.2
-0.106 34.259998 0.72899997 0.16
-0.214 34.446999 0.73199999 0.16
-0.32100001 34.223999 0.72799999 0.17
-0.42699999 34.109001 0.727 0.16
-0.53299999 34.084 0.72600001 0.12
-0.64499998 34.318001 0.73000002 0.13
-0.75300002 34.330002 0.73000002 0.16
-0.85699999 34.188999 0.72799999 0
-0.92000002 34.521999 0.73299998 0.13
-1.022 34.320999 0.73000002 0.17
-1.1339999 34.432999 0.73199999 0.090000004
-1.2359999 34.252998 0.72899997 0.13
-1.342 34.195 0.72799999 0.34
-1.46 34.460999 0.73199999 0.20999999
-1.572 34.534 0.73400003 0.28999999
-1.628 34.567001 0.73400003 0.28999999
-1.737 34.571999 0.73400003 0.20999999
-1.8430001 34.528999 0.73400003 0.31999999
-1.957 34.612 0.73500001 0.2
-2.0899999 35.011002 0.741 0.23999999
-2.204 35.075001 0.74199998 0.28
-2.3139999 35.063 0.74199998 0.28999999
-2.355 34.849998 0.73900002 0.31
-2.457 34.743 0.73799998 0.27000001
-2.573 34.823002 0.73900002 0.27000001
-2.6800001 34.783001 0.73799998 0.27000001
-2.79 34.785999 0.73900002 0.28999999
-2.901 34.791 0.73900002 0.2
-3.036 35.092999 0.74400002 0.27000001
-3.0639999 34.775002 0.73900002 0.20999999
-3.217 35.244999 0.74599999 0.13
-3.349 35.462002 0.75 0.44999999
-3.4690001 35.544998 0.75099999 0.25
-3.585 35.569 0.75199997 0.2
-3.711 35.696999 0.75400001 0.40000001
-3.8180001 35.636002 0.75300002 0.20999999
-3.9230001 35.568001 0.75199997 0.17
-3.9990001 35.738998 0.755 0.47
-4.1149998 35.756001 0.755 0.23
-4.2529998 35.963001 0.759 0.25999999
-4.3670001 35.957001 0.759 0.17
-4.494 36.058998 0.75999999 0.40000001
-4.6069999 36.046001 0.76099998 0.20999999
-4.7270002 36.081001 0.76099998 0.23999999
-4.6539998 35.091999 0.74599999 0.2
-4.7740002 35.151001 0.74699998 0.23
-4.8660002 34.999001 0.745 0.20999999
-4.9780002 35.000999 0.74599999 0.22
-5.1199999 35.207001 0.74900001 0.2
-5.2470002 35.301998 0.75099999 0.20999999
-5.3000002 34.897999 0.745 0.20999999
-5.3449998 34.830002 0.74400002 0.20999999
-5.5149999 35.195999 0.75 0.28999999
-5.6139998 35.108002 0.74900001 0.18000001
-5.6020002 34.335999 0.73699999 0.17
-5.7659998 34.660999 0.74199998 0.18000001
-5.8769999 34.653 0.74199998 0.31999999
-5.9759998 34.578999 0.74199998 0.19
-5.993 34.351002 0.73799998 0.20999999
-6.0900002 34.275002 0.73699999 0.16
-6.204 34.286999 0.73799998 0.16
-6.355 34.507 0.741 0.28
-6.4060001 34.179001 0.73699999 0.2
-6.4749999 33.953999 0.73400003 0.2
-6.5760002 33.903999 0.73299998 0.46000001
-6.7129998 34.037998 0.73500001 0.25
-6.7160001 33.776001 0.73199999 0.14
-6.8080001 33.685001 0.73000002 0.44999999
-6.954 33.856998 0.73400003 0.25
-7.0840001 33.952999 0.73500001 0.20999999
-7.2129998 34.035999 0.73699999 0.15000001
-7.2880001 33.860001 0.73500001 0.090000004
-7.2129998 33.007 0.722 0.12
-7.4980001 34.060001 0.73799998 0.16
-7.5929999 33.981998 0.73699999 0.47999999
-7.7540002 34.198002 0.741 0.18000001
-7.915 34.407001 0.745 0.38
-7.987 34.226002 0.74199998 0.23
-8.1079998 34.258999 0.74299997 0.17
-8.2489996 34.374001 0.745 0.15000001
-8.3310003 34.474998 0.74699998 0.16
-8.3520002 34.092999 0.74199998 0.20999999
-8.4849997 34.172001 0.74299997 0.25999999
-8.5699997 34.056 0.74199998 0.31
-8.5530005 33.537998 0.73400003 0.14
-8.6890001 33.631001 0.736 0.30000001
-8.6960001 33.227001 0.73000002 0.19
-8.7989998 33.405998 0.73299998 0.20999999
-9.0139999 33.793999 0.74000001 0.25999999
-9.0600004 33.540001 0.736 0.20999999
-9.1300001 33.382 0.73400003 0.20999999
-9.2189999 33.294998 0.73299998 0.25999999
-9.3570004 33.384998 0.73500001 0.17
-9.4820004 33.426998 0.736 0.18000001
-9.6339998 33.563999 0.73900002 0.15000001
-9.6920004 33.564999 0.73900002 0.14
-9.9469995 34.048 0.74699998 0.16
-10.051 34.007 0.74699998 0.20999999
-10.162 33.988998 0.74699998 0.27000001
-10.058 33.257999 0.736 0.16
-10.434 34.118 0.75 0.41
-10.493 33.93 0.74800003 0.19
-10.314 33.165001 0.736 0.20999999
-10.391 33.043999 0.73500001 0
-9.776 30.745001 0.69800001 0
-9.8009996 30.49 0.69499999 0
-9.8400002 30.285999 0.69199997 0.12
-9.8699999 30.055 0.68900001 0.18000001
-11.23 33.848999 0.75 0.16
-11.377 34.112 0.755 0.16
-11.514 34.164001 0.75599998 0.20999999
-11.709 34.387001 0.75999999 0.20999999
-11.607 33.738998 0.75 0.15000001
-11.718 33.715 0.75099999 0.13
-11.703 33.333 0.745 0.15000001
-12.07 34.039001 0.75700003 0.23999999
-12.185 34.022999 0.75700003 0.25
-12.095 33.605 0.75099999 0.34999999
-12.273 33.765999 0.75400001 0.18000001
-12.538 34.162998 0.76099998 0.28
-12.737 34.368999 0.76499999 0.13
-12.747 34.069 0.76099998 0.27000001
-12.949 34.278999 0.76499999 0
-13.441 35.25 0.78200001 0.12
-12.747 33.266998 0.75 0.22
-13.252 34.265999 0.76700002 0.1
-13.254 33.952 0.76200002 0.14
-13.449 34.136002 0.76599997 0.12
-13.618 34.249001 0.76800001 0.14
-13.494 33.626999 0.759 0.14
-13.736 33.922001 0.764 0.16
-14.008 34.442001 0.773 0.12
-14.265 34.759998 0.77899998 0.14
-14.18 34.245998 0.77200001 0.12
-14.379 34.421001 0.77499998 0.16
-14.505 34.416 0.77600002 0.20999999
-14.828 34.877998 0.78399998 0.090000004
-14.924 34.799999 0.78399998 0.15000001
-14.969 34.755001 0.78299999 0.20999999
-15.093 34.740002 0.78399998 0.12
-15.157 34.59 0.78200001 0.34999999
-15.208 34.410999 0.77999997 0.18000001
-15.039 33.742001 0.76999998 0.23
-15.258 33.945999 0.77399999 0.23
-15.377 33.924999 0.77399999 0.2
-15.625 34.188 0.77999997 0.38999999
-15.536 33.851002 0.77399999 0.19
-15.678 33.880001 0.77600002 0.18000001
-15.899 34.077 0.77999997 0.13
-15.871 33.738998 0.77499998 0.27000001
-15.99 33.716 0.77499998 0.20999999
-16.200001 33.883999 0.77899998 0.23
-16.326 33.874001 0.77999997 0.19
-16.370001 33.828999 0.77899998 0.18000001
-16.511999 33.851002 0.78100002 0.41
-16.584 33.729 0.77899998 0.23999999
-16.687 33.671001 0.77899998 0.2
-16.778 33.588001 0.77899998 0.38999999
-16.91 33.589001 0.77999997 0.2
-17.004 33.512001 0.77899998 0.28
-17.044001 33.460999 0.77899998 0.20999999
-17.212 33.529999 0.78100002 0.30000001
-17.311001 33.465 0.78100002 0.18000001
-17.410999 33.400002 0.78100002 0.25999999
-17.518 33.348 0.78100002 0.18000001
-17.704 33.446999 0.78299999 0.31999999
-17.856001 33.479 0.78500003 0.23999999
-17.864 33.368999 0.78299999 0.2
-17.983 33.339001 0.78399998 0.37
-18.073999 33.257 0.78399998 0.18000001
-18.261999 33.353001 0.78600001 0.36000001
-18.389 33.335999 0.787 0.23
-18.444 33.188999 0.78500003 0.17
-18.545 33.125 0.78500003 0.28999999
-18.660999 33.088001 0.78600001 0.19
-18.691 33.02 0.78500003 0.31
-18.993 33.308998 0.79100001 0.16
-19.156 33.351002 0.79299998 0.38999999
-19.278999 33.321999 0.79299998 0.20999999
-19.382 33.259998 0.79299998 0.23
-19.476999 33.181 0.79299998 0.19
-19.579 33.117001 0.79299998 0.20999999
-19.674999 33.16 0.79400003 0.41999999
-19.926001 33.345001 0.79900002 0.17
-20.056999 33.325001 0.79900002 0
-20.201 33.327 0.801 0.079999998
-20.106001 32.937 0.79500002 0.14
-20.487 33.326 0.80299997 0
-20.632999 33.327 0.80400002 0.11
-20.687 33.182999 0.80299997 0.14
-20.964001 33.509998 0.80900002 0.41999999
-21.110001 33.507999 0.81 0.18000001
-21.447001 33.807999 0.81699997 0.36000001
-21.389 33.483002 0.81199998 0.23
-21.521 33.457001 0.81300002 0.25
-21.51 33.209999 0.81 0.20999999
-21.827 33.469002 0.81599998 0.2
-21.799 33.312 0.81300002 0.23
-22.035999 33.444 0.81699997 0.12
-22.009001 33.175999 0.81300002 0.14
-22.172001 33.195 0.815 0.17
-22.455999 33.393002 0.81999999 0
-22.584 33.356998 0.82099998 0.13
-22.674 33.264 0.81999999 0.23
-22.931999 33.528999 0.82599998 0.25999999
-23.299999 33.839001 0.833 0.25
-22.910999 33.050999 0.81900001 0.19
-22.895 32.806 0.81599998 0.15000001
-25.08 35.702 0.87099999 0.36000001
-25.122999 35.525002 0.87 0.2
-25.549 35.889 0.87800002 0.18000001
-25.598 35.838001 0.87800002 0
-24.827999 34.528999 0.85500002 0.1
-25.351999 35.026001 0.86500001 0.20999999
-24.909 34.186001 0.85100001 0.2
-25.392 34.620998 0.861 0.23
-25.507 34.549 0.861 0.18000001
-25.496 34.307999 0.85799998 0.38
-25.878 34.595001 0.86500001 0.2
-25.872 34.473999 0.86299998 0.14
-26.155001 34.624001 0.86799997 0.14
-26.399 34.720001 0.87099999 0.18000001
-26.370001 34.456001 0.86799997 0.27000001
-26.094999 33.875 0.85799998 0.27000001
-27.385 35.321999 0.88800001 0.2
-27.444 35.169998 0.88599998 0
-27.462999 35.078999 0.88499999 0
-28.688 36.41 0.91299999 0.11
-28.615 36.083 0.90799999 0
-29.542 37.014 0.92799997 0
-29.021 36.126999 0.91299999 0.090000004
-27.816 34.402 0.88099998 0.1
-29.316 36.028 0.91399997 0
-29.297001 35.889 0.912 0.11
-28.365 34.525002 0.88700002 0.12
-28.488001 34.452 0.88800001 0.15000001
-28.785 34.59 0.89200002 0
-29.43 35.140999 0.90499997 0
-29.134001 34.566002 0.89499998 0.14
-29.433001 34.699001 0.89999998 0.27000001
-29.500999 34.558998 0.89899999 0
-29.688 34.667999 0.90200001 0.079999998
-30.066999 34.888 0.90799999 0.16
-30.246 34.873001 0.91000003 0
-30.521999 34.970001 0.91399997 0.059999999
-31.167 35.484001 0.926 0
-31.118999 35.203999 0.92199999 0
-31.214001 35.09 0.92199999 0
-32.254002 36.146 0.94499999 0
-32.306999 35.977001 0.94300002 0.13
-32.380001 35.831001 0.94199997 0.30000001
-32.502998 35.741001 0.94300002 0.19
-32.591 35.612 0.94199997 0
-32.742001 35.551998 0.94300002 0.07
-33.313 35.945 0.95300001 0
-33.338001 35.859001 0.95300001 0
-33.455002 35.757999 0.95300001 0
-33.981998 36.095001 0.96200001 0.12
-33.526001 35.386002 0.949 0.090000004
-33.598 35.240002 0.94800001 0.14
-33.59 35.009998 0.94599998 0.17
-33.769001 34.977001 0.94700003 0.23
-33.985001 35.09 0.95099998 0.11
-34.264 35.157001 0.95499998 0
-34.048 34.716 0.94700003 0
-34.469002 34.924999 0.954 0.059999999
-34.662998 34.902 0.95599997 0.090000004
-34.969002 34.988998 0.95999998 0
-35.208 35.007999 0.963 0
-35.775002 35.349998 0.97299999 0.12
-35.895 35.356998 0.97399998 0.28
-35.839001 35.080002 0.97100002 0.19
-35.896 34.916 0.96899998 0
-35.887001 34.688999 0.96700001 0
-35.848999 34.433998 0.96399999 0.13
-36.097 34.456001 0.96700001 0.16
-36.208 34.345001 0.96700001 0.22
-36.187 34.216 0.96499997 0.11
-36.286999 34.096001 0.96499997 0.15000001
-36.724998 34.292 0.972 0
-36.846001 34.188 0.972 0
-37.348 34.437 0.98100001 0
-38.030998 34.847 0.99199998 0
-37.383999 34.037998 0.977 0
-37.504002 34.039001 0.97799999 0
-37.723 34.022999 0.98100001 0
-38.723 34.706001 0.99900001 0
-39.077999 34.803001 1.0039999 0
-39.251999 34.737999 1.005 0
-39.133999 34.415001 1 0
-39.494999 34.513 1.006 0
-39.733002 34.611 1.0089999 0
-40.028999 34.647999 1.013 0
-40.507 34.841 1.021 0
-40.403999 34.530998 1.016 0
-41.119999 34.921001 1.028 0
-40.995998 34.594002 1.024 0
-40.653999 34.087002 1.015 0
-41.591999 34.764 1.0319999 0
-41.674 34.610001 1.0319999 0
-42.615002 35.167 1.048 0
-42.796001 35.091 1.05 0
-42.979 35.015999 1.051 0
-42.652 34.527 1.043 0
-42.659 34.311001 1.041 0
-43.000999 34.363998 1.045 0
-44.186001 35.198002 1.067 0
-44.346001 35.098999 1.068 0
-44.345001 34.870998 1.066 0
-44.507 34.773998 1.067 0
-44.699001 34.698002 1.069 0
-44.515999 34.332001 1.063 0
-44.759998 34.297001 1.066 0
-44.830002 34.238998 1.066 0
-45.165001 34.271 1.0700001 0
-46.307999 34.91 1.09 0
-46.362 34.723 1.089 0
-46.674 34.728001 1.0930001 0
-47.722 35.276001 1.11 0
-48.435001 35.569 1.122 0
-48.611 35.580002 1.124 0.07
-48.201 34.588001 1.11 0.88
-48.162998 34.331001 1.107 0.99000001
-48.188999 34.122002 1.1059999 0.99000001
-48.193001 33.897999 1.104 0.99000001
-48.133999 33.743 1.102 0.99000001
-48.140999 33.522999 1.1 0.99000001
-48.146999 33.303001 1.098 0.99000001
-48.175999 33.099998 1.097 0.99000001
-48.181999 32.882 1.095 0.99000001
-48.181 32.66 1.0930001 0.99000001
-48.187 32.443001 1.091 0.99000001
-48.150002 32.307999 1.09 0.99000001
-48.162998 32.098 1.0880001 0.99000001
-48.165001 31.881001 1.086 0.99000001
-48.176998 31.672001 1.085 0.99000001
-48.194 31.466999 1.0829999 0.99000001
-48.187 31.246 1.081 0.99000001
-48.181 31.028 1.079 0.99000001
-48.148998 30.9 1.0779999 0.74000001
-48.376999 30.833 1.08 0
-52.749001 33.389 1.1569999 0
-52.932999 33.272999 1.159 0
-53.073002 33.129002 1.159 0
-53.424999 33.116001 1.164 0
-57.101002 35.148998 1.228 0
-57.132999 34.921001 1.226 0
-55.870998 34.028999 1.2029999 0
-55.848 33.775002 1.201 0
-55.816002 33.516998 1.198 0
-55.859001 33.304001 1.197 0
-56.021999 33.162998 1.198 0
-55.862 32.832001 1.193 0
-58.321999 34.033001 1.235 0
-58.263 33.875999 1.233 0
-58.487 33.761002 1.235 0
-59.192001 33.919998 1.2460001 0
-59.421001 33.804001 1.248 0
-59.530998 33.618999 1.248 0
-59.568001 33.394001 1.247 0
-59.631001 33.182999 1.2460001 0
-59.735001 32.995998 1.2460001 0
-59.879002 32.952999 1.247 0
-60.233002 32.902 1.252 0
-60.689999 32.903999 1.258 0
-60.924999 32.785 1.26 0
-61.435001 32.811001 1.267 0
-61.613998 32.658001 1.2690001 0
-63.169998 33.23 1.294 0
-61.069 32.000999 1.257 0
-61.803001 32.139 1.267 0
-62.036999 32.013 1.27 0
-64.296997 32.925999 1.307 0
-61.290001 31.142 1.2539999 0
-64.913002 32.728001 1.314 0
-64.902 32.466999 1.312 0
-62.549 31.166 1.271 0
-62.485001 30.889999 1.268 0
-62.487 30.646999 1.266 0
-62.717999 30.516001 1.2690001 0
-70.099998 33.839001 1.392 0
-70.495003 33.757 1.397 0
-71.474998 33.951 1.411 0
-71.983002 32.681 1.41 0
-71.958 32.396999 1.408 0
-72.106003 32.327 1.41 0
-72.402 32.187 1.413 0
-35.557999 0.84100002 0.74900001 0.11
-33.530998 0.68599999 0.71799999 0.25
-33.493 0.57999998 0.71700001 0.28999999
-33.477001 0.47499999 0.71700001 0.33000001
-33.485001 0.42199999 0.71700001 0.23
-33.442001 0.317 0.71600002 0.25
-33.451 0.212 0.71700001 0.31
-33.442001 0.106 0.71600002 0.31
-33.438 0.001 0.71600002 0.31
-33.439999 -0.104 0.71600002 0.31999999
-33.418999 -0.20900001 0.71600002 0.22
-33.446999 -0.26100001 0.71700001 0.47999999
-33.419998 -0.366 0.71600002 0.17
-33.424999 -0.47099999 0.71600002 0.31999999
-33.424999 -0.57599998 0.71600002 0.31
-33.438999 -0.68199998 0.71600002 0.31
-33.443001 -0.787 0.71700001 0.31
-33.424 -0.89099997 0.71600002 0.22
-33.328999 -0.99400002 0.71499997 0.18000001
-33.441002 -1.05 0.71700001 0.16
-33.458 -1.155 0.71700001 0.20999999
-33.467999 -1.261 0.71700001 0.30000001
-33.327999 -1.3609999 0.71499997 0
-33.569 -1.476 0.71899998 0
-35.506001 -1.671 0.74800003 0
-65.938004 -13.41 1.2309999 0
-66.014999 -13.641 1.233 0
-66.07 -13.869 1.235 0
-66.043999 -14.08 1.235 0
-64.846001 -14.039 1.217 0
-64.806999 -14.243 1.217 0
-64.931 -14.378 1.219 0
-64.977997 -14.602 1.221 0
-65.440002 -14.922 1.229 0
-65.556999 -15.6 1.233 0
-65.568001 -15.82 1.234 0
-56.139 -13.829 1.087 0
-55.869999 -13.95 1.084 0
-62.372002 -15.778 1.186 0
-61.584 -15.785 1.175 0
-54.214001 -14.081 1.0599999 0
-52.714001 -13.869 1.0369999 0
-52.501999 -13.99 1.034 0
-52.639999 -14.115 1.0369999 0
-51.103001 -13.876 1.013 0.079999998
-50.945999 -14.005 1.011 0
-50.846001 -14.15 1.011 0
-50.452 -14.211 1.005 0
-50.376999 -14.361 1.005 0
-48.671001 -14.041 0.97799999 0.079999998
-48.084 -13.954 0.96899998 0.16
-48.007 -14.095 0.96899998 0
-47.933998 -14.238 0.96799999 0
-47.835999 -14.372 0.96799999 0.059999999
-44.599998 -13.555 0.917 0.090000004
-44.540001 -13.69 0.917 0.14
-44.509998 -13.834 0.917 0.12
-44.101002 -13.783 0.91100001 0.15000001
-43.911999 -13.875 0.90799999 0.23
-43.813 -13.996 0.90700001 0.19
-42.789001 -13.817 0.89200002 0
-42.956001 -14.02 0.89499998 0.11
-42.743 -14.1 0.89200002 0.20999999
-42.669998 -14.224 0.89200002 0.11
-42.523998 -14.25 0.88999999 0.16
-41.688 -14.116 0.87699997 0.17
-41.52 -14.205 0.875 0.22
-40.589001 -14.029 0.861 0.25999999
-40.318001 -14.078 0.85699999 0.25
-40.618 -14.326 0.86299998 0.11
-40.443001 -14.407 0.861 0.079999998
-39.542999 -14.157 0.847 0.14
-39.32 -14.217 0.84399998 0.31999999
-39.370998 -14.375 0.84500003 0.20999999
-39.132 -14.428 0.84200001 0.18000001
-38.867001 -14.469 0.83899999 0
-38.209 -14.362 0.829 0.12
-37.902 -14.382 0.824 0.18000001
-37.761002 -14.465 0.82300001 0.34
-37.707001 -14.512 0.82200003 0.2
-37.794998 -14.682 0.82499999 0
-37.354 -14.647 0.81800002 0
-37.474998 -14.83 0.82099998 0.07
-36.006001 -14.38 0.79799998 0.17
-35.949001 -14.489 0.79699999 0.23
-35.109001 -14.279 0.78399998 0.2
-35.202999 -14.382 0.78600001 0.25
-35.365002 -14.578 0.79000002 0.16
-35.285 -14.675 0.78899997 0.31999999
-34.741001 -14.577 0.78100002 0.13
-34.620998 -14.655 0.77999997 0.40000001
-34.491001 -14.728 0.778 0.16
-34.419998 -14.826 0.778 0.41999999
-34.380001 -14.873 0.778 0.25
-34.268002 -14.952 0.77600002 0.28
-34.122002 -15.016 0.77499998 0.12
-32.779999 -14.55 0.75300002 0.11
-32.789001 -14.677 0.75400001 0.13
-32.775002 -14.795 0.755 0.15000001
-31.742001 -14.449 0.73799998 0.28999999
-31.704 -14.492 0.73799998 0.23999999
-31.75 -14.634 0.74000001 0.20999999
-31.677999 -14.722 0.73900002 0
-31.487 -14.753 0.73699999 0.14
-31.089001 -14.687 0.73100001 0.28999999
-30.879999 -14.707 0.72799999 0.1
-30.829 -14.801 0.72799999 0.14
-30.51 -14.708 0.72299999 0.1
-30.426001 -14.785 0.722 0.2
-29.497999 -14.565 0.708 0.46000001
-29.332001 -14.598 0.70599997 0.15000001
-28.966 -14.53 0.70099998 0.16
-26.549 -13.424 0.66000003 0.14
-28.535 -14.483 0.69499999 0.12
-28.309999 -14.48 0.69099998 0.16
-27.893999 -14.379 0.685 0.22
-27.938 -14.513 0.68699998 0.18000001
-27.881001 -14.595 0.68599999 0.20999999
-27.856001 -14.693 0.68699998 0.13
-26.584 -14.131 0.66600001 0.31999999
-26.629 -14.208 0.667 0.36000001
-26.879999 -14.45 0.67199999 0.27000001
-26.754 -14.491 0.671 0.18000001
-26.158001 -14.276 0.66100001 0.2
-26.124001 -14.364 0.66100001 0.49000001
-26.094 -14.454 0.66100001 0.20999999
-25.785 -14.389 0.65700001 0.30000001
-25.688999 -14.442 0.65600002 0.25
-25.731001 -14.518 0.65700001 0.31
-25.176001 -14.31 0.648 0.23999999
-25.038 -14.337 0.64700001 0.30000001
-24.794001 -14.3 0.64300001 0.31
-24.735001 -14.37 0.64300001 0.34999999
-24.723 -14.467 0.64300001 0.2
-24.577 -14.486 0.64200002 0.30000001
-24.476999 -14.479 0.63999999 0.20999999
-23.735001 -14.142 0.62800002 0.25999999
-23.565001 -14.141 0.62599999 0.2
-23.309999 -14.088 0.62199998 0.34
-23.188999 -14.114 0.62099999 0.25999999
-22.844 -14.004 0.61500001 0.31
-22.917 -14.148 0.61699998 0.20999999
-22.922001 -14.2 0.61799997 0.30000001
-22.849001 -14.254 0.61699998 0.18000001
-22.639999 -14.223 0.61400002 0.51999998
-22.833 -14.445 0.61900002 0.22
-22.671 -14.442 0.61699998 0.28999999
-22.697001 -14.559 0.61799997 0.31
-22.625 -14.614 0.61699998 0.15000001
-22.122 -14.339 0.60900003 0.34999999
-22.416 -14.629 0.61500001 0.38999999
-22.448 -14.75 0.616 0.28999999
-22.202999 -14.69 0.61299998 0.17
-22.238001 -14.814 0.61400002 0.36000001
-22.107 -14.827 0.61299998 0.2
-21.767 -14.698 0.60699999 0.16
-21.457001 -14.539 0.602 0.31999999
-21.410999 -14.606 0.602 0.16
-20.488001 -14.072 0.58600003 0.31
-20.559999 -14.217 0.588 0.31
-20.576 -14.324 0.58899999 0.34
-20.412001 -14.304 0.58700001 0.28999999
-20.500999 -14.463 0.58899999 0.22
-20.330999 -14.391 0.58700001 0.31
-20.079 -14.308 0.583 0.34
-19.983 -14.335 0.58200002 0.31
-19.844999 -14.331 0.57999998 0.28999999
-19.035999 -13.839 0.56599998 0.2
-19.506001 -14.274 0.57499999 0.28999999
-19.523001 -14.38 0.57700002 0.34
-19.558001 -14.501 0.57800001 0.25999999
-19.518999 -14.519 0.57800001 0.33000001
-18.712 -14.012 0.56300002 0.27000001
-19.208 -14.477 0.574 0.18000001
-18.742001 -14.219 0.56599998 0.34999999
-18.764999 -14.33 0.56699997 0.41
-18.603001 -14.299 0.565 0.25
-18.871 -14.599 0.57099998 0.28
-18.931 -14.692 0.57200003 0.31999999
-18.872 -14.742 0.57200003 0.27000001
-18.125 -14.252 0.55800003 0.13
-18.336 -14.51 0.56300002 0.44999999
-18.386999 -14.645 0.565 0.28
-17.903 -14.352 0.55699998 0.22
-17.929001 -14.466 0.55800003 0.34999999
-18.037001 -14.599 0.56099999 0.18000001
-17.799999 -14.501 0.55699998 0.40000001
-17.778999 -14.577 0.55699998 0.23
-17.736 -14.635 0.55800003 0.40000001
-16.681999 -13.855 0.53799999 0.22
-17.412001 -14.553 0.55299997 0.34
-17.278999 -14.534 0.551 0.25999999
-17.35 -14.64 0.55299997 0.31
-16.313 -13.856 0.53299999 0.19
-16.184 -13.834 0.53200001 0.38
-15.857 -13.641 0.52600002 0.2
-16.712999 -14.467 0.54400003 0.23
-15.955 -13.901 0.52999997 0.40000001
-15.991 -14.021 0.53100002 0.31
-16.055 -14.121 0.53299999 0.30000001
-15.873 -14.049 0.52999997 0.38999999
-16.278 -14.499 0.53899997 0.25
-15.76 -14.128 0.52999997 0.31999999
-15.057 -13.584 0.51599997 0.33000001
-15.41 -13.99 0.52399999 0.27000001
-15.529 -14.187 0.528 0.36000001
-14.754 -13.523 0.51200002 0.20999999
-14.989 -13.825 0.51800001 0.34999999
-15 -13.922 0.51899999 0.23999999
-14.87 -13.889 0.51700002 0.36000001
-14.817 -13.927 0.51700002 0.40000001
-14.701 -13.905 0.51599997 0.30000001
-14.659 -13.953 0.51599997 0.38999999
-14.68 -14.017 0.51599997 0.33000001
-14.685 -14.11 0.51800001 0.37
-14.186 -13.718 0.50800002 0.20999999
-14.345 -13.958 0.51200002 0.30000001
-14.2 -13.904 0.50999999 0.27000001
-14.157 -13.95 0.50999999 0.50999999
-14.135 -14.016 0.51099998 0.28
-13.755 -13.726 0.50300002 0.27000001
-13.768 -13.783 0.50400001 0.41999999
-13.333 -13.432 0.49599999 0.25
-13.659 -13.846 0.50400001 0.41
-13.601 -13.875 0.50300002 0.25999999
-13.59 -13.95 0.50400001 0.38
-13.536 -13.983 0.50400001 0.31
-13.449 -13.981 0.50300002 0.38999999
-13.236 -13.803 0.49900001 0.22
-13.378 -14.038 0.50300002 0.28999999
-13.418 -14.169 0.505 0.31
-13.377 -14.215 0.505 0.5
-12.908 -13.805 0.495 0.23
-13.278 -14.288 0.50400001 0.30000001
-13.313 -14.417 0.50599998 0.34
-13.213 -14.354 0.50400001 0.38
-13.233 -14.466 0.50599998 0.38
-13.241 -14.567 0.50700003 0.27000001
-13.081 -14.482 0.505 0.40000001
-13.065 -14.556 0.505 0.30000001
-13.075 -14.659 0.50700003 0.43000001
-12.988 -14.654 0.50599998 0.34
-12.749 -14.431 0.50099999 0.27000001
-12.644 -14.403 0.49900001 0.43000001
-12.662 -14.515 0.50099999 0.25
-12.486 -14.405 0.498 0.40000001
-12.539 -14.558 0.5 0.23
-12.469 -14.568 0.49900001 0.37
-12.459 -14.65 0.5 0.34
-12.287 -14.494 0.49700001 0.33000001
-12.445 -14.774 0.50199997 0.31
-12.475 -14.904 0.50300002 0.43000001
-12.521 -15.055 0.50599998 0.34
-12.332 -14.923 0.50199997 0.34
-12.538 -15.269 0.50800002 0.34
-12.539 -15.367 0.509 0.17
-12.077 -14.851 0.49900001 0.5
-12.009 -14.862 0.498 0.25
-11.861 -14.774 0.49599999 0.22
-11.81 -14.806 0.49599999 0.44
-10.985 -13.863 0.477 0.27000001
-11.501 -14.607 0.491 0.31999999
-10.925 -14.012 0.47799999 0.54000002
-11.53 -14.882 0.49399999 0.19
-10.837 -14.08 0.47799999 0.31
-10.841 -14.178 0.479 0.44
-10.847 -14.279 0.47999999 0.2
-10.864 -14.394 0.48199999 0.52999997
-10.75 -14.337 0.47999999 0.20999999
-10.701 -14.319 0.47999999 0.2
-10.741 -14.466 0.48199999 0.41
-10.577 -14.339 0.479 0.37
-10.189 -13.906 0.47 0.28999999
-10.267 -14.105 0.47299999 0.15000001
-10.48 -14.491 0.47999999 0.43000001
-10.493 -14.605 0.48100001 0.28
-10.346 -14.45 0.47799999 0.31
-10.568 -14.856 0.48500001 0.18000001
-10.368 -14.674 0.48100001 0.38
-10.372 -14.777 0.48199999 0.38
-10.553 -15.136 0.48800001 0.25999999
-9.3280001 -13.474 0.45699999 0.25
-10.181 -14.8 0.48100001 0.28
-9.7040005 -14.157 0.46900001 0.31999999
-9.6850004 -14.224 0.46900001 0.36000001
-10.115 -14.954 0.48199999 0.2
-9.9759998 -14.85 0.47999999 0.38999999
-9.8339996 -14.738 0.477 0.14
-9.2049999 -13.893 0.461 0.30000001
-9.1420002 -13.892 0.461 0.34999999
-9.191 -14.063 0.463 0.33000001
-9.0979996 -13.968 0.461 0.28
-9.0539999 -13.997 0.461 0.34999999
-9.007 -14.02 0.461 0.28999999
-8.8649998 -13.895 0.458 0.37
-8.7250004 -13.773 0.456 0.25999999
-8.6929998 -13.817 0.456 0.40000001
-8.6619997 -13.864 0.456 0.38999999
-8.5889997 -13.797 0.45500001 0.27000001
-8.5459995 -13.823 0.45500001 0.34
-8.5120001 -13.866 0.45500001 0.36000001
-8.408 -13.793 0.45300001 0.37
-8.3570004 -13.808 0.45300001 0.38
-8.3260002 -13.854 0.454 0.30000001
-8.2580004 -13.839 0.45300001 0.36000001
-8.1870003 -13.77 0.45100001 0.38999999
-8.1590004 -13.821 0.45199999 0.34999999
-8.0410004 -13.719 0.44999999 0.33000001
-8.0120001 -13.77 0.44999999 0.41
-7.9829998 -13.82 0.44999999 0.25999999
-7.9780002 -13.911 0.45199999 0.44
-7.9450002 -13.955 0.45199999 0.36000001
-7.7160001 -13.604 0.44600001 0.28999999
-7.875 -13.985 0.45199999 0.27000001
-7.6240001 -13.64 0.44499999 0.40000001
-7.6329999 -13.758 0.447 0.25999999
-7.559 -13.726 0.44600001 0.34
-7.5089998 -13.738 0.44600001 0.40000001
-7.4640002 -13.758 0.44600001 0.30000001
-7.4720001 -13.824 0.447 0.38999999
-7.5110002 -14 0.449 0.25
-7.2579999 -13.632 0.44299999 0.31999999
-7.2010002 -13.629 0.442 0.30000001
-7.1479998 -13.632 0.442 0.34
-7.1739998 -13.787 0.44400001 0.36000001
-7.1160002 -13.781 0.44400001 0.38999999
-7.1399999 -13.881 0.44499999 0.25999999
-7.1079998 -13.925 0.44600001 0.5
-7.0359998 -13.892 0.44499999 0.25999999
-6.994 -13.917 0.44499999 0.31999999
-6.9429998 -13.925 0.44400001 0.30000001
-6.8829999 -13.914 0.44400001 0.38
-6.8210001 -13.898 0.44299999 0.33000001
-6.8249998 -13.961 0.44400001 0.33000001
-6.7509999 -13.921 0.44299999 0.34
-6.822 -14.18 0.447 0.28
-6.7519999 -14.147 0.44600001 0.46000001
-6.6960001 -14.145 0.44600001 0.25
-6.5650001 -13.983 0.44299999 0.34999999
-6.448 -13.846 0.44 0.34
-6.4439998 -13.895 0.44100001 0.37
-6.4120002 -13.94 0.44100001 0.34
-6.415 -14.062 0.44299999 0.25
-6.336 -14.007 0.442 0.27000001
-6.329 -14.108 0.44299999 0.51999998
-6.5819998 -14.794 0.454 0.14
-6.171 -13.992 0.44 0.41
-6.1020002 -13.895 0.43900001 0.28999999
-6.098 -14.004 0.44 0.41
-6.027 -13.961 0.43900001 0.27000001
-6 -14.02 0.44 0.34
-5.954 -14.033 0.44 0.31
-5.9580002 -14.166 0.44100001 0.38
-5.9159999 -14.19 0.442 0.30000001
-5.8860002 -14.181 0.44100001 0.28999999
-5.934 -14.425 0.44499999 0.36000001
-6.2379999 -15.433 0.461 0.27000001
-6.0500002 -15.106 0.45500001 0.47999999
-6.0479999 -15.24 0.45699999 0.27000001
-5.7309999 -14.578 0.44600001 0.33000001
-5.8039999 -14.831 0.44999999 0.25999999
-5.677 -14.642 0.447 0.40000001
-5.7529998 -14.977 0.45199999 0.38
-10.849 -28.443001 0.671 0.16
-5.6329999 -14.944 0.45100001 0.38
-6.4650002 -17.469999 0.491 0.50999999
-10.484 -28.422001 0.66900003 0.19
-10.389 -28.438 0.66799998 0.25
-10.281 -28.42 0.667 0.18000001
-10.181 -28.424 0.667 0.16
-10.088 -28.444 0.667 0.46000001
-9.9809999 -28.424999 0.66600001 0.25
-9.8830004 -28.431999 0.66600001 0.28
-9.7840004 -28.434 0.66500002 0.23999999
-9.7220001 -28.4 0.66399997 0.17
-9.6280003 -28.416 0.66399997 0.41999999
-9.526 -28.41 0.66399997 0.23999999
-9.4280005 -28.413 0.66299999 0.27000001
-9.3210001 -28.386999 0.662 0.19
-9.2329998 -28.42 0.662 0.41
-9.1260004 -28.393999 0.66100001 0.23999999
-9.0740004 -28.386999 0.66100001 0.27000001
-8.9720001 -28.375999 0.66000003 0.19
-8.8800001 -28.393999 0.66000003 0.41
-8.7799997 -28.386 0.66000003 0.22
-4.441 -14.564 0.43900001 0.23999999
-4.415 -14.643 0.44 0.34
-4.632 -15.532 0.454 0.31999999
-4.224 -14.42 0.43599999 0.18000001
-4.402 -15.199 0.44800001 0.14
-4.1859999 -14.629 0.43900001 0
-4.125 -14.59 0.43799999 0.11
-12.66 -45.113998 0.921 0.12
-4.0279999 -14.596 0.43799999 0.23
-3.993 -14.556 0.43700001 0.31999999
-3.9400001 -14.544 0.43700001 0.37
-3.902 -14.583 0.43700001 0.41
-3.895 -14.742 0.44 0.36000001
-3.823 -14.658 0.43799999 0.23999999
-3.7909999 -14.722 0.43900001 0.15000001
-3.74 -14.716 0.43900001 0.49000001
-3.645 -14.439 0.43399999 0.28999999
-3.618 -14.524 0.435 0.30000001
-3.5409999 -14.411 0.433 0.44
-3.51 -14.479 0.43399999 0.18000001
-3.4590001 -14.466 0.43399999 0.44
-3.599 -15.257 0.44600001 0.34999999
-3.319 -14.279 0.43099999 0.27000001
-3.342 -14.481 0.43399999 0.28
-3.381 -14.86 0.44 0.55000001
-3.3269999 -14.838 0.43900001 0.18000001
-3.2509999 -14.713 0.43700001 0.27000001
-3.164 -14.542 0.43399999 0.51999998
-3.1040001 -14.483 0.433 0.20999999
-3.023 -14.329 0.43000001 0.19
-3.0680001 -14.65 0.435 0.25999999
-2.891 -14.029 0.426 0.44999999
-2.832 -13.966 0.42399999 0.33000001
-2.7820001 -13.945 0.42399999 0.31
-2.7539999 -14.034 0.42500001 0.38999999
-2.711 -14.047 0.42500001 0.30000001
-2.654 -13.989 0.42399999 0.36000001
-2.6400001 -14.036 0.42500001 0.34
-2.5940001 -14.032 0.42500001 0.28
-2.55 -14.042 0.42500001 0.51999998
-2.539 -14.231 0.428 0.22
-2.4849999 -14.188 0.42699999 0.25999999
-2.4289999 -14.131 0.426 0.36000001
-2.3800001 -14.113 0.42500001 0.40000001
-2.3380001 -13.996 0.42399999 0.28
-2.316 -14.138 0.426 0.41
-2.2809999 -14.206 0.42699999 0.31
-2.2060001 -14.022 0.42399999 0.28999999
-2.1670001 -14.06 0.42399999 0.36000001
-2.1340001 -14.138 0.42500001 0.44999999
-2.0869999 -14.129 0.42500001 0.31999999
-2.0699999 -14.164 0.42500001 0.40000001
-2.046 -14.313 0.428 0.25
-2.0050001 -14.347 0.428 0.40000001
-1.9809999 -14.505 0.43000001 0.31999999
-1.944 -14.575 0.43099999 0.33000001
-1.872 -14.389 0.428 0.27000001
-1.821 -14.347 0.428 0.34
-1.831 -14.604 0.43200001 0.37
-1.832 -14.986 0.43700001 0.23999999
-1.869 -15.691 0.44800001 0.28
-1.827 -15.756 0.449 0.38999999
-1.788 -15.857 0.44999999 0.28999999
-1.607 -14.678 0.43200001 0.41
-1.653 -15.544 0.44499999 0.28
-1.614 -15.406 0.44299999 0.27000001
-1.575 -15.5 0.44499999 0.44
-1.4529999 -14.771 0.433 0.30000001
-1.406 -14.777 0.43399999 0.28
-1.485 -16.120001 0.454 0.34
-1.429 -16.058001 0.45300001 0.27000001
-1.368 -15.949 0.45100001 0
-1.357 -16.111 0.454 0.13
-3.931 -47.856998 0.93800002 0.18000001
-3.7780001 -47.831001 0.93800002 0.18000001
-3.6240001 -47.799 0.93699998 0
-3.25 -44.749001 0.88999999 0
-3.319 -47.755001 0.93599999 0.12
-1.001 -15.722 0.447 0.19
-1.728 -28.226 0.63800001 0.16
-1.638 -28.193001 0.63700002 0.22
-0.84299999 -15.553 0.44499999 0.31
-0.79299998 -15.538 0.44400001 0.31999999
-0.73799998 -15.414 0.442 0.22
-0.67299998 -15.053 0.43700001 0.28
-0.64899999 -15.062 0.43700001 0.38
-0.61000001 -15.25 0.44 0.23
-0.53299999 -14.5 0.428 0.28
-0.48699999 -14.482 0.428 0.36000001
-0.442 -14.507 0.428 0.49000001
-0.40200001 -14.705 0.43099999 0.28999999
-0.66600001 -28.379 0.63999999 0.57999998
-0.574 -28.240999 0.63700002 0.14
-0.26300001 -15.942 0.44999999 0.34
-0.20900001 -15.739 0.447 0.23
-0.16 -15.717 0.447 0.43000001
-0.11 -15.696 0.44600001 0.20999999
-0.059999999 -15.58 0.44499999 0.37
-0.012 -15.882 0.449 0.28999999
0.013 -15.97 0.45100001 0.37
0.061999999 -15.696 0.44600001 0.38
0.107 -14.762 0.43200001 0.12
0.149 -14.245 0.42399999 0.38999999
0.193 -14.183 0.42300001 0.23999999
0.236 -14.11 0.42199999 0.44
0.259 -14.132 0.42300001 0.28999999
0.30399999 -14.179 0.42300001 0.28999999
0.38499999 -15.801 0.44800001 0.23999999
0.426 -15.446 0.44299999 0.31999999
0.472 -15.375 0.442 0.28999999
0.52100003 -15.383 0.442 0.40000001
0.57200003 -15.447 0.44299999 0.33000001
0.597 -15.472 0.44299999 0.25
0.64899999 -15.556 0.44499999 0.36000001
0.69700003 -15.544 0.44400001 0.15000001
0.736 -15.324 0.44100001 0.51999998
0.78600001 -15.352 0.442 0.18000001
1.5140001 -28.26 0.63800001 0.34999999
1.604 -28.278999 0.639 0.44
1.648 -28.27 0.63800001 0.28999999
1.737 -28.275 0.639 0.17
1.087 -16.658001 0.46200001 0.38999999
1.049 -15.312 0.44100001 0.19
1.102 -15.381 0.442 0.16
1.147 -15.329 0.442 0.2
1.125 -14.406 0.428 0.57999998
1.1720001 -14.417 0.428 0.20999999
1.256 -15.176 0.43900001 0.22
1.3329999 -15.523 0.44499999 0.31
1.396 -15.678 0.447 0.30000001
1.4400001 -15.614 0.44600001 0.27000001
1.492 -15.643 0.447 0.34
1.566 -15.895 0.45100001 0.18000001
1.545 -15.18 0.44 0.57999998
1.587 -15.362 0.44299999 0.25
1.674 -15.723 0.44800001 0.22
1.707 -15.569 0.44600001 0.25999999
1.762 -15.613 0.447 0.38999999
3.263 -28.305 0.64099997 0.23999999
3.3499999 -28.283001 0.64099997 0.27000001
1.773 -14.665 0.43200001 0.30000001
1.811 -14.594 0.43099999 0.37
1.857 -14.588 0.43099999 0.34999999
2.076 -15.927 0.45199999 0.25
1.947 -14.564 0.43099999 0.2
1.9910001 -14.548 0.43099999 0.20999999
2.0209999 -14.425 0.42899999 0.43000001
2.0699999 -14.61 0.43200001 0.38
2.0480001 -14.126 0.42500001 0.19
2.085 -14.072 0.42399999 0.16
4.2589998 -28.309999 0.64300001 0.46000001
4.3449998 -28.277 0.64300001 0.16
4.4380002 -28.292 0.64300001 0.34
4.527 -28.280001 0.64300001 0.22
4.6170001 -28.274 0.64399999 0.31
4.6690001 -28.309999 0.64399999 0.44
2.7509999 -16.291 0.45899999 0.31
2.802 -16.283001 0.45899999 0.25999999
4.9400001 -28.290001 0.64499998 0.25999999
5.033 -28.299999 0.64499998 0.34
2.8610001 -15.732 0.45100001 0.28999999
2.9330001 -15.845 0.45300001 0.36000001
2.948 -15.789 0.45199999 0.28
5.3540001 -28.296 0.64600003 0.36000001
5.4429998 -28.278999 0.64600003 0.22
3.1210001 -15.888 0.454 0.41999999
3.2060001 -16.052999 0.45699999 0.30000001
3.2590001 -16.056 0.45699999 0.27000001
3.3 -16.000999 0.456 0.30000001
3.286 -15.804 0.45300001 0.31
3.3299999 -15.768 0.45300001 0.27000001
3.3900001 -15.806 0.454 0.44
3.4660001 -15.917 0.456 0.27000001
3.1789999 -14.371 0.43200001 0.28999999
3.2920001 -14.667 0.43599999 0.30000001
3.5 -15.37 0.44800001 0.2
3.2620001 -14.215 0.43000001 0.18000001
3.273 -14.056 0.42699999 0.18000001
3.414 -14.461 0.43399999 0.17
3.4260001 -14.312 0.43200001 0.23999999
3.4809999 -14.34 0.43200001 0.28
3.8729999 -15.749 0.454 0.13
3.5250001 -14.131 0.42899999 0.50999999
3.4909999 -13.902 0.426 0.22
3.6719999 -14.432 0.43399999 0.14
3.569 -13.841 0.42500001 0.41
3.7460001 -14.345 0.433 0.34999999
7.461 -28.309999 0.653 0.13
3.9319999 -14.685 0.43900001 0.15000001
4.1040001 -15.139 0.44600001 0.38999999
3.961 -14.515 0.43700001 0.18000001
4.2199998 -15.282 0.449 0.28999999
4.4520001 -15.93 0.45899999 0.14
4.4710002 -15.806 0.458 0.44
4.4349999 -15.492 0.45300001 0.18000001
4.2940001 -14.645 0.44 0.31999999
4.2030001 -14.249 0.43399999 0.2
4.4109998 -14.788 0.442 0.2
4.494 -14.895 0.44400001 0.14
4.467 -14.639 0.44100001 0.52999997
4.6680002 -15.128 0.449 0.28
4.6729999 -14.976 0.44600001 0.41
4.7600002 -15.089 0.44800001 0.2
4.842 -15.267 0.45100001 0.28999999
4.8189998 -15.03 0.44800001 0.25999999
4.7220001 -14.566 0.44100001 0.20999999
4.7150002 -14.391 0.43799999 0.13
4.7480001 -14.338 0.43700001 0.38
4.8130002 -14.384 0.43799999 0.18000001
4.8249998 -14.27 0.43700001 0.49000001
4.8309999 -14.213 0.43599999 0.14
4.7969999 -13.969 0.43200001 0.30000001
9.8070002 -28.35 0.66399997 0.12
4.961 -14.156 0.43599999 0.17
4.9790001 -14.067 0.435 0.50999999
5.7259998 -16.025999 0.46700001 0.22
5.2449999 -14.528 0.44299999 0.22
5.2690001 -14.524 0.44299999 0.38999999
5.322 -14.528 0.44299999 0.25
5.8590002 -15.845 0.465 0.20999999
5.9169998 -15.851 0.465 0.31
5.9569998 -15.806 0.465 0.36000001
5.3870001 -14.151 0.43799999 0.17
5.9380002 -15.459 0.46000001 0.31999999
5.8299999 -15.106 0.454 0.28
6.1890001 -15.743 0.465 0.57999998
11.227 -28.354 0.67199999 0.19
11.478 -28.462999 0.67500001 0.38999999
11.531 -28.337999 0.67299998 0.18000001
6.3010001 -15.384 0.461 0.16
6.3769999 -15.432 0.46200001 0.41
6.4120002 -15.379 0.461 0.34
6.473 -15.39 0.46200001 0.16
6.6209998 -15.605 0.46599999 0.43000001
6.3930001 -14.933 0.45500001 0.20999999
6.7210002 -15.569 0.46599999 0.20999999
6.6950002 -15.441 0.46399999 0.41
6.7639999 -15.467 0.465 0.18000001
6.8000002 -15.417 0.46399999 0.5
12.584 -28.341999 0.67900002 0.22
6.8790002 -15.334 0.463 0.30000001
6.7010002 -14.81 0.45500001 0.22
6.9970002 -15.337 0.46399999 0.34
6.9920001 -15.263 0.463 0.27000001
6.7979999 -14.716 0.454 0.13
6.8340001 -14.672 0.454 0.43000001
7.1589999 -15.247 0.46399999 0.23
6.803 -14.251 0.44800001 0.38999999
7.0120001 -14.573 0.454 0.14
6.9000001 -14.282 0.449 0.23
6.9429998 -14.255 0.449 0.41999999
7.0799999 -14.422 0.45199999 0.27000001
7.052 -14.253 0.44999999 0.18000001
7.1830001 -14.404 0.45300001 0.23999999
7.2010002 -14.326 0.45199999 0.22
7.2270002 -14.266 0.45100001 0.47
7.0840001 -13.928 0.44499999 0.23999999
7.0970001 -13.845 0.44400001 0.38999999
7.427 -14.269 0.45199999 0.57999998
7.757 -14.791 0.46200001 0.23
8.3360004 -15.779 0.479 0.28
7.3049998 -13.716 0.44400001 0.2
7.3330002 -13.717 0.44400001 0.20999999
7.4120002 -13.761 0.44499999 0.38999999
7.5879998 -13.984 0.44999999 0.19
7.717 -14.116 0.45199999 0
7.8569999 -14.265 0.45500001 0.12
7.8319998 -14.115 0.45300001 0.25
8.0539999 -14.41 0.45899999 0.18000001
8.0710001 -14.386 0.45899999 0.44999999
8.1630001 -14.445 0.46000001 0.16
8.1850004 -14.377 0.45899999 0.36000001
8.3389997 -14.542 0.463 0.25999999
8.283 -14.339 0.46000001 0.34
8.4759998 -14.568 0.46399999 0.22
8.6800003 -14.812 0.46900001 0.20999999
8.3669996 -14.174 0.458 0.19
8.5369997 -14.411 0.463 0.28999999
8.2869997 -13.887 0.454 0.43000001
8.802 -14.649 0.46799999 0.25
8.698 -14.27 0.46200001 0.5
9.0129995 -14.685 0.47 0.30000001
8.8050003 -14.294 0.463 0.34
8.684 -13.999 0.458 0.25999999
8.9329996 -14.301 0.46399999 0.38
8.9300003 -14.197 0.463 0.37
8.9139996 -14.072 0.461 0.30000001
