# .PCD v0.7 - Point Cloud Data file format
VERSION 0.7
FIELDS x y z intensity
SIZE 4 4 4 4
TYPE F F F F
COUNT 1 1 1 1
WIDTH 1421
HEIGHT 1
VIEWPOINT 0 0 0 1 0 0 0
POINTS 1421
DATA ascii
-0.081 5.7600002 -1.901 0.16
-0.090000004 5.7670002 -1.903 0.28999999
-0.108 5.7589998 -1.901 0.22
-0.126 5.7589998 -1.901 0.2
-0.14399999 5.7610002 -1.901 0.27000001
-0.162 5.7620001 -1.902 0.23999999
-0.18000001 5.763 -1.902 0.2
-0.19 5.7649999 -1.903 0.27000001
-0.208 5.7659998 -1.904 0.2
-0.226 5.7620001 -1.902 0.25
-0.244 5.7610002 -1.902 0.25
-0.26199999 5.7680001 -1.905 0.2
-0.28 5.7690001 -1.906 0.27000001
-0.29800001 5.7579999 -1.902 0.23
-0.30700001 5.7490001 -1.899 0.19
-0.32600001 5.7659998 -1.906 0.28
-0.34400001 5.7670002 -1.906 0.23999999
-0.361 5.757 -1.903 0.16
-0.38 5.756 -1.903 0.28
-0.398 5.7639999 -1.906 0.23999999
-0.41600001 5.7529998 -1.903 0.2
-0.42500001 5.756 -1.904 0.27000001
-0.44400001 5.7600002 -1.906 0.23
-0.461 5.7459998 -1.902 0.2
-0.47999999 5.756 -1.906 0.25999999
-0.498 5.756 -1.906 0.25
-0.51499999 5.7449999 -1.903 0.19
-0.53299999 5.7470002 -1.904 0.28
-0.54400003 5.7610002 -1.91 0.25
-0.56 5.7389998 -1.902 0.2
-0.579 5.743 -1.904 0.27000001
-0.597 5.7410002 -1.904 0.23
-0.61500001 5.743 -1.906 0.2
-0.63300002 5.7389998 -1.905 0.27000001
-0.65100002 5.7410002 -1.906 0.25
-0.66000003 5.7399998 -1.906 0.23999999
-0.67699999 5.723 -1.901 0.20999999
-0.699 5.7519999 -1.9119999 0.25999999
-0.71399999 5.7290001 -1.905 0.23
-0.73100001 5.723 -1.904 0.2
-0.75199997 5.7379999 -1.91 0.25
-0.76700002 5.7189999 -1.904 0.23
-0.77600002 5.7160001 -1.903 0.27000001
-0.796 5.7259998 -1.908 0.18000001
-0.81300002 5.7140002 -1.904 0.27000001
-0.82999998 5.7059999 -1.902 0.23
-0.85100001 5.7259998 -1.91 0.19
-0.86699998 5.71 -1.906 0.28
-0.884 5.704 -1.904 0.25
-0.89600003 5.7189999 -1.91 0.25
-0.90899998 5.6859999 -1.9 0.25999999
-0.92799997 5.691 -1.902 0.25999999
-0.94800001 5.7010002 -1.9069999 0.16
-0.96499997 5.6919999 -1.905 0.28
-0.98100001 5.6799998 -1.902 0.23999999
-1.002 5.6900001 -1.906 0.25999999
-1.0089999 5.677 -1.902 0.16
-1.027 5.678 -1.904 0.28999999
-1.045 5.6760001 -1.904 0.23
-1.061 5.6599998 -1.9 0.25999999
-1.08 5.6659999 -1.903 0.16
-1.102 5.6849999 -1.911 0.28999999
-1.115 5.6539998 -1.901 0.23999999
-1.124 5.6539998 -1.902 0.18000001
-1.146 5.6700001 -1.909 0.28
-1.161 5.6560001 -1.905 0.23999999
-1.179 5.6539998 -1.906 0.23999999
-1.194 5.6350002 -1.901 0.18000001
-1.215 5.6440001 -1.905 0.28999999
-1.2309999 5.6350002 -1.903 0.23999999
-1.242 5.6420002 -1.906 0.19
-1.258 5.631 -1.904 0.28
-1.274 5.6220002 -1.902 0.23999999
-1.294 5.6269999 -1.905 0.25
-1.312 5.6230001 -1.905 0.20999999
-1.329 5.6149998 -1.904 0.25999999
-1.345 5.605 -1.902 0.23
-1.353 5.599 -1.901 0.19
-1.373 5.6040001 -1.904 0.27000001
-1.388 5.5929999 -1.901 0.23
-1.411 5.6059999 -1.908 0.2
-1.425 5.5890002 -1.903 0.25
-1.441 5.5770001 -1.901 0.22
-1.4579999 5.573 -1.901 0.18000001
-1.4680001 5.5760002 -1.902 0.27000001
-1.485 5.5679998 -1.901 0.23999999
-1.502 5.5630002 -1.901 0.2
-1.521 5.5640001 -1.903 0.28
-1.538 5.5549998 -1.902 0.23
-1.559 5.5630002 -1.906 0.18000001
-1.575 5.553 -1.904 0.27000001
-1.581 5.5430002 -1.902 0.23999999
-1.598 5.5359998 -1.901 0.16
-1.617 5.5370002 -1.903 0.28999999
-1.635 5.533 -1.904 0.23
-1.655 5.5349998 -1.906 0.2
-1.67 5.5229998 -1.904 0.25
-1.686 5.5120001 -1.902 0.20999999
-1.6950001 5.513 -1.903 0.2
-1.712 5.506 -1.902 0.23999999
-1.725 5.4879999 -1.898 0.23999999
-1.743 5.4840002 -1.899 0.19
-1.7640001 5.4899998 -1.902 0.27000001
-1.779 5.4790001 -1.901 0.23
-1.799 5.48 -1.903 0.17
-1.807 5.4759998 -1.902 0.25999999
-1.8200001 5.4569998 -1.898 0.23
-1.841 5.4619999 -1.902 0.18000001
-1.8559999 5.4510002 -1.9 0.27000001
-1.872 5.4419999 -1.899 0.23999999
-1.892 5.4429998 -1.901 0.2
-1.908 5.4349999 -1.901 0.25
-1.914 5.4250002 -1.898 0.25
-1.934 5.4260001 -1.901 0.19
-1.949 5.4169998 -1.899 0.25999999
-1.961 5.3959999 -1.8940001 0.23
-1.983 5.402 -1.899 0.2
-2.0020001 5.4029999 -1.901 0.25
-2.013 5.3790002 -1.895 0.20999999
-2.0220001 5.3800001 -1.896 0.2
-2.0420001 5.3800001 -1.899 0.25
-2.0569999 5.369 -1.897 0.23999999
-2.0780001 5.3730001 -1.901 0.2
-2.092 5.3590002 -1.898 0.25
-2.109 5.3540001 -1.899 0.18000001
-2.1270001 5.349 -1.899 0.23999999
-2.1300001 5.3319998 -1.8940001 0.18000001
-2.1470001 5.3270001 -1.895 0.25
-2.168 5.3309999 -1.899 0.19
-2.1800001 5.3119998 -1.8940001 0.23999999
-2.1960001 5.3049998 -1.8940001 0.22
-2.2119999 5.2940001 -1.893 0.17
-2.221 5.2930002 -1.893 0.27000001
-2.237 5.2859998 -1.893 0.23
-2.2550001 5.2800002 -1.8940001 0.11
-2.2750001 5.2820001 -1.897 0.20999999
-2.2950001 5.2820001 -1.9 0.20999999
-2.306 5.2620001 -1.895 0.23999999
-2.319 5.2480001 -1.893 0.22
-2.339 5.2480001 -1.895 0.18000001
-2.349 5.2490001 -1.897 0.25999999
-2.365 5.2399998 -1.897 0.22
-2.3840001 5.2379999 -1.899 0.12
-2.392 5.211 -1.891 0.2
-2.4089999 5.2059999 -1.892 0.18000001
-2.434 5.217 -1.899 0.25999999
-2.4430001 5.1939998 -1.893 0.2
-2.45 5.1869998 -1.892 0.25
-2.4719999 5.191 -1.897 0.19
-2.483 5.1729999 -1.893 0.25
-2.497 5.1599998 -1.891 0.19
-2.517 5.1599998 -1.8940001 0.25
-2.529 5.1440001 -1.891 0.2
-2.5450001 5.1360002 -1.891 0.25
-2.5639999 5.152 -1.899 0.19
-2.569 5.1240001 -1.891 0.13
-2.585 5.1139998 -1.89 0.20999999
-2.6040001 5.1129999 -1.893 0.17
-2.6129999 5.0910001 -1.887 0.25999999
-2.628 5.0809999 -1.887 0.23
-2.6429999 5.0890002 -1.891 0.2
-2.6570001 5.0770001 -1.89 0.25
-2.671 5.0650001 -1.8890001 0.2
-2.6919999 5.0669999 -1.893 0.23999999
-2.6960001 5.0370002 -1.8839999 0.20999999
-2.7160001 5.0349998 -1.887 0.2
-2.7420001 5.046 -1.895 0.25
-2.7390001 5.0219998 -1.887 0.19
-2.7620001 5.0250001 -1.891 0.23
-2.776 5.013 -1.89 0.20999999
-2.789 5.0009999 -1.8890001 0.12
-2.7980001 4.9790001 -1.883 0.20999999
-2.822 4.9850001 -1.8890001 0.20999999
-2.8399999 4.9809999 -1.891 0.25
-2.8510001 4.9640002 -1.888 0.19
-2.862 4.9640002 -1.89 0.23
-2.875 4.9510002 -1.888 0.2
-2.8889999 4.9400001 -1.887 0.23999999
-2.911 4.9419999 -1.892 0.20999999
-2.918 4.9180002 -1.886 0.22
-2.9330001 4.908 -1.885 0.23
-2.9560001 4.9109998 -1.891 0.20999999
-2.957 4.895 -1.886 0.25
-2.967 4.8779998 -1.883 0.19
-2.9909999 4.8829999 -1.8890001 0.25
-3.003 4.8670001 -1.886 0.19
-3.016 4.855 -1.885 0.23999999
-3.027 4.8390002 -1.882 0.23
-3.036 4.836 -1.883 0.17
-3.056 4.8340001 -1.886 0.25999999
-3.073 4.8280001 -1.887 0.19
-3.0880001 4.8179998 -1.887 0.25
-3.099 4.802 -1.885 0.22
-3.112 4.789 -1.883 0.2
-3.132 4.7849998 -1.886 0.23999999
-3.142 4.7849998 -1.888 0.2
-3.1489999 4.763 -1.883 0.25
-3.1619999 4.75 -1.881 0.20999999
-3.174 4.737 -1.88 0.17
-3.1960001 4.7360001 -1.8839999 0.25999999
-3.2119999 4.7270002 -1.885 0.19
-3.2290001 4.7199998 -1.886 0.25
-3.233 4.711 -1.8839999 0.19
-3.247 4.6989999 -1.883 0.25
-3.263 4.6919999 -1.885 0.2
-3.277 4.6799998 -1.8839999 0.22
-3.2850001 4.6599998 -1.88 0.19
-3.3050001 4.658 -1.883 0.25
-3.3139999 4.6399999 -1.88 0.19
-3.3299999 4.631 -1.881 0.23999999
-3.3399999 4.6290002 -1.882 0.18000001
-3.3540001 4.618 -1.882 0.23999999
-3.3629999 4.5999999 -1.8789999 0.20999999
-3.381 4.5939999 -1.881 0.20999999
-3.3929999 4.5799999 -1.8789999 0.23999999
-3.408 4.5710001 -1.88 0.16
-3.4219999 4.5749998 -1.8839999 0.23
-3.4289999 4.553 -1.8789999 0.17
-3.4430001 4.5430002 -1.8789999 0.13
-3.464 4.5409999 -1.883 0.18000001
-3.47 4.5190001 -1.8789999 0.12
-3.4790001 4.5009999 -1.875 0.2
-3.4960001 4.4949999 -1.877 0.17
-3.506 4.4920001 -1.8789999 0.25999999
-3.52 4.4809999 -1.8789999 0.22
-3.5320001 4.467 -1.877 0.2
-3.546 4.4559999 -1.877 0.23999999
-3.5610001 4.4460001 -1.878 0.19
-3.576 4.4359999 -1.8789999 0.25
-3.5869999 4.4219999 -1.877 0.19
-3.5940001 4.4169998 -1.877 0.23
-3.609 4.4070001 -1.878 0.19
-3.6270001 4.4000001 -1.88 0.25
-3.642 4.3899999 -1.881 0.19
-3.652 4.3740001 -1.8789999 0.23
-3.661 4.3569999 -1.876 0.18000001
-3.678 4.3499999 -1.878 0.23
-3.6849999 4.3439999 -1.878 0.22
-3.7 4.3340001 -1.8789999 0.11
-3.7090001 4.316 -1.876 0.18000001
-3.7249999 4.3070002 -1.877 0.20999999
-3.7390001 4.2969999 -1.878 0.16
-3.7490001 4.2810001 -1.876 0.23
-3.7639999 4.2709999 -1.877 0.1
-3.7620001 4.2550001 -1.872 0.20999999
-3.7809999 4.25 -1.875 0.11
-3.7909999 4.2340002 -1.873 0.2
-3.8069999 4.2249999 -1.875 0.11
-3.8210001 4.2140002 -1.875 0.18000001
-3.836 4.204 -1.876 0.2
-3.8529999 4.1960001 -1.878 0.20999999
-3.855 4.1859999 -1.876 0.23
-3.8670001 4.1719999 -1.875 0.18000001
-3.8870001 4.1669998 -1.8789999 0.25
-3.891 4.145 -1.874 0.2
-3.908 4.1370001 -1.876 0.22
-3.938 4.1420002 -1.885 0.2
-3.928 4.1069999 -1.873 0.23
-3.938 4.1030002 -1.875 0.18000001
-3.954 4.0949998 -1.877 0.25
-3.9660001 4.0809999 -1.876 0.19
-3.973 4.0630002 -1.873 0.22
-3.997 4.0609999 -1.8789999 0.2
-3.9960001 4.0359998 -1.872 0.22
-4.0240002 4.0380001 -1.8789999 0.20999999
-4.0229998 4.0250001 -1.876 0.12
-4.0209999 3.997 -1.869 0.20999999
-4.0349998 3.9860001 -1.869 0.11
-4.0570002 3.983 -1.874 0.2
-4.0710001 3.971 -1.875 0.11
-4.0739999 3.9489999 -1.87 0.2
-4.0929999 3.9430001 -1.873 0.17
-4.098 3.9349999 -1.873 0.25999999
-4.1069999 3.9200001 -1.8710001 0.2
-4.1259999 3.9130001 -1.875 0.23999999
-4.1329999 3.895 -1.872 0.19
-4.138 3.8759999 -1.869 0.23
-4.171 3.882 -1.8789999 0.2
-4.1609998 3.848 -1.868 0.23
-4.1799998 3.8529999 -1.874 0.19
-4.1890001 3.8369999 -1.873 0.22
-4.1999998 3.823 -1.872 0.2
-4.21 3.809 -1.8710001 0.22
-4.2220001 3.7950001 -1.8710001 0.22
-4.2340002 3.7820001 -1.8710001 0.11
-4.2399998 3.7639999 -1.869 0.20999999
-4.2589998 3.7679999 -1.875 0.11
-4.2680001 3.7520001 -1.873 0.17
-4.2800002 3.7390001 -1.873 0.12
-4.2870002 3.7219999 -1.8710001 0.2
-4.29 3.701 -1.867 0.11
-4.302 3.687 -1.867 0.2
-4.3210001 3.6919999 -1.873 0.2
-4.3249998 3.6719999 -1.87 0.1
-4.348 3.668 -1.875 0.16
-4.3470001 3.6440001 -1.869 0.20999999
-4.3670001 3.6370001 -1.873 0.2
-4.369 3.6159999 -1.869 0.22
-4.3870001 3.6070001 -1.872 0.19
-4.3850002 3.5940001 -1.869 0.23999999
-4.395 3.579 -1.868 0.19
-4.4120002 3.5699999 -1.8710001 0.22
-4.4169998 3.552 -1.868 0.2
-4.4239998 3.5339999 -1.8660001 0.23
-4.4419999 3.526 -1.869 0.18000001
-4.4559999 3.5150001 -1.8710001 0.23
-4.4569998 3.4920001 -1.8660001 0.18000001
-4.4619999 3.4849999 -1.8660001 0.23999999
-4.487 3.4820001 -1.872 0.2
-4.487 3.46 -1.867 0.22
-4.506 3.451 -1.8710001 0.19
-4.5089998 3.431 -1.867 0.22
-4.5229998 3.4189999 -1.869 0.16
-4.5279999 3.4119999 -1.869 0.25
-4.546 3.404 -1.872 0.2
-4.5419998 3.378 -1.865 0.20999999
-4.5450001 3.358 -1.862 0.18000001
-4.5650001 3.3510001 -1.8660001 0.23
-4.573 3.335 -1.865 0.17
-4.585 3.322 -1.8660001 0.25
-4.5999999 3.3210001 -1.87 0.16
-4.6030002 3.3010001 -1.867 0.13
-4.6110001 3.286 -1.8660001 0.2
-4.6199999 3.27 -1.865 0.11
-4.6350002 3.2590001 -1.867 0.18000001
-4.651 3.2490001 -1.87 0.22
-4.6550002 3.23 -1.867 0.19
-4.6589999 3.221 -1.867 0.23
-4.671 3.2079999 -1.867 0.2
-4.6789999 3.1919999 -1.867 0.22
-4.6830001 3.1730001 -1.864 0.18000001
-4.691 3.1570001 -1.863 0.23999999
-4.704 3.145 -1.865 0.2
-4.7140002 3.1300001 -1.865 0.12
-4.717 3.1210001 -1.864 0.18000001
-4.724 3.105 -1.863 0.12
-4.737 3.092 -1.864 0.18000001
-4.7449999 3.076 -1.863 0.23
-4.7610002 3.0650001 -1.8660001 0.19
-4.7600002 3.043 -1.8609999 0.22
-4.7740002 3.0420001 -1.865 0.19
-4.7800002 3.0239999 -1.864 0.23999999
-4.7989998 3.0150001 -1.868 0.19
-4.7989998 2.994 -1.864 0.12
-4.8210001 2.987 -1.869 0.18000001
-4.8109999 2.96 -1.8609999 0.23
-4.829 2.95 -1.865 0.18000001
-4.8330002 2.9319999 -1.863 0.23
-4.8460002 2.9289999 -1.8660001 0.18000001
-4.8520002 2.9119999 -1.865 0.25
-4.8530002 2.892 -1.8609999 0.18000001
-4.862 2.8770001 -1.8609999 0.23999999
-4.881 2.8670001 -1.865 0.2
-4.888 2.8510001 -1.865 0.22
-4.9050002 2.8399999 -1.868 0.16
-4.8920002 2.822 -1.8609999 0.25
-4.8969998 2.8050001 -1.859 0.19
-4.9159999 2.7950001 -1.863 0.25
-4.928 2.7809999 -1.865 0.19
-4.9250002 2.76 -1.86 0.23999999
-4.9390001 2.747 -1.862 0.19
-4.947 2.7309999 -1.862 0.25
-4.9559999 2.7260001 -1.864 0.16
-4.9580002 2.707 -1.8609999 0.27000001
-4.9619999 2.6889999 -1.859 0.2
-4.9689999 2.6719999 -1.859 0.23
-4.9790001 2.6570001 -1.859 0.17
-4.994 2.645 -1.862 0.23
-5.0089998 2.6329999 -1.865 0.17
-4.9980001 2.6170001 -1.859 0.23999999
-5.0139999 2.6059999 -1.862 0.18000001
-5.0139999 2.586 -1.859 0.25
-5.027 2.573 -1.8609999 0.18000001
-5.039 2.559 -1.862 0.23999999
-5.0469999 2.543 -1.862 0.19
-5.0419998 2.5309999 -1.859 0.23
-5.0689998 2.5239999 -1.8660001 0.2
-5.0630002 2.5009999 -1.8609999 0.12
-5.059 2.48 -1.8559999 0.2
-5.079 2.47 -1.8609999 0.18000001
-5.073 2.447 -1.8559999 0.25999999
-5.0799999 2.431 -1.8559999 0.25
-5.1030002 2.4319999 -1.863 0.19
-5.0970001 2.4100001 -1.857 0.25999999
-5.1009998 2.392 -1.8559999 0.18000001
-5.1220002 2.382 -1.8609999 0.23999999
-5.1090002 2.3570001 -1.854 0.23
-5.118 2.3410001 -1.854 0.2
-5.1389999 2.332 -1.859 0.28
-5.1269999 2.3169999 -1.854 0.23
-5.131 2.299 -1.852 0.18000001
-5.151 2.2880001 -1.857 0.25999999
-5.151 2.2690001 -1.854 0.22
-5.1560001 2.2520001 -1.854 0.2
-5.1630001 2.2360001 -1.854 0.25
-5.1680002 2.2190001 -1.853 0.25
-5.165 2.2079999 -1.85 0.2
-5.191 2.1989999 -1.857 0.27000001
-5.1799998 2.1760001 -1.851 0.25
-5.1890001 2.1600001 -1.852 0.20999999
-5.21 2.1500001 -1.857 0.25999999
-5.2080002 2.1300001 -1.854 0.23999999
-5.1999998 2.108 -1.848 0.2
-5.2210002 2.1070001 -1.855 0.27000001
-5.2210002 2.0880001 -1.852 0.23
-5.2259998 2.0699999 -1.852 0.20999999
-5.244 2.059 -1.8559999 0.25999999
-5.2329998 2.0350001 -1.85 0
-5.243 2.02 -1.851 0
-5.2550001 2.006 -1.853 0
-5.2509999 1.995 -1.85 0
-5.257 1.978 -1.85 0
-5.27 1.965 -1.853 0
-5.2589998 1.942 -1.846 0
-5.27 1.927 -1.848 0
-5.3140001 1.924 -1.862 0
-5.414 1.455 -1.846 0
-5.4050002 1.444 -1.842 0
-5.415 1.428 -1.844 0
-5.3959999 1.405 -1.836 0
-5.4400001 1.398 -1.85 0
-5.428 1.377 -1.844 0
-5.4159999 1.3559999 -1.8380001 0
-5.4330001 1.351 -1.844 0
-5.4330001 1.3329999 -1.842 0
-5.4590001 1.321 -1.85 0
-5.48 1.308 -1.8559999 0
-5.4840002 1.291 -1.8559999 0
-5.4699998 1.2690001 -1.85 0
-5.5180001 1.262 -1.865 0
-5.5180001 1.253 -1.865 0
-5.5040002 1.2309999 -1.858 0
-5.5240002 1.2180001 -1.864 0
-5.5149999 1.198 -1.859 0
-5.4959998 1.176 -1.852 0
-5.5300002 1.165 -1.862 0
-5.5300002 1.146 -1.8609999 0
-5.52 1.135 -1.857 0
-6.0229998 0.50199997 -2 0
-4.7259998 0.38499999 -1.543 0
-4.7509999 0.35600001 -1.551 0
-4.7329998 0.34 -1.545 0
-4.7259998 0.33199999 -1.5420001 0
-4.743 0.30399999 -1.5470001 0
-4.723 0.28799999 -1.54 0
-4.724 0.273 -1.54 0
-4.717 0.257 -1.5369999 0
-4.7140002 0.242 -1.536 0
-4.7259998 0.236 -1.54 0
-4.7210002 0.22 -1.538 0
-4.6989999 0.205 -1.53 0
-4.6939998 0.19 -1.528 0
-4.717 0.176 -1.536 0
-5.4359999 -1.331 -1.8430001 0
-5.421 -1.345 -1.839 0
-5.4250002 -1.364 -1.842 0
-5.414 -1.3789999 -1.84 0
-5.382 -1.38 -1.829 0
-5.3759999 -1.397 -1.8279999 0
-5.3720002 -1.414 -1.8279999 0
-5.3670001 -1.4299999 -1.8279999 0
-5.3720002 -1.45 -1.832 0
-5.3579998 -1.464 -1.8279999 0
-5.3590002 -1.483 -1.83 0
-5.3439999 -1.487 -1.826 0
-5.3379998 -1.5039999 -1.825 0
-5.3270001 -1.5190001 -1.823 0
-5.3150001 -1.533 -1.8200001 0
-5.3179998 -1.552 -1.823 0
-5.3249998 -1.573 -1.8279999 0
-5.3130002 -1.587 -1.825 0
-5.2950001 -1.591 -1.819 0
-5.2839999 -1.6059999 -1.817 0
-5.2859998 -1.624 -1.8200001 0
-5.303 -1.648 -1.8279999 0
-5.2779999 -1.658 -1.8200001 0
-5.2670002 -1.673 -1.818 0
-5.2789998 -1.686 -1.824 0
-5.105 -2.1029999 -1.816 0.02
-5.0960002 -2.118 -1.816 0.13
-5.0910001 -2.135 -1.816 0.1
-5.0760002 -2.1470001 -1.813 0.20999999
-5.0500002 -2.155 -1.806 0.25999999
-5.0500002 -2.174 -1.809 0.25999999
-5.0469999 -2.191 -1.8099999 0.16
-5.0430002 -2.1989999 -1.8099999 0.28999999
-5.0409999 -2.217 -1.812 0.25
-5.0310001 -2.2320001 -1.811 0.28
-5.0240002 -2.247 -1.811 0.22
-5.0219998 -2.266 -1.812 0.25
-5.0100002 -2.279 -1.811 0.23999999
-4.9970002 -2.2920001 -1.809 0.20999999
-5.0019999 -2.3039999 -1.812 0.27000001
-4.9949999 -2.3199999 -1.812 0.23999999
-4.9829998 -2.3329999 -1.8099999 0.16
-4.98 -2.3510001 -1.812 0.28999999
-4.9749999 -2.368 -1.812 0.25
-4.9689999 -2.3840001 -1.813 0.25
-4.9549999 -2.3959999 -1.811 0.20999999
-4.954 -2.4059999 -1.812 0.28
-4.948 -2.4219999 -1.812 0.25
-4.9489999 -2.4419999 -1.816 0.23999999
-4.9260001 -2.45 -1.8099999 0.18000001
-4.914 -2.4630001 -1.808 0.28
-4.9190001 -2.4849999 -1.813 0.23999999
-4.9000001 -2.4849999 -1.807 0.25999999
-4.8959999 -2.5020001 -1.809 0.20999999
-4.888 -2.517 -1.809 0.27000001
-4.8800001 -2.533 -1.809 0.23999999
-4.8720002 -2.5480001 -1.809 0.27000001
-4.862 -2.563 -1.808 0.28
-4.8629999 -2.582 -1.811 0.2
-4.8509998 -2.596 -1.8099999 0.27000001
-4.8400002 -2.5999999 -1.807 0.25
-4.8390002 -2.619 -1.8099999 0.25999999
-4.842 -2.6400001 -1.814 0.25
-4.816 -2.645 -1.807 0.18000001
-4.8109999 -2.6619999 -1.809 0.28999999
-4.822 -2.688 -1.816 0.23
-4.803 -2.688 -1.811 0.16
-4.7909999 -2.701 -1.809 0.30000001
-4.7789998 -2.714 -1.808 0.25
-4.7740002 -2.7309999 -1.809 0.28
-4.7670002 -2.747 -1.8099999 0.27000001
-4.7540002 -2.7590001 -1.808 0.25999999
-4.7610002 -2.783 -1.814 0.25999999
-4.744 -2.783 -1.809 0.19
-4.7319999 -2.796 -1.808 0.28
-4.7280002 -2.8139999 -1.8099999 0.23
-4.7160001 -2.8269999 -1.809 0.27000001
-4.7049999 -2.8410001 -1.808 0.27000001
-4.6960001 -2.855 -1.808 0.27000001
-4.6810002 -2.8659999 -1.8049999 0.16
-4.6880002 -2.881 -1.8099999 0.28
-4.6750002 -2.8929999 -1.809 0.25
-4.6729999 -2.9119999 -1.811 0.25
-4.6550002 -2.9219999 -1.808 0.25999999
-4.645 -2.9349999 -1.807 0.17
-4.645 -2.9560001 -1.811 0.28
-4.6290002 -2.9660001 -1.809 0.25
-4.631 -2.9779999 -1.811 0.28999999
-4.6259999 -2.9949999 -1.813 0.25999999
-4.6170001 -3.01 -1.813 0.28
-4.612 -3.027 -1.8150001 0.17
-4.5949998 -3.0369999 -1.812 0.28
-4.5840001 -3.05 -1.811 0.25
-4.5869999 -3.063 -1.814 0.28
-4.5739999 -3.075 -1.813 0.28
-4.5630002 -3.0880001 -1.812 0.27000001
-4.5580001 -3.1059999 -1.814 0.28
-4.5419998 -3.1159999 -1.812 0.28999999
-4.5359998 -3.1329999 -1.814 0.25
-4.533 -3.152 -1.816 0.25999999
-4.5110002 -3.1470001 -1.809 0.27000001
-4.5120001 -3.1689999 -1.814 0.25
-4.5089998 -3.188 -1.817 0.28999999
-4.493 -3.198 -1.814 0.25999999
-4.4759998 -3.207 -1.811 0.19
-4.4809999 -3.2320001 -1.818 0.28
-4.4640002 -3.2409999 -1.8150001 0.25
-4.461 -3.2490001 -1.816 0.25999999
-4.4580002 -3.2690001 -1.819 0.28
-4.4359999 -3.2739999 -1.814 0.25999999
-4.4250002 -3.2880001 -1.814 0.28999999
-4.4439998 -3.323 -1.826 0.25999999
-4.421 -3.3280001 -1.821 0.28999999
-4.408 -3.3399999 -1.8200001 0.31
-4.4029999 -3.3469999 -1.8200001 0.28999999
-4.3979998 -3.365 -1.822 0.27000001
-4.3889999 -3.3800001 -1.823 0.31
-4.3800001 -3.395 -1.824 0.30000001
-4.3629999 -3.404 -1.821 0.31
-4.342 -3.4100001 -1.816 0.28
-4.342 -3.4319999 -1.821 0.30000001
-4.3270001 -3.431 -1.817 0.28999999
-4.3109999 -3.4400001 -1.814 0.28999999
-4.3070002 -3.46 -1.818 0.28999999
-4.2859998 -3.4649999 -1.813 0.25999999
-4.2740002 -3.477 -1.812 0.34999999
-4.2670002 -3.494 -1.814 0.34999999
-4.25 -3.503 -1.812 0.33000001
-4.2379999 -3.503 -1.809 0.22
-4.2340002 -3.523 -1.812 0.28999999
-4.2140002 -3.529 -1.808 0.41
-4.1869998 -3.5280001 -1.801 0.34
-4.1820002 -3.546 -1.803 0.34999999
-4.1589999 -3.55 -1.798 0.33000001
-4.1350002 -3.54 -1.789 0.28
-4.1170001 -3.5469999 -1.786 0.28999999
-4.098 -3.5539999 -1.783 0.31999999
-4.0770001 -3.5580001 -1.778 0.28999999
-4.039 -3.5469999 -1.766 0.25
-4.0229998 -3.5539999 -1.763 0.28999999
-4 -3.5569999 -1.758 0.31999999
-4.0029998 -3.5710001 -1.762 0.28999999
-3.9809999 -3.573 -1.756 0.30000001
-3.967 -3.5829999 -1.755 0.28999999
-3.9579999 -3.598 -1.756 0.27000001
-3.9430001 -3.6070001 -1.7539999 0.31
-3.9200001 -3.609 -1.749 0.28
-3.914 -3.6259999 -1.752 0.25999999
-3.898 -3.622 -1.7460001 0.33000001
-3.8859999 -3.6340001 -1.7460001 0.36000001
-3.8729999 -3.645 -1.7460001 0.30000001
-3.8559999 -3.652 -1.743 0.28999999
-3.8440001 -3.6630001 -1.742 0.30000001
-3.8210001 -3.664 -1.737 0.23
-3.8180001 -3.684 -1.7410001 0.28999999
-3.823 -3.701 -1.7460001 0.46000001
-3.803 -3.7049999 -1.742 0.27000001
-3.7969999 -3.7219999 -1.745 0.34
-3.786 -3.7349999 -1.7460001 0.28999999
-3.779 -3.7509999 -1.748 0.31999999
-3.766 -3.7620001 -1.747 0.28
-3.75 -3.77 -1.745 0.30000001
-3.7420001 -3.7739999 -1.744 0.28999999
-3.733 -3.789 -1.7460001 0.30000001
-3.717 -3.796 -1.744 0.31999999
-3.701 -3.8039999 -1.742 0.27000001
-3.6900001 -3.8150001 -1.742 0.30000001
-3.684 -3.8340001 -1.745 0.34999999
-3.6670001 -3.8399999 -1.742 0.31
-3.6570001 -3.8410001 -1.74 0.28999999
-3.6429999 -3.852 -1.74 0.27000001
-3.6329999 -3.8640001 -1.74 0.31
-3.6099999 -3.865 -1.735 0.30000001
-3.596 -3.8729999 -1.734 0.30000001
-3.5880001 -3.8900001 -1.7359999 0.33000001
-3.575 -3.9000001 -1.7359999 0.31
-3.5569999 -3.8929999 -1.73 0.28999999
-3.55 -3.9100001 -1.732 0.28999999
-3.539 -3.9219999 -1.733 0.30000001
-3.526 -3.9319999 -1.732 0.30000001
-3.5079999 -3.937 -1.73 0.30000001
-3.4909999 -3.9430001 -1.727 0.28999999
-3.4909999 -3.9549999 -1.73 0.31
-3.4809999 -3.9690001 -1.732 0.28999999
-3.461 -3.971 -1.728 0.27000001
-3.447 -3.9809999 -1.727 0.31
-3.438 -3.9960001 -1.729 0.38
-3.4170001 -3.997 -1.724 0.28
-3.404 -4.006 -1.724 0.28999999
-3.4030001 -4.0180001 -1.727 0.30000001
-3.388 -4.026 -1.726 0.30000001
-3.3699999 -4.0300002 -1.723 0.31999999
-3.362 -4.046 -1.725 0.31
-3.342 -4.0479999 -1.721 0.30000001
-3.335 -4.066 -1.724 0.31
-3.3199999 -4.073 -1.723 0.31999999
-3.3039999 -4.0669999 -1.7180001 0.25
-3.289 -4.0739999 -1.717 0.28999999
-3.2820001 -4.092 -1.72 0.37
-3.2690001 -4.1020002 -1.72 0.37
-3.257 -4.1139998 -1.721 0.34
-3.244 -4.1240001 -1.721 0.31
-3.2279999 -4.1300001 -1.719 0.27000001
-3.2260001 -4.1409998 -1.721 0.30000001
-3.204 -4.1389999 -1.716 0.28999999
-3.1919999 -4.1500001 -1.717 0.28999999
-3.181 -4.1630001 -1.7180001 0.30000001
-3.1689999 -4.1750002 -1.719 0.31999999
-3.154 -4.1820002 -1.717 0.31999999
-3.1389999 -4.1760001 -1.7130001 0.31
-3.1429999 -4.2090001 -1.723 0.31
-3.1210001 -4.2059999 -1.717 0.28999999
-3.105 -4.2129998 -1.716 0.31999999
-3.0929999 -4.224 -1.717 0.28
-3.0699999 -4.2199998 -1.711 0.30000001
-3.066 -4.2420001 -1.716 0.30000001
-3.0610001 -4.25 -1.717 0.31
-3.0369999 -4.244 -1.711 0.27000001
-3.023 -4.2540002 -1.711 0.31
-3.023 -4.2820001 -1.719 0.34
-2.9909999 -4.2649999 -1.707 0.25999999
-2.9749999 -4.27 -1.705 0.36000001
-2.973 -4.296 -1.7130001 0.34
-2.948 -4.2880001 -1.705 0.28999999
-2.944 -4.2979999 -1.707 0.31
-2.934 -4.3109999 -1.709 0.31
-2.9130001 -4.3099999 -1.705 0.30000001
-2.9030001 -4.3239999 -1.707 0.31
-2.8940001 -4.3410001 -1.71 0.31
-2.872 -4.3369999 -1.705 0.31999999
-2.8640001 -4.3400002 -1.704 0.31
-2.8559999 -4.3569999 -1.707 0.28999999
-2.8369999 -4.3579998 -1.704 0.30000001
-2.8280001 -4.375 -1.707 0.34
-2.8180001 -4.388 -1.709 0.28
-2.7939999 -4.381 -1.7029999 0.28999999
-2.779 -4.388 -1.702 0.31999999
-2.7739999 -4.3959999 -1.7029999 0.30000001
-2.7550001 -4.3969998 -1.7 0.30000001
-2.7420001 -4.4050002 -1.7 0.30000001
-2.7320001 -4.4200001 -1.7029999 0.30000001
-2.714 -4.4219999 -1.7 0.28999999
-2.6930001 -4.4200001 -1.6950001 0.28
-2.688 -4.4429998 -1.701 0.28999999
-2.671 -4.4310002 -1.6950001 0.38
-2.658 -4.441 -1.6950001 0.36000001
-2.6530001 -4.4640002 -1.701 0.31
-2.6300001 -4.4569998 -1.6950001 0.28999999
-2.615 -4.4640002 -1.6950001 0.30000001
-2.6070001 -4.4819999 -1.699 0.30000001
-2.5899999 -4.4850001 -1.697 0.30000001
-2.5840001 -4.4910002 -1.697 0.28999999
-2.572 -4.5019999 -1.699 0.30000001
-2.553 -4.5019999 -1.6950001 0.30000001
-2.536 -4.5050001 -1.693 0.30000001
-2.53 -4.5279999 -1.699 0.30000001
-2.5139999 -4.5320001 -1.698 0.31999999
-2.5 -4.5229998 -1.693 0.31
-2.487 -4.5339999 -1.694 0.28999999
-2.474 -4.5440001 -1.6950001 0.30000001
-2.4590001 -4.5500002 -1.694 0.33000001
-2.4460001 -4.5609999 -1.6950001 0.36000001
-2.4260001 -4.5570002 -1.691 0.28999999
-2.415 -4.5710001 -1.693 0.33000001
-2.4089999 -4.5770001 -1.694 0.27000001
-2.395 -4.586 -1.6950001 0.34999999
-2.3770001 -4.5869999 -1.692 0.28999999
-2.3640001 -4.5960002 -1.693 0.30000001
-2.348 -4.6009998 -1.692 0.31
-2.3329999 -4.6069999 -1.691 0.30000001
-2.3150001 -4.6079998 -1.689 0.31999999
-2.3110001 -4.618 -1.691 0.30000001
-2.293 -4.618 -1.689 0.30000001
-2.28 -4.6269999 -1.689 0.31999999
-2.266 -4.6360002 -1.6900001 0.28999999
-2.2460001 -4.631 -1.6849999 0.31999999
-2.2290001 -4.6329999 -1.683 0.25999999
-2.217 -4.6469998 -1.686 0.33000001
-2.211 -4.652 -1.687 0.30000001
-2.194 -4.6539998 -1.6849999 0.31
-2.178 -4.6589999 -1.684 0.31
-2.164 -4.6659999 -1.684 0.30000001
-2.1500001 -4.6750002 -1.6849999 0.30000001
-2.1340001 -4.6799998 -1.684 0.31999999
-2.115 -4.6760001 -1.6799999 0.27000001
-2.1029999 -4.6690001 -1.676 0.28999999
-2.0929999 -4.6859999 -1.6799999 0.36000001
-2.079 -4.6939998 -1.681 0.34
-2.0639999 -4.7010002 -1.681 0.31999999
-2.0439999 -4.6950002 -1.676 0.28999999
-2.0309999 -4.7049999 -1.678 0.33000001
-2.0250001 -4.711 -1.679 0.31999999
-2.0090001 -4.7140002 -1.678 0.31
-1.994 -4.7210002 -1.678 0.31999999
-1.978 -4.7249999 -1.677 0.31
-1.964 -4.7309999 -1.677 0.31999999
-1.95 -4.7410002 -1.678 0.33000001
-1.933 -4.7420001 -1.676 0.31999999
-1.928 -4.7519999 -1.679 0.31
-1.91 -4.7490001 -1.676 0.31
-1.895 -4.7550001 -1.676 0.31999999
-1.877 -4.7540002 -1.673 0.30000001
-1.865 -4.7649999 -1.675 0.31
-1.85 -4.7709999 -1.675 0.31
-1.8380001 -4.7859998 -1.678 0.34
-1.819 -4.7579999 -1.6670001 0.22
-1.806 -4.7690001 -1.669 0.30000001
-1.798 -4.7930002 -1.676 0.43000001
-1.778 -4.7859998 -1.671 0.31999999
-1.7640001 -4.7930002 -1.6720001 0.30000001
-1.752 -4.8080001 -1.675 0.30000001
-1.734 -4.8060002 -1.6720001 0.31999999
-1.728 -4.8119998 -1.674 0.33000001
-1.71 -4.8109999 -1.671 0.30000001
-1.694 -4.8140001 -1.67 0.28
-1.681 -4.823 -1.6720001 0.33000001
-1.666 -4.8299999 -1.6720001 0.31999999
-1.65 -4.8340001 -1.6720001 0.31999999
-1.631 -4.8260002 -1.6670001 0.28999999
-1.625 -4.8340001 -1.669 0.30000001
-1.609 -4.8369999 -1.668 0.34999999
-1.594 -4.842 -1.668 0.31999999
-1.58 -4.8509998 -1.67 0.30000001
-1.563 -4.8509998 -1.668 0.30000001
-1.548 -4.8569999 -1.668 0.31999999
-1.54 -4.8559999 -1.6670001 0.30000001
-1.523 -4.855 -1.665 0.20999999
-1.513 -4.8779998 -1.6720001 0.41999999
-1.4960001 -4.8790002 -1.67 0.31999999
-1.48 -4.8800001 -1.669 0.31999999
-1.462 -4.8740001 -1.665 0.28999999
-1.451 -4.895 -1.671 0.33000001
-1.441 -4.888 -1.668 0.31999999
-1.428 -4.902 -1.671 0.30000001
-1.408 -4.8899999 -1.665 0.30000001
-1.393 -4.8959999 -1.666 0.30000001
-1.383 -4.921 -1.673 0.31999999
-1.3609999 -4.8990002 -1.664 0.31999999
-1.347 -4.9109998 -1.666 0.30000001
-1.342 -4.9239998 -1.67 0.30000001
-1.321 -4.9060001 -1.6619999 0.31
-1.304 -4.9050002 -1.66 0.30000001
-1.2920001 -4.9219999 -1.665 0.28
-1.275 -4.9200001 -1.663 0.33000001
-1.258 -4.9169998 -1.66 0.30000001
-1.2460001 -4.934 -1.665 0.31
-1.235 -4.9229999 -1.66 0.27000001
-1.219 -4.9250002 -1.66 0.34
-1.209 -4.9510002 -1.668 0.36000001
-1.188 -4.9310002 -1.659 0.31999999
-1.173 -4.9400001 -1.661 0.30000001
-1.16 -4.9530001 -1.664 0.31
-1.149 -4.9419999 -1.66 0.31
-1.132 -4.9359999 -1.656 0.27000001
-1.1210001 -4.96 -1.664 0.33000001
-1.101 -4.947 -1.658 0.31999999
-1.086 -4.9499998 -1.658 0.31999999
-1.074 -4.9699998 -1.664 0.31
-1.054 -4.9510002 -1.656 0.28999999
-1.0470001 -4.9580002 -1.658 0.31
-1.034 -4.9770002 -1.663 0.30000001
-1.015 -4.961 -1.656 0.34
-0.99800003 -4.9549999 -1.653 0.28999999
-0.98500001 -4.9749999 -1.659 0.34999999
-0.96899998 -4.9720001 -1.6569999 0.31999999
-0.95099998 -4.9660001 -1.654 0.31999999
-0.94499999 -4.9770002 -1.6569999 0.31
-0.926 -4.9590001 -1.65 0.27000001
-0.912 -4.9699998 -1.652 0.38
-0.89999998 -4.993 -1.66 0.31
-0.88099998 -4.9809999 -1.654 0.31999999
-0.86400002 -4.9759998 -1.652 0.31999999
-0.85100001 -4.9920001 -1.656 0.30000001
-0.84200001 -4.9860001 -1.654 0.31
-0.82499999 -4.9829998 -1.652 0.33000001
-0.81099999 -4.9949999 -1.655 0.31999999
-0.79400003 -4.9860001 -1.651 0.31
-0.77899998 -4.9920001 -1.652 0.30000001
-0.76300001 -4.993 -1.652 0.28
-0.75400001 -4.9899998 -1.65 0.31
-0.73799998 -4.993 -1.65 0.31
-0.72399998 -5.0009999 -1.652 0.30000001
-0.70599997 -4.9899998 -1.648 0.30000001
-0.69199997 -5.0029998 -1.652 0.34
-0.67500001 -4.9980001 -1.649 0.28999999
-0.66000003 -5.007 -1.652 0.33000001
-0.65100002 -4.9990001 -1.648 0.30000001
-0.63599998 -5.0029998 -1.649 0.33000001
-0.62 -5.0009999 -1.648 0.37
-0.60399997 -5.0050001 -1.648 0.31
-0.58899999 -5.0110002 -1.65 0.31999999
-0.57200003 -5.0050001 -1.647 0.30000001
-0.55599999 -5.0009999 -1.645 0.28999999
-0.54900002 -5.0100002 -1.648 0.30000001
-0.53399998 -5.0190001 -1.65 0.31
-0.51700002 -5.0029998 -1.6440001 0.30000001
-0.50199997 -5.0139999 -1.648 0.30000001
-0.486 -5.0120001 -1.646 0.30000001
-0.47 -5.0180001 -1.648 0.30000001
-0.454 -5.0190001 -1.648 0.30000001
-0.44600001 -5.0139999 -1.646 0.31
-0.43000001 -5.0139999 -1.645 0.30000001
-0.41499999 -5.0279999 -1.65 0.30000001
-0.39899999 -5.02 -1.646 0.30000001
-0.384 -5.027 -1.648 0.28999999
-0.36700001 -5.013 -1.643 0.31999999
-0.352 -5.0219998 -1.646 0.31
-0.34299999 -5.0180001 -1.6440001 0.25999999
-0.32800001 -5.0250001 -1.646 0.34
-0.31200001 -5.0219998 -1.645 0.28999999
-0.296 -5.027 -1.646 0.28999999
-0.28099999 -5.026 -1.646 0.31
-0.264 -5.0209999 -1.6440001 0.28
-0.257 -5.027 -1.646 0.34
-0.241 -5.026 -1.645 0.31
-0.22499999 -5.033 -1.647 0.30000001
-0.20900001 -5.0240002 -1.6440001 0.30000001
-0.19400001 -5.0380001 -1.648 0.31999999
-0.178 -5.033 -1.646 0.30000001
-0.162 -5.0289998 -1.645 0.31
-0.154 -5.033 -1.646 0.31999999
-0.138 -5.0320001 -1.646 0.31999999
-0.122 -5.0300002 -1.645 0.30000001
-0.107 -5.0419998 -1.649 0.33000001
-0.090999998 -5.0370002 -1.647 0.28999999
-0.075000003 -5.0370002 -1.647 0.28999999
-0.059 -5.039 -1.648 0.30000001
-0.050999999 -5.0300002 -1.6440001 0.23
-0.035999998 -5.039 -1.648 0.41
-0.02 -5.0430002 -1.649 0.31999999
-0.0040000002 -5.0430002 -1.649 0.28999999
0.012 -5.0380001 -1.647 0.28999999
0.028000001 -5.0359998 -1.646 0.33000001
0.044 -5.0430002 -1.649 0.31
0.050999999 -5.0349998 -1.646 0.30000001
0.067000002 -5.0430002 -1.649 0.33000001
0.082999997 -5.0349998 -1.646 0.28999999
0.098999999 -5.0349998 -1.646 0.33000001
0.115 -5.04 -1.648 0.31999999
0.131 -5.0359998 -1.647 0.28999999
0.139 -5.0450001 -1.65 0.33000001
0.155 -5.0409999 -1.649 0.31
0.171 -5.046 -1.651 0.31
0.186 -5.0380001 -1.648 0.28999999
0.20200001 -5.0409999 -1.65 0.30000001
0.21799999 -5.0370002 -1.648 0.30000001
0.234 -5.0359998 -1.648 0.30000001
0.241 -5.0320001 -1.647 0.23999999
0.25799999 -5.0440001 -1.652 0.37
0.27399999 -5.0419998 -1.651 0.34999999
0.289 -5.039 -1.65 0.28999999
0.30500001 -5.04 -1.651 0.28999999
0.32100001 -5.0349998 -1.65 0.31999999
0.33700001 -5.0430002 -1.653 0.31
0.34400001 -5.0300002 -1.648 0.31
0.361 -5.0339999 -1.65 0.30000001
0.37799999 -5.0500002 -1.656 0.28999999
0.391 -5.0209999 -1.646 0.30000001
0.40700001 -5.0250001 -1.648 0.30000001
0.42500001 -5.0440001 -1.656 0.31
0.44 -5.0339999 -1.652 0.30000001
0.447 -5.0229998 -1.649 0.31
0.46399999 -5.0349998 -1.654 0.31
0.47799999 -5.0170002 -1.648 0.30000001
0.495 -5.0209999 -1.65 0.30000001
0.51200002 -5.0320001 -1.654 0.31
0.52700001 -5.027 -1.653 0.30000001
0.53399998 -5.0149999 -1.649 0.30000001
0.551 -5.026 -1.654 0.27000001
0.56599998 -5.013 -1.65 0.36000001
0.58099997 -5.006 -1.648 0.31
0.59899998 -5.0250001 -1.655 0.31999999
0.61400002 -5.0149999 -1.652 0.28999999
0.62800002 -5 -1.648 0.28999999
0.63800001 -5.0159998 -1.654 0.31
0.653 -5.0079999 -1.652 0.28999999
0.66799998 -5.0029998 -1.65 0.31
0.685 -5.0120001 -1.654 0.31
0.699 -4.9980001 -1.65 0.30000001
0.71499997 -4.9920001 -1.649 0.31999999
0.73299998 -5.0110002 -1.656 0.28999999
0.74000001 -4.9980001 -1.652 0.31999999
0.755 -4.9959998 -1.652 0.30000001
0.77200001 -5.0009999 -1.655 0.28999999
0.78500003 -4.9780002 -1.648 0.27000001
0.80000001 -4.9720001 -1.646 0.22
0.81900001 -4.9899998 -1.654 0.25
0.83099997 -4.967 -1.646 0.1
0.83899999 -4.967 -1.647 0.079999998
0.85500002 -4.9699998 -1.649 0
0.86799997 -4.9489999 -1.642 0
0.88200003 -4.9369998 -1.6390001 0
0.89999998 -4.9510002 -1.645 0
0.912 -4.928 -1.638 0
0.91900003 -4.9239998 -1.637 0
0.935 -4.9229999 -1.638 0
0.94599998 -4.9000001 -1.631 0
0.94199997 -4.8010001 -1.596 0
2.7709999 -4.2249999 -1.652 0.02
2.8110001 -4.257 -1.67 0.13
2.8180001 -4.2389998 -1.666 0.18000001
2.8310001 -4.2290001 -1.665 0.22
2.842 -4.217 -1.664 0.27000001
2.8610001 -4.217 -1.668 0.25
2.868 -4.1989999 -1.664 0.25
2.869 -4.1859999 -1.66 0.27000001
2.8900001 -4.1880002 -1.665 0.33000001
2.9089999 -4.1869998 -1.668 0.30000001
2.9230001 -4.1789999 -1.669 0.31
2.9349999 -4.1680002 -1.668 0.28999999
2.9489999 -4.1609998 -1.669 0.34999999
2.9560001 -4.1560001 -1.669 0.31999999
2.967 -4.1440001 -1.668 0.28999999
2.98 -4.1339998 -1.668 0.31
2.9949999 -4.1279998 -1.669 0.30000001
3.0109999 -4.1230001 -1.671 0.31999999
3.023 -4.112 -1.67 0.28
3.0369999 -4.1040001 -1.671 0.31
3.046 -4.1020002 -1.6720001 0.28999999
3.053 -4.085 -1.669 0.30000001
3.072 -4.085 -1.673 0.31999999
3.0799999 -4.0679998 -1.67 0.27000001
3.0929999 -4.059 -1.67 0.28999999
3.105 -4.0479999 -1.67 0.30000001
3.1110001 -4.0430002 -1.67 0.28999999
3.128 -4.0380001 -1.6720001 0.28999999
3.1429999 -4.0310001 -1.673 0.30000001
3.154 -4.02 -1.6720001 0.30000001
3.1630001 -4.0050001 -1.67 0.28999999
3.175 -3.994 -1.67 0.28999999
3.1930001 -3.9909999 -1.673 0.31999999
3.197 -3.983 -1.6720001 0.30000001
3.211 -3.9749999 -1.6720001 0.31
3.2179999 -3.9590001 -1.67 0.30000001
3.2409999 -3.9619999 -1.676 0.30000001
3.253 -3.95 -1.675 0.31
3.2579999 -3.931 -1.671 0.28
3.276 -3.928 -1.674 0.33000001
3.276 -3.9159999 -1.671 0.28999999
3.296 -3.914 -1.675 0.34
3.3069999 -3.902 -1.674 0.31999999
3.319 -3.892 -1.674 0.30000001
3.3340001 -3.8840001 -1.676 0.31999999
3.3510001 -3.8789999 -1.678 0.31999999
3.359 -3.865 -1.676 0.28999999
3.3670001 -3.8610001 -1.677 0.30000001
3.3840001 -3.8559999 -1.679 0.33000001
3.392 -3.8410001 -1.678 0.31
3.402 -3.8269999 -1.676 0.30000001
3.4189999 -3.822 -1.679 0.31
3.4330001 -3.8139999 -1.6799999 0.28999999
3.447 -3.8050001 -1.681 0.31
3.4489999 -3.7950001 -1.679 0.30000001
3.4630001 -3.7869999 -1.6799999 0.31999999
3.4749999 -3.776 -1.6799999 0.30000001
3.493 -3.7720001 -1.683 0.30000001
3.5 -3.756 -1.681 0.31999999
3.5090001 -3.7420001 -1.679 0.30000001
3.523 -3.7449999 -1.683 0.30000001
3.5350001 -3.734 -1.683 0.33000001
3.5450001 -3.721 -1.683 0.31
3.566 -3.72 -1.687 0.31999999
3.566 -3.6960001 -1.681 0.31999999
3.5769999 -3.6849999 -1.681 0.31
3.6010001 -3.6860001 -1.687 0.28
3.596 -3.6689999 -1.682 0.34
3.6140001 -3.665 -1.6849999 0.31
3.631 -3.6589999 -1.688 0.30000001
3.6440001 -3.6489999 -1.689 0.28999999
3.6459999 -3.628 -1.684 0.31
3.671 -3.6300001 -1.691 0.31
3.675 -3.6110001 -1.687 0.30000001
3.677 -3.602 -1.6849999 0.31
3.698 -3.599 -1.6900001 0.27000001
3.704 -3.582 -1.687 0.34
3.707 -3.563 -1.683 0.31
3.727 -3.5599999 -1.688 0.31
3.7290001 -3.54 -1.683 0.30000001
3.74 -3.5280001 -1.683 0.30000001
3.7590001 -3.5350001 -1.6900001 0.30000001
3.7609999 -3.5139999 -1.6849999 0.30000001
3.777 -3.507 -1.688 0.30000001
3.7909999 -3.4979999 -1.689 0.30000001
3.806 -3.49 -1.691 0.31999999
3.8139999 -3.4749999 -1.6900001 0.28999999
3.8280001 -3.477 -1.694 0.31
3.836 -3.4619999 -1.693 0.31
3.8399999 -3.444 -1.689 0.28
3.868 -3.447 -1.697 0.34
3.862 -3.4200001 -1.689 0.31999999
3.8870001 -3.4200001 -1.696 0.28999999
3.925 -3.431 -1.709 0.25999999
3.9330001 -3.428 -1.71 0.28999999
3.954 -3.424 -1.715 0.30000001
3.984 -3.4289999 -1.724 0.28999999
4.0019999 -3.4219999 -1.727 0.28
4.026 -3.421 -1.733 0.28999999
4.0479999 -3.418 -1.738 0.25999999
4.0840001 -3.425 -1.75 0.31999999
4.0879998 -3.418 -1.749 0.28
4.1129999 -3.4170001 -1.756 0.28999999
4.1300001 -3.4089999 -1.758 0.28999999
4.1609998 -3.4119999 -1.768 0.28999999
4.1849999 -3.4100001 -1.773 0.31999999
4.1849999 -3.388 -1.7690001 0.30000001
4.1929998 -3.3840001 -1.77 0.30000001
4.198 -3.3659999 -1.768 0.27000001
4.2150002 -3.358 -1.77 0.31
4.2119999 -3.3340001 -1.7640001 0.28
4.2160001 -3.316 -1.762 0.28999999
4.2329998 -3.3080001 -1.7640001 0.28999999
4.243 -3.2939999 -1.7640001 0.28999999
4.2480001 -3.2880001 -1.7640001 0.30000001
4.2509999 -3.2690001 -1.761 0.28999999
4.2550001 -3.2509999 -1.758 0.28
4.25 -3.2260001 -1.752 0.31999999
4.2480001 -3.2030001 -1.7460001 0.30000001
4.2459998 -3.181 -1.7410001 0.34
4.2579999 -3.1689999 -1.742 0.34999999
4.2579999 -3.1589999 -1.74 0.34
4.2509999 -3.1329999 -1.732 0.33000001
4.2639999 -3.122 -1.734 0.37
4.2719998 -3.108 -1.733 0.36000001
4.277 -3.0910001 -1.7309999 0.34999999
4.2930002 -3.082 -1.734 0.34999999
4.2940001 -3.062 -1.73 0.34
4.2940001 -3.052 -1.728 0.33000001
4.3080001 -3.0409999 -1.73 0.34
4.3189998 -3.029 -1.73 0.36000001
4.3260002 -3.013 -1.729 0.34999999
4.329 -2.9949999 -1.726 0.36000001
4.3400002 -2.983 -1.727 0.31999999
4.3379998 -2.9719999 -1.724 0.36000001
4.3509998 -2.96 -1.726 0.36000001
4.3520002 -2.941 -1.723 0.33000001
4.3600001 -2.927 -1.722 0.40000001
4.375 -2.9170001 -1.724 0.34999999
4.381 -2.901 -1.723 0.36000001
4.3870001 -2.885 -1.722 0.40000001
4.3930001 -2.8789999 -1.723 0.38999999
4.4070001 -2.869 -1.724 0.36000001
4.4050002 -2.848 -1.72 0.38
4.4190001 -2.8369999 -1.722 0.34
4.427 -2.823 -1.722 0.38999999
4.4320002 -2.806 -1.72 0.40000001
4.4450002 -2.7950001 -1.722 0.38999999
4.4460001 -2.786 -1.721 0.47
4.4489999 -2.7679999 -1.7180001 0.34999999
4.4590001 -2.7550001 -1.719 0.41
4.4640002 -2.7390001 -1.717 0.41999999
4.4809999 -2.73 -1.721 0.37
4.4829998 -2.7119999 -1.7180001 0.46000001
4.4850001 -2.694 -1.715 0.41
4.493 -2.6889999 -1.717 0.38
4.494 -2.671 -1.714 0.47
4.5 -2.655 -1.7130001 0.36000001
4.5209999 -2.648 -1.7180001 0.44999999
4.5209999 -2.6300001 -1.715 0.31999999
4.5469999 -2.6259999 -1.722 0.27000001
4.553 -2.619 -1.723 0.28
4.5599999 -2.6040001 -1.722 0.27000001
4.5689998 -2.5910001 -1.723 0.28999999
4.5640001 -2.569 -1.717 0.16
4.579 -2.5580001 -1.72 0.31
4.5799999 -2.54 -1.717 0.25
4.5879998 -2.526 -1.717 0.27000001
4.5960002 -2.5209999 -1.719 0.27000001
4.6149998 -2.5120001 -1.723 0.27000001
4.6209998 -2.497 -1.723 0.28999999
4.6230001 -2.4790001 -1.72 0.28999999
4.625 -2.4619999 -1.7180001 0.28999999
4.6300001 -2.4449999 -1.717 0.28
4.6360002 -2.4300001 -1.716 0.28999999
4.651 -2.4289999 -1.721 0.25
4.6570001 -2.4130001 -1.72 0.28
4.671 -2.402 -1.723 0.28999999
4.6700001 -2.3829999 -1.719 0.28999999
4.6760001 -2.368 -1.719 0.28
4.6890001 -2.355 -1.721 0.27000001
4.6960001 -2.3499999 -1.722 0.28999999
4.6900001 -2.3280001 -1.717 0.31999999
4.7069998 -2.3180001 -1.721 0.25999999
4.697 -2.2950001 -1.714 0.30000001
4.7150002 -2.286 -1.7180001 0.25999999
4.7319999 -2.276 -1.722 0.28999999
4.7150002 -2.2490001 -1.7130001 0.28999999
4.7220001 -2.244 -1.714 0.23999999
4.7529998 -2.24 -1.723 0.33000001
4.7470002 -2.2190001 -1.7180001 0.28999999
4.7449999 -2.2 -1.715 0.27000001
4.7670002 -2.1919999 -1.721 0.28999999
4.757 -2.1689999 -1.714 0.25999999
4.7589998 -2.152 -1.712 0.18000001
4.7719998 -2.1489999 -1.716 0.31999999
4.7789998 -2.1340001 -1.716 0.25
4.7750001 -2.115 -1.712 0.28999999
4.803 -2.109 -1.72 0.27000001
4.7989998 -2.089 -1.716 0.28999999
4.8049998 -2.0739999 -1.716 0.28
4.8189998 -2.062 -1.719 0.30000001
4.8049998 -2.0469999 -1.712 0.28999999
4.816 -2.0339999 -1.714 0.23999999
4.8299999 -2.0220001 -1.717 0.31999999
4.8130002 -1.997 -1.7079999 0.19
4.8340001 -1.988 -1.7130001 0.30000001
4.836 -1.971 -1.712 0.23
4.8439999 -1.957 -1.7130001 0.25
4.842 -1.947 -1.711 0.31999999
4.8569999 -1.9349999 -1.714 0.28
4.8649998 -1.921 -1.715 0.25999999
4.8639998 -1.903 -1.712 0.28
4.8709998 -1.888 -1.7130001 0.25
4.8530002 -1.863 -1.7029999 0.18000001
4.8709998 -1.862 -1.709 0.31
4.8769999 -1.846 -1.709 0.25
4.888 -1.8329999 -1.711 0.25
4.8829999 -1.814 -1.707 0.31
4.8940001 -1.8 -1.709 0.28999999
4.8969998 -1.784 -1.7079999 0.27000001
4.895 -1.766 -1.705 0.25999999
4.9050002 -1.76 -1.7079999 0.28
4.9070001 -1.744 -1.707 0.27000001
4.9099998 -1.728 -1.706 0.20999999
4.9320002 -1.7180001 -1.712 0.28
4.927 -1.699 -1.7079999 0.20999999
4.9439998 -1.687 -1.7130001 0.28
4.941 -1.669 -1.709 0.30000001
4.9359999 -1.659 -1.707 0.25999999
4.9400001 -1.643 -1.706 0.25999999
4.9450002 -1.627 -1.706 0.27000001
4.948 -1.6109999 -1.705 0.28
4.9619999 -1.598 -1.709 0.27000001
4.9650002 -1.582 -1.7079999 0.25
4.967 -1.5650001 -1.707 0.28999999
4.9689999 -1.558 -1.707 0.25999999
4.9590001 -1.538 -1.701 0.18000001
4.9840002 -1.528 -1.709 0.28999999
4.974 -1.508 -1.7029999 0.20999999
4.9770002 -1.492 -1.7029999 0.17
4.9860001 -1.477 -1.704 0.28999999
4.9829998 -1.46 -1.701 0.25
4.9780002 -1.45 -1.699 0.25999999
4.9860001 -1.4349999 -1.7 0.16
5.007 -1.424 -1.706 0.30000001
5.0009999 -1.405 -1.702 0.23999999
4.9920001 -1.386 -1.697 0.16
5.007 -1.373 -1.701 0.30000001
5.013 -1.3660001 -1.7029999 0.23
5.0159998 -1.35 -1.702 0.31
5.013 -1.332 -1.699 0.2
5.02 -1.318 -1.701 0.27000001
5.026 -1.302 -1.701 0.23999999
5.0209999 -1.284 -1.698 0.2
5.0359998 -1.271 -1.702 0.27000001
5.033 -1.262 -1.7 0.23999999
5.0279999 -1.244 -1.697 0.16
5.046 -1.232 -1.702 0.30000001
5.0500002 -1.216 -1.702 0.25
5.0450001 -1.198 -1.699 0.28
5.0560002 -1.184 -1.701 0.23
5.0370002 -1.171 -1.694 0.17
5.0609999 -1.16 -1.701 0.28999999
5.0570002 -1.142 -1.699 0.23
5.0609999 -1.126 -1.699 0.19
5.0650001 -1.11 -1.699 0.27000001
5.0619998 -1.0930001 -1.697 0.25
5.0749998 -1.079 -1.7 0.2
5.0689998 -1.0700001 -1.697 0.25
5.0760002 -1.0549999 -1.699 0.23999999
5.0799999 -1.039 -1.699 0.2
5.0869999 -1.023 -1.7 0.14
5.079 -1.005 -1.696 0.20999999
5.0739999 -0.98799998 -1.693 0.17
5.092 -0.97500002 -1.699 0.25999999
5.085 -0.96499997 -1.6950001 0.19
5.1009998 -0.95099998 -1.7 0.25
5.085 -0.93199998 -1.693 0.23
5.0900002 -0.91600001 -1.694 0.27000001
5.0960002 -0.90100002 -1.6950001 0.19
5.1009998 -0.88499999 -1.696 0.27000001
5.0939999 -0.86799997 -1.693 0.23999999
5.092 -0.85900003 -1.691 0.16
5.1079998 -0.84500003 -1.696 0.28999999
5.1090002 -0.829 -1.6950001 0.25
5.098 -0.81099999 -1.691 0.25
5.0949998 -0.79400003 -1.689 0.18000001
5.1139998 -0.77999997 -1.6950001 0.27000001
5.112 -0.77200001 -1.693 0.19
5.112 -0.75599998 -1.693 0.23
5.118 -0.74000001 -1.694 0.20999999
5.1149998 -0.72299999 -1.692 0.20999999
5.119 -0.70700002 -1.693 0.28
5.1199999 -0.69099998 -1.692 0.22
5.125 -0.67500001 -1.693 0.12
5.1100001 -0.66500002 -1.687 0.20999999
5.132 -0.65200001 -1.6950001 0.25999999
5.119 -0.634 -1.689 0.17
5.1230001 -0.61799997 -1.6900001 0.28999999
5.1339998 -0.60299999 -1.693 0.20999999
5.1269999 -0.58600003 -1.6900001 0.30000001
5.1209998 -0.56900001 -1.687 0.25999999
5.132 -0.56199998 -1.691 0.23
5.1329999 -0.546 -1.691 0.30000001
5.1329999 -0.52899998 -1.6900001 0.25
5.1220002 -0.51200002 -1.6849999 0.18000001
5.1360002 -0.49700001 -1.6900001 0.28999999
5.1300001 -0.47999999 -1.687 0.23999999
5.1259999 -0.46399999 -1.6849999 0.25999999
5.131 -0.456 -1.687 0.27000001
5.132 -0.44 -1.687 0.27000001
5.1370001 -0.42399999 -1.688 0.25999999
5.138 -0.40799999 -1.688 0.27000001
5.138 -0.39199999 -1.687 0.25999999
5.1300001 -0.375 -1.684 0.30000001
5.152 -0.36000001 -1.691 0.25
5.1459999 -0.352 -1.689 0.28999999
5.1339998 -0.33500001 -1.6849999 0.19
5.1409998 -0.31900001 -1.687 0.30000001
5.138 -0.30199999 -1.6849999 0.23999999
5.1389999 -0.28600001 -1.6849999 0.28
5.1529999 -0.271 -1.6900001 0.25999999
5.118 -0.26100001 -1.678 0.19
5.1430001 -0.24600001 -1.686 0.28
5.1420002 -0.23 -1.6849999 0.23999999
5.1430001 -0.214 -1.6849999 0.27000001
5.1430001 -0.197 -1.6849999 0.23
5.1420002 -0.18099999 -1.6849999 0.31
5.1430001 -0.16500001 -1.6849999 0.25999999
5.1560001 -0.15700001 -1.689 0.23999999
5.138 -0.141 -1.683 0.22
5.1490002 -0.125 -1.687 0.15000001
5.1440001 -0.108 -1.6849999 0.2
5.1389999 -0.092 -1.683 0.16
5.1539998 -0.075999998 -1.688 0.28999999
5.1339998 -0.059999999 -1.681 0.25
5.152 -0.052000001 -1.687 0.23999999
5.1360002 -0.035999998 -1.681 0.17
5.1469998 -0.02 -1.6849999 0.30000001
5.1469998 -0.003 -1.6849999 0.23
5.079 0.003 -1.7029999 0.18000001
5.0599999 0.018999999 -1.697 0.23
5.086 0.035 -1.706 0.17
5.066 0.050999999 -1.699 0.23999999
5.0819998 0.067000002 -1.705 0.16
5.0539999 0.082999997 -1.6950001 0.23
5.0710001 0.090999998 -1.701 0.19
5.0570002 0.107 -1.696 0.20999999
5.085 0.123 -1.706 0.16
5.0549998 0.139 -1.6950001 0.23999999
5.0710001 0.155 -1.701 0.16
5.0609999 0.171 -1.698 0.27000001
5.072 0.18700001 -1.702 0.16
5.0599999 0.19400001 -1.698 0.25
5.0780001 0.211 -1.705 0.19
5.0419998 0.22499999 -1.692 0.12
5.079 0.243 -1.705 0.18000001
5.0440001 0.257 -1.693 0.22
5.053 0.27399999 -1.697 0.16
5.0370002 0.289 -1.691 0.059999999
5.0419998 0.29699999 -1.693 0.17
5.039 0.31299999 -1.693 0.2
5.033 0.32800001 -1.691 0.1
5.052 0.345 -1.698 0.17
5.0489998 0.361 -1.697 0.11
5.0479999 0.377 -1.697 0.18000001
5.0359998 0.384 -1.693 0.12
5.0479999 0.40099999 -1.698 0.18000001
5.0279999 0.41499999 -1.691 0.12
5.0489998 0.433 -1.699 0.2
5.0229998 0.447 -1.691 0.11
5.0609999 0.46599999 -1.705 0.16
5.0320001 0.479 -1.6950001 0.20999999
5.0219998 0.486 -1.691 0.1
5.0370002 0.50400001 -1.697 0.18000001
5.0219998 0.51800001 -1.693 0.1
5.0409999 0.53600001 -1.7 0.18000001
5.013 0.54900002 -1.691 0.20999999
5.0359998 0.56699997 -1.699 0.19
5.0229998 0.58200002 -1.6950001 0.12
5.0089998 0.588 -1.691 0.19
5.0089998 0.60399997 -1.691 0.11
5.0120001 0.62099999 -1.693 0.19
5.0089998 0.63599998 -1.693 0.16
5.0029998 0.65200001 -1.691 0.25999999
5.0159998 0.66900003 -1.697 0.16
4.9790001 0.67199999 -1.684 0.050000001
5.0029998 0.69199997 -1.693 0.17
4.9949999 0.70700002 -1.691 0.11
4.9949999 0.72299999 -1.692 0.2
4.9850001 0.73699999 -1.689 0.11
4.9980001 0.755 -1.6950001 0.17
4.994 0.76999998 -1.694 0.12
5.0040002 0.77999997 -1.698 0.18000001
4.9749999 0.792 -1.688 0.12
4.9949999 0.81099999 -1.697 0.2
4.9770002 0.824 -1.691 0.11
4.9910002 0.84200001 -1.697 0.18000001
4.967 0.85399997 -1.689 0.12
4.9920001 0.875 -1.699 0.18000001
4.9699998 0.87900001 -1.692 0.12
4.9889998 0.89899999 -1.7 0.18000001
4.948 0.90700001 -1.686 0.12
4.9689999 0.92699999 -1.6950001 0.2
4.9640002 0.94199997 -1.694 0.2
4.9590001 0.958 -1.693 0.25
4.9510002 0.972 -1.691 0.16
4.9450002 0.97899997 -1.6900001 0.27000001
4.9590001 0.99800003 -1.696 0.17
4.9349999 1.01 -1.688 0.23
4.9559999 1.03 -1.697 0.20999999
4.9289999 1.041 -1.688 0.12
4.9219999 1.0549999 -1.687 0.20999999
4.9089999 1.069 -1.684 0.16
4.9299998 1.081 -1.692 0.25999999
4.9120002 1.094 -1.686 0.25
4.927 1.113 -1.693 0.20999999
4.914 1.126 -1.6900001 0.23999999
4.914 1.143 -1.691 0.17
4.8979998 1.155 -1.686 0.23999999
4.921 1.169 -1.696 0.22
4.8979998 1.1799999 -1.688 0.17
4.901 1.197 -1.691 0.25999999
4.9029999 1.2130001 -1.693 0.14
4.888 1.226 -1.689 0.27000001
4.8930001 1.244 -1.693 0.20999999
4.869 1.2539999 -1.6849999 0.12
4.8800001 1.265 -1.6900001 0.20999999
4.8889999 1.283 -1.6950001 0.20999999
4.8649998 1.294 -1.687 0.14
4.8569999 1.308 -1.686 0.2
4.8670001 1.327 -1.691 0.19
4.8429999 1.337 -1.684 0.31
4.8449998 1.354 -1.686 0.36000001
4.835 1.359 -1.683 0.33000001
4.8439999 1.378 -1.688 0.31999999
4.8520002 1.397 -1.693 0.33000001
4.8369999 1.409 -1.688 0.33000001
4.8270001 1.423 -1.686 0.34
4.822 1.438 -1.686 0.34
4.8270001 1.447 -1.689 0.41999999
4.8319998 1.465 -1.693 0.27000001
4.8249998 1.48 -1.692 0.18000001
4.8080001 1.4910001 -1.687 0.25999999
4.823 1.512 -1.6950001 0.18000001
4.8039999 1.523 -1.689 0.25
4.8060002 1.54 -1.692 0.19
4.7880001 1.543 -1.686 0.12
4.8150001 1.568 -1.698 0.18000001
4.7800002 1.573 -1.686 0.20999999
4.7940001 1.595 -1.694 0.19
4.7750001 1.605 -1.688 0.12
4.79 1.627 -1.696 0.17
4.7649999 1.635 -1.688 0.12
4.7690001 1.645 -1.691 0.2
4.7480001 1.655 -1.6849999 0.11
4.7550001 1.674 -1.6900001 0.18000001
4.743 1.686 -1.687 0.12
4.7540002 1.707 -1.693 0.18000001
4.7360001 1.717 -1.688 0.11
4.7459998 1.729 -1.693 0.19
4.724 1.738 -1.687 0.11
4.743 1.762 -1.697 0.17
4.724 1.772 -1.691 0.22
4.7389998 1.795 -1.699 0.16
4.7069998 1.8 -1.689 0.13
4.7210002 1.822 -1.697 0.18000001
4.7059999 1.824 -1.692 0.12
4.7189999 1.847 -1.699 0.18000001
