# .PCD v0.7 - Point Cloud Data file format
VERSION 0.7
FIELDS x y z intensity
SIZE 4 4 4 4
TYPE F F F F
COUNT 1 1 1 1
WIDTH 1386
HEIGHT 1
VIEWPOINT 0 0 0 1 0 0 0
POINTS 1386
DATA ascii
-1.7410001 9.1960001 -1.605 0.34999999
-1.776 9.2209997 -1.6109999 0.47999999
-1.7869999 9.1230001 -1.5930001 0.30000001
-1.795 9.0109997 -1.573 0.31999999
-1.809 9.0059996 -1.573 0.33000001
-1.84 9.0179996 -1.576 0.41
-1.865 8.9949999 -1.573 0.31
-1.897 9.0080004 -1.577 0.34999999
-1.925 9 -1.576 0.34999999
-1.949 8.9729996 -1.572 0.36000001
-1.971 8.9399996 -1.567 0.33000001
-1.997 8.9890003 -1.577 0.33000001
-2.0179999 8.9499998 -1.571 0.37
-2.0710001 9.0530005 -1.591 0.34
-2.086 8.9890003 -1.581 0.27000001
-2.1129999 8.9759998 -1.579 0.30000001
-2.132 8.9329996 -1.573 0.40000001
-2.155 8.9040003 -1.568 0.25999999
-2.1760001 8.9289999 -1.574 0.40000001
-2.1989999 8.9029999 -1.5700001 0.27000001
-2.2390001 8.9460001 -1.579 0.43000001
-2.2650001 8.927 -1.577 0.25999999
-2.299 8.9449997 -1.582 0.38
-2.3399999 8.9890003 -1.592 0.25
-2.368 8.9790001 -1.591 0.25999999
-2.3829999 8.9799995 -1.592 0.41999999
-2.4100001 8.9659996 -1.591 0.34999999
-2.425 8.9090004 -1.582 0.28
-2.46 8.9300003 -1.587 0.43000001
-2.4820001 8.8979998 -1.582 0.31
-2.5120001 8.8970003 -1.584 0.30000001
-2.5469999 8.9160004 -1.589 0.43000001
-2.5699999 8.9440002 -1.595 0.34
-2.6059999 8.9630003 -1.6 0.36000001
-2.6159999 8.8940001 -1.589 0.31
-2.674 8.9860001 -1.608 0.30000001
-2.73 9.0690002 -1.626 0.23
-2.7249999 8.9499998 -1.604 0.2
-2.757 8.9560003 -1.607 0.38999999
-2.7780001 8.974 -1.6109999 0.34999999
-2.7839999 8.8920002 -1.597 0.18000001
-2.7479999 8.6809998 -1.558 0.28999999
-2.7690001 8.6520004 -1.554 0.38
-2.816 8.7049999 -1.566 0.34
-2.8529999 8.7259998 -1.572 0.37
-2.8699999 8.6870003 -1.566 0.28999999
-2.902 8.691 -1.569 0.38999999
-2.937 8.7519999 -1.581 0.27000001
-2.9790001 8.7849998 -1.59 0.43000001
-2.9820001 8.7030001 -1.576 0.23999999
-3.0940001 8.9390001 -1.623 0.40000001
-3.062 8.757 -1.59 0.31
-3.0580001 8.6560001 -1.572 0.25
-3.0710001 8.6490002 -1.572 0.38999999
-3.132 8.7360001 -1.59 0.34
-3.1389999 8.6689997 -1.579 0.36000001
-3.1570001 8.6330004 -1.574 0.25
-3.1370001 8.4960003 -1.549 0.31999999
-3.181 8.5319996 -1.558 0.44
-3.2509999 8.6379995 -1.581 0.28
-3.244 8.5780001 -1.5700001 0.34
-3.2639999 8.5509996 -1.567 0.40000001
-3.2969999 8.5550003 -1.5700001 0.30000001
-3.3069999 8.5010004 -1.561 0.37
-3.3239999 8.4659996 -1.556 0.30000001
-3.348 8.4490004 -1.5549999 0.38999999
-3.3870001 8.4709997 -1.561 0.36000001
-3.3770001 8.4049997 -1.549 0.41999999
-3.4130001 8.4200001 -1.554 0.33000001
-3.4349999 8.3970003 -1.552 0.33000001
-3.46 8.382 -1.551 0.38
-3.487 8.3730001 -1.552 0.43000001
-3.506 8.3459997 -1.548 0.34
-3.5480001 8.3710003 -1.556 0.31
-3.595 8.4110003 -1.566 0.28999999
-3.6370001 8.4720001 -1.579 0.33000001
-3.658 8.448 -1.577 0.38999999
-3.6389999 8.3299999 -1.5549999 0.25999999
-3.7090001 8.4189997 -1.576 0.34999999
-3.7409999 8.4200001 -1.5779999 0.34
-3.7980001 8.4779997 -1.592 0.25
-3.8210001 8.4569998 -1.59 0.41
-3.905 8.6090002 -1.622 0.2
-3.944 8.6219997 -1.627 0.5
-4.0120001 8.6990004 -1.646 0.25
-4.0180001 8.6400003 -1.636 0.37
-4.0669999 8.6750002 -1.646 0.25999999
-4.1750002 8.8330002 -1.681 0.34
-4.178 8.8059998 -1.677 0.25999999
-4.21 8.8009996 -1.678 0.22
-4.256 8.8249998 -1.686 0.36000001
-4.3070002 8.8599997 -1.696 0.30000001
-4.3649998 8.9099998 -1.709 0.33000001
-4.3959999 8.901 -1.71 0.27000001
-4.9050002 9.8610001 -1.911 0.17
-4.5 9.0059996 -1.7359999 0.07
-4.6199999 9.1739998 -1.774 0.14
-4.6090002 9.0810003 -1.757 0.11
-4.6669998 9.1260004 -1.77 0.15000001
-5.1300001 9.9580002 -1.946 0.23999999
-4.618 8.8900003 -1.727 0.2
-5.1869998 9.915 -1.943 0.31999999
-4.8039999 9.1079998 -1.778 0.19
-4.8559999 9.1719999 -1.793 0.28999999
-4.8639998 9.1190004 -1.785 0.31999999
-4.8579998 9.0389996 -1.772 0.33000001
-5.0040002 9.2419996 -1.818 0.25999999
-5.0650001 9.2849998 -1.83 0.23999999
-5.0219998 9.1359997 -1.802 0.30000001
-5.0009999 9.0310001 -1.783 0.27000001
-5.0180001 9.0279999 -1.784 0.34999999
-5.3959999 9.6409998 -1.9170001 0.2
-5.4349999 9.6400003 -1.92 0.33000001
-5.3709998 9.4549999 -1.885 0.30000001
-5.382 9.4049997 -1.878 0.31999999
-5.3889999 9.349 -1.87 0.31999999
-5.4120002 9.3199997 -1.867 0.31
-5.4380002 9.3319998 -1.8710001 0.31
-5.4860001 9.3470001 -1.878 0.31999999
-5.4759998 9.2620001 -1.864 0.31
-5.5 9.2360001 -1.862 0.31999999
-5.559 9.2700005 -1.873 0.34
-5.5469999 9.1850004 -1.858 0.23999999
-5.5320001 9.1269999 -1.848 0.36000001
-5.5939999 9.1639996 -1.859 0.28999999
-5.6110001 9.1269999 -1.855 0.36000001
-5.599 9.0430002 -1.841 0.30000001
-5.6609998 9.0799999 -1.853 0.34
-5.7189999 9.1090002 -1.863 0.2
-5.6420002 8.9230003 -1.826 0.36000001
-5.671 8.9390001 -1.832 0.36000001
-5.691 8.908 -1.829 0.22
-5.6139998 8.7259998 -1.793 0.17
-3.9790001 6.085 -1.219 0.07
-4 6.0760002 -1.22 0.12
-4.0110002 6.052 -1.217 0.23
-4.0229998 6.0489998 -1.2180001 0.18000001
-4.0489998 6.046 -1.22 0.2
-4.1329999 6.131 -1.242 0
-4.0650001 5.9879999 -1.2130001 0
-4.0809999 5.9720001 -1.212 0.12
-4.1069999 5.9689999 -1.214 0
-4.1069999 5.9299998 -1.2079999 0
-4.1350002 5.9299998 -1.211 0
-4.1430001 5.9219999 -1.211 0
-4.1459999 5.8860002 -1.206 0
-4.1630001 5.8720002 -1.205 0
-4.1820002 5.8579998 -1.205 0
-4.2090001 5.8579998 -1.2079999 0
-4.223 5.8379998 -1.207 0
-4.2329998 5.8140001 -1.204 0
-4.2420001 5.8070002 -1.204 0
-4.243 5.77 -1.199 0
-4.2589998 5.7540002 -1.198 0
-4.2779999 5.7420001 -1.199 0
-4.2979999 5.73 -1.199 0
-4.3070002 5.7049999 -1.196 0
-4.3260002 5.711 -1.199 0.090000004
-4.3390002 5.691 -1.198 0.16
-4.348 5.6669998 -1.1950001 0.23
-4.3759999 5.665 -1.198 0
-4.3979998 5.658 -1.2 0
-4.415 5.6430001 -1.199 0
-4.4310002 5.6269999 -1.199 0
-4.4510002 5.6339998 -1.202 0
-4.4640002 5.6139998 -1.201 0
-4.4949999 5.6170001 -1.205 0
-4.5289998 5.6230001 -1.209 0
-4.5229998 5.579 -1.2029999 0.050000001
-4.539 5.5630002 -1.202 0.079999998
-4.5780001 5.5749998 -1.2079999 0
-4.5679998 5.5450001 -1.2029999 0
-4.5760002 5.52 -1.2 0
-4.5900002 5.5009999 -1.199 0
-4.6020002 5.4809999 -1.198 0
-4.6259999 5.474 -1.2 0.11
-4.6430001 5.4590001 -1.2 0.23999999
-4.6560001 5.4400001 -1.199 0.27000001
-4.658 5.4250002 -1.197 0.28999999
-4.677 5.4120002 -1.197 0.28
-4.6810002 5.382 -1.193 0.28999999
-4.6960001 5.3660002 -1.193 0.28
-4.6999998 5.3369999 -1.189 0.30000001
-4.7129998 5.3169999 -1.188 0.34
-4.7150002 5.2859998 -1.184 0.25
-4.7290001 5.2849998 -1.186 0.31999999
-4.7340002 5.257 -1.183 0.37
-4.75 5.2420001 -1.183 0.31999999
-4.7600002 5.2199998 -1.181 0.2
-4.7740002 5.2020001 -1.1799999 0.28999999
-4.777 5.1719999 -1.176 0.18000001
-4.796 5.1599998 -1.177 0.25
-4.7859998 5.1339998 -1.1720001 0.20999999
-4.7820001 5.0970001 -1.1670001 0.28999999
-4.8080001 5.092 -1.17 0.30000001
-4.822 5.0749998 -1.169 0.33000001
-4.8439999 5.066 -1.171 0.28
-4.8610001 5.052 -1.171 0.18000001
-4.869 5.0279999 -1.169 0.30000001
-4.8889999 5.033 -1.1720001 0.23999999
-4.9130001 5.027 -1.174 0.27000001
-4.9219999 5.0040002 -1.1720001 0.18000001
-4.9439998 4.9959998 -1.174 0.30000001
-4.9660001 4.9860001 -1.176 0.25
-4.98 4.9689999 -1.175 0.19
-5.013 4.9710002 -1.1799999 0.27000001
-5.0349998 4.9770002 -1.184 0.2
-5.0510001 4.961 -1.184 0.12
-5.079 4.9580002 -1.187 0.18000001
-5.0999999 4.947 -1.188 0.050000001
-5.1259999 4.941 -1.191 0.11
-8.3070002 7.98 -2.0039999 0.12
-8.3380003 7.9590001 -2.0050001 0.2
-8.3699999 7.9650002 -2.0109999 0.1
-8.3739996 7.9180002 -2.0050001 0.18000001
-8.4239998 7.9159999 -2.0120001 0.11
-8.4160004 7.8590002 -2.003 0.19
-8.4580002 7.848 -2.0079999 0.11
-8.4750004 7.8150001 -2.006 0.19
-8.5039997 7.7919998 -2.007 0.11
-8.4919996 7.756 -2.0009999 0.2
-8.5450001 7.756 -2.0079999 0.1
-8.5489998 7.711 -2.003 0.18000001
-8.5839996 7.6929998 -2.0050001 0.050000001
-8.5959997 7.6560001 -2.003 0.17
-8.6199999 7.6279998 -2.003 0.050000001
-8.6230001 7.5830002 -1.997 0.18000001
-8.6560001 7.5879998 -2.003 0.2
-8.6739998 7.5549998 -2.0009999 0.1
-8.6709995 7.5050001 -1.995 0.18000001
-8.7180004 7.4980001 -2 0.1
-8.7119999 7.4450002 -1.993 0.2
-8.7580004 7.4369998 -1.999 0.11
-8.7489996 7.3829999 -1.9910001 0.2
-8.7740002 7.3800001 -1.994 0.11
-8.7869997 7.3439999 -1.992 0.18000001
-8.8310003 7.3340001 -1.997 0.22
-8.8299999 7.2859998 -1.9910001 0.1
-8.8269997 7.237 -1.985 0.18000001
-8.8739996 7.2290001 -1.9910001 0.11
-8.8739996 7.1830001 -1.985 0.19
-8.8929996 7.1750002 -1.987 0
-7.3249998 5.8660002 -1.61 0.11
-7.3579998 5.8540001 -1.613 0.25999999
-7.382 5.836 -1.614 0.23
-8.9499998 7.0370002 -1.979 0.18000001
-8.9759998 7.0120001 -1.98 0.25
-9 6.9850001 -1.9809999 0.2
-9.0190001 6.9770002 -1.983 0.12
-9.0059996 6.9219999 -1.975 0.20999999
-9.033 6.8979998 -1.976 0.17
-9.0640001 6.8759999 -1.978 0.27000001
-9.0649996 6.8319998 -1.973 0.20999999
-9.0600004 6.7839999 -1.967 0.22
-9.0810003 6.7550001 -1.967 0.20999999
-9.0839996 6.7350001 -1.965 0.12
-9.0109997 6.638 -1.944 0.16
-9.1239996 6.677 -1.965 0.22
-9.1689997 6.6659999 -1.97 0.1
-7.3720002 5.3179998 -1.5549999 0.20999999
-7.4050002 5.3060002 -1.559 0.14
-8.5550003 6.0939999 -1.816 0.31999999
-8.533 6.0580001 -1.809 0.36000001
-8.4949999 5.9920001 -1.796 0.37
-8.434 5.908 -1.778 0.28
-8.4230003 5.8610001 -1.772 0.31
-8.4239998 5.823 -1.768 0.37
-8.4390001 5.7940001 -1.767 0.36000001
-8.4309998 5.7490001 -1.761 0.33000001
-8.4169998 5.7210002 -1.756 0.38999999
-8.4320002 5.6919999 -1.755 0.38999999
-8.3500004 5.598 -1.733 0.38
-8.2860003 5.5170002 -1.715 0.28999999
-7.5679998 5.0019999 -1.552 0.31
-7.6409998 5.0170002 -1.5650001 0.15000001
-8.3479996 5.4460001 -1.717 0.27000001
-8.3789997 5.448 -1.722 0.5
-8.4049997 5.427 -1.724 0.25
-8.448 5.4169998 -1.73 0.25
-8.4619999 5.388 -1.729 0.40000001
-8.4770002 5.3610001 -1.729 0.31
-8.5019999 5.3390002 -1.7309999 0.38999999
-8.4989996 5.3000002 -1.726 0.27000001
-8.5159998 5.2919998 -1.728 0.38999999
-8.5349998 5.2670002 -1.729 0.28999999
-8.5469999 5.237 -1.728 0.27000001
-8.5500002 5.2020001 -1.725 0.28999999
-8.5649996 5.1739998 -1.725 0.41999999
-8.6009998 5.1599998 -1.729 0.37
-8.6560001 5.1560001 -1.737 0.23
-8.7329998 5.184 -1.752 0.34999999
-8.8070002 5.1900001 -1.765 0.25
-8.8690004 5.1890001 -1.774 0.38999999
-8.9449997 5.1960001 -1.7869999 0.30000001
-9.0389996 5.2140002 -1.804 0.41
-9.1309996 5.2280002 -1.8200001 0.30000001
-9.2720003 5.2709999 -1.846 0.31
-9.3240004 5.2820001 -1.8559999 0.28
-9.382 5.2750001 -1.864 0.38
-9.4289999 5.263 -1.8710001 0.34999999
-9.4840002 5.2550001 -1.8789999 0.30000001
-9.6260004 5.2940001 -1.906 0.31
-9.8129997 5.3579998 -1.942 0.27000001
-9.8710003 5.3699999 -1.952 0.28999999
-9.8879995 5.3390002 -1.952 0.31999999
-9.9049997 5.3080001 -1.952 0.22
-9.9580002 5.296 -1.96 0.28999999
-10.055 5.3070002 -1.976 0.15000001
-10.384 5.4400001 -2.0420001 0.25999999
-10.37 5.3909998 -2.0350001 0.18000001
-10.426 5.4000001 -2.0450001 0.23
-10.449 5.3699999 -2.0469999 0.1
-10.354 5.2800002 -2.023 0.20999999
-10.355 5.2399998 -2.02 0.27000001
-10.389 5.2160001 -2.0239999 0.20999999
-10.411 5.1859999 -2.0250001 0.43000001
-10.457 5.1680002 -2.0309999 0.25
-10.535 5.1859999 -2.0450001 0.19
-10.492 5.1240001 -2.033 0.18000001
-10.474 5.0749998 -2.026 0.28
-10.522 5.0570002 -2.033 0.38999999
-10.593 5.0500002 -2.0439999 0.2
-10.529 4.9790001 -2.0280001 0.1
-10.596 4.9699998 -2.0380001 0.090000004
-10.321 4.8210001 -1.98 0.039999999
-10.619 4.9200001 -2.0380001 0.16
-10.651 4.8940001 -2.0409999 0.2
-10.662 4.8590002 -2.0409999 0.1
-10.686 4.8299999 -2.043 0.16
-10.707 4.7989998 -2.0439999 0.22
-10.706 4.7579999 -2.04 0.18000001
-10.72 4.744 -2.0420001 0.25
-10.753 4.7179999 -2.0450001 0.22
-10.764 4.6830001 -2.0450001 0.12
-10.759 4.6399999 -2.0409999 0.18000001
-10.804 4.6199999 -2.0469999 0.11
-10.83 4.5900002 -2.049 0.2
-10.871 4.5679998 -2.0550001 0.2
-10.915 4.566 -2.062 0.37
-10.936 4.5349998 -2.063 0.31999999
-10.945 4.4980001 -2.062 0.14
-10.901 4.4400001 -2.0510001 0.17
-10.889 4.395 -2.0450001 0.050000001
-10.836 4.3340001 -2.0320001 0.17
-10.842 4.2969999 -2.0309999 0.050000001
-10.794 4.2579999 -2.02 0.17
-10.8 4.2210002 -2.0179999 0.050000001
-10.787 4.177 -2.013 0.17
-10.787 4.138 -2.0109999 0.19
-10.773 4.0939999 -2.0050001 0.1
-10.769 4.0539999 -2.0020001 0.090000004
-10.762 4.0120001 -1.998 0.079999998
-10.749 3.9890001 -1.994 0.079999998
-10.751 3.951 -1.992 0.079999998
-10.737 3.9070001 -1.987 0.079999998
-10.733 3.868 -1.984 0.079999998
-10.738 3.8310001 -1.982 0.079999998
-10.722 3.7880001 -1.977 0.079999998
-10.717 3.7479999 -1.973 0.079999998
-10.727 3.733 -1.974 0.079999998
-10.714 3.6900001 -1.969 0.16
-10.713 3.652 -1.967 0.16
-10.715 3.615 -1.965 0.039999999
-10.704 3.5739999 -1.961 0.079999998
-10.707 3.5380001 -1.959 0.079999998
-10.722 3.506 -1.96 0.039999999
-10.703 3.4809999 -1.955 0.079999998
-10.699 3.4419999 -1.952 0.039999999
-10.704 3.4070001 -1.951 0.07
-10.693 3.3659999 -1.947 0.039999999
-10.694 3.3299999 -1.9450001 0.07
-10.7 3.2950001 -1.944 0.039999999
-10.692 3.2550001 -1.941 0.079999998
-10.682 3.234 -1.938 0.039999999
-10.709 3.2060001 -1.941 0.079999998
-10.679 3.1600001 -1.934 0.039999999
-10.684 3.125 -1.932 0.079999998
-10.684 3.089 -1.931 0.039999999
-10.68 3.0510001 -1.928 0.079999998
-10.679 3.0139999 -1.926 0.039999999
-10.683 2.9979999 -1.926 0.07
-10.657 2.954 -1.919 0.079999998
-10.664 2.9200001 -1.919 0.079999998
-10.665 2.8840001 -1.9170001 0.079999998
-10.656 2.846 -1.914 0.079999998
-10.653 2.809 -1.911 0.079999998
-10.669 2.7780001 -1.913 0.079999998
-10.641 2.7520001 -1.9069999 0.079999998
-10.633 2.7149999 -1.903 0.079999998
-10.647 2.6830001 -1.904 0.079999998
-10.644 2.6459999 -1.902 0.079999998
-10.643 2.6099999 -1.9 0.079999998
-10.653 2.5769999 -1.901 0.079999998
-10.636 2.5380001 -1.896 0.079999998
-10.628 2.5190001 -1.8940001 0.079999998
-10.631 2.484 -1.893 0.079999998
-10.623 2.447 -1.89 0.079999998
-10.615 2.4100001 -1.887 0.079999998
-10.63 2.378 -1.888 0.079999998
-10.624 2.342 -1.886 0.15000001
-10.614 2.3050001 -1.883 0.16
-10.608 2.286 -1.881 0.039999999
-10.606 2.2509999 -1.8789999 0.079999998
-10.603 2.2149999 -1.877 0.16
-10.616 2.1830001 -1.878 0.16
-10.604 2.1459999 -1.875 0.16
-10.606 2.112 -1.874 0.16
-10.598 2.075 -1.8710001 0.16
-10.598 2.0409999 -1.87 0.16
-10.594 2.023 -1.868 0.16
-10.596 1.989 -1.868 0.17
-10.587 1.952 -1.865 0.16
-10.579 1.9170001 -1.862 0.16
-10.576 1.882 -1.86 0.039999999
-10.566 1.846 -1.858 0.07
-10.553 1.826 -1.855 0.039999999
-10.563 1.794 -1.855 0.07
-10.547 1.757 -1.851 0.039999999
-10.566 1.726 -1.854 0
-10.531 1.686 -1.846 0
-10.511 1.649 -1.842 0
-10.497 1.613 -1.8380001 0
-10.495 1.596 -1.837 0
-10.481 1.5599999 -1.834 0
-10.48 1.526 -1.832 0
-10.516 1.498 -1.8380001 0.059999999
-10.522 1.465 -1.839 0.15000001
-10.523 1.432 -1.8380001 0.039999999
-10.401 1.381 -1.814 0.039999999
-10.385 1.346 -1.811 0.029999999
-10.364 1.3099999 -1.806 0.039999999
-10.372 1.278 -1.807 0.07
-10.345 1.242 -1.801 0.039999999
-10.357 1.21 -1.802 0.07
-10.335 1.175 -1.798 0.039999999
-10.329 1.158 -1.796 0.07
-10.317 1.123 -1.793 0.039999999
-10.297 1.0880001 -1.789 0.029999999
-10.263 1.052 -1.7819999 0.029999999
-10.245 1.018 -1.778 0.039999999
-10.254 0.986 -1.779 0.07
-10.232 0.95099998 -1.774 0.039999999
-10.229 0.935 -1.774 0.07
-10.224 0.90200001 -1.772 0.039999999
-10.233 0.87099999 -1.773 0.07
-10.216 0.83700001 -1.77 0.039999999
-10.217 0.80400002 -1.7690001 0.07
-10.199 0.77100003 -1.766 0.039999999
-10.203 0.755 -1.766 0.07
-10.187 0.722 -1.763 0.039999999
-10.197 0.69 -1.7640001 0.07
-10.19 0.65700001 -1.762 0.039999999
-10.186 0.625 -1.761 0.039999999
-10.197 0.59399998 -1.763 0.07
-10.172 0.56 -1.758 0.039999999
-10.181 0.54400003 -1.7589999 0.039999999
-10.18 0.51200002 -1.7589999 0.039999999
-10.184 0.47999999 -1.7589999 0.07
-10.169 0.44800001 -1.757 0.039999999
-10.183 0.41600001 -1.7589999 0.07
-10.184 0.384 -1.7589999 0.039999999
-10.193 0.35299999 -1.76 0
-10.193 0.33700001 -1.76 0
-10.22 0.30500001 -1.765 0.07
-10.227 0.273 -1.766 0.079999998
-10.239 0.242 -1.768 0.090000004
-10.252 0.20999999 -1.77 0.090000004
-10.249 0.177 -1.77 0.079999998
-10.216 0.145 -1.763 0.039999999
-10.179 0.12800001 -1.757 0.029999999
-10.149 0.096000001 -1.751 0.029999999
-10.154 0.064000003 -1.752 0.07
-10.15 0.032000002 -1.751 0.039999999
-10.15 0 -1.751 0.07
-10.148 -0.032000002 -1.751 0.15000001
-10.152 -0.064000003 -1.751 0.039999999
-10.144 -0.079999998 -1.75 0.07
-10.137 -0.111 -1.749 0.039999999
-10.119 -0.14300001 -1.7460001 0.07
-10.119 -0.175 -1.7460001 0.15000001
-10.106 -0.206 -1.743 0.039999999
-10.119 -0.23800001 -1.7460001 0.079999998
-10.101 -0.27000001 -1.743 0.079999998
-10.097 -0.28600001 -1.742 0.039999999
-10.113 -0.31799999 -1.745 0.079999998
-10.093 -0.34900001 -1.742 0.039999999
-10.103 -0.38100001 -1.744 0.07
-10.104 -0.41299999 -1.744 0.039999999
-10.093 -0.44400001 -1.742 0.07
-10.089 -0.47600001 -1.742 0.039999999
-10.106 -0.49200001 -1.745 0.079999998
-10.081 -0.523 -1.7410001 0.079999998
-10.078 -0.55500001 -1.7410001 0.079999998
-10.086 -0.58700001 -1.742 0.079999998
-10.064 -0.61699998 -1.739 0.079999998
-10.06 -0.64899999 -1.738 0.079999998
-10.062 -0.68099999 -1.739 0.039999999
-10.041 -0.69499999 -1.735 0.07
-10.047 -0.727 -1.737 0.039999999
-10.05 -0.759 -1.738 0.07
-10.036 -0.79000002 -1.7359999 0.039999999
-10.038 -0.82200003 -1.737 0.07
-10.035 -0.85299999 -1.737 0.079999998
-10.024 -0.884 -1.735 0.079999998
-10.013 -0.89899999 -1.733 0.039999999
-10.038 -0.93300003 -1.738 0.079999998
-10.015 -0.963 -1.735 0.039999999
-10.024 -0.995 -1.737 0.07
-10.015 -1.026 -1.7359999 0.039999999
-10.01 -1.057 -1.735 0.07
-10.012 -1.09 -1.737 0.039999999
-10.022 -1.1059999 -1.739 0.079999998
-10.001 -1.136 -1.735 0.079999998
-10.009 -1.169 -1.738 0.079999998
-10.005 -1.2 -1.738 0.079999998
-9.9879999 -1.23 -1.735 0.039999999
-9.9860001 -1.262 -1.735 0.079999998
-10.007 -1.296 -1.74 0.079999998
-9.9899998 -1.3099999 -1.737 0.079999998
-9.9969997 -1.3430001 -1.739 0.039999999
-10.02 -1.378 -1.745 0.079999998
-10.008 -1.408 -1.743 0.079999998
-10.002 -1.439 -1.743 0.079999998
-10.018 -1.474 -1.747 0.15000001
-10 -1.503 -1.744 0.039999999
-9.9980001 -1.5190001 -1.744 0.17
-10.01 -1.553 -1.747 0.050000001
-9.9799995 -1.581 -1.743 0.16
-9.993 -1.615 -1.7460001 0.050000001
-9.993 -1.647 -1.747 0.17
-10.006 -1.681 -1.75 0.050000001
-9.9799995 -1.693 -1.7460001 0.15000001
-10.021 -1.733 -1.755 0.050000001
-9.9919996 -1.76 -1.75 0.18000001
-10.019 -1.7970001 -1.757 0.2
-10.029 -1.831 -1.7589999 0.18000001
-10.016 -1.8609999 -1.758 0.039999999
-10.008 -1.893 -1.758 0.15000001
-10.045 -1.916 -1.765 0.050000001
-10.03 -1.946 -1.763 0.18000001
-10.056 -1.984 -1.77 0.11
-10.066 -2.0179999 -1.772 0.18000001
-10.088 -2.056 -1.778 0.20999999
-10.116 -2.0940001 -1.784 0.2
-10.075 -2.119 -1.778 0.18000001
-10.026 -2.142 -1.77 0.30000001
-9.9259996 -2.1370001 -1.752 0.34999999
-10.114 -2.21 -1.788 0.23
-10.097 -2.24 -1.7869999 0.2
-10.109 -2.276 -1.79 0.14
-10.115 -2.3099999 -1.793 0.19
-10.124 -2.346 -1.796 0.2
-10.084 -2.3699999 -1.79 0.14
-10.007 -2.369 -1.776 0.18000001
-9.9709997 -2.3929999 -1.77 0.2
-9.9440002 -2.4200001 -1.767 0.1
-9.9169998 -2.447 -1.763 0.18000001
-9.9020004 -2.4760001 -1.762 0.20999999
-9.8660002 -2.5 -1.756 0.17
-9.8629999 -2.5320001 -1.757 0.13
-9.8000002 -2.533 -1.7460001 0.20999999
-9.7849998 -2.5610001 -1.745 0.17
-9.7959995 -2.5969999 -1.748 0.25999999
-9.7489996 -2.618 -1.7410001 0.2
-9.7469997 -2.6500001 -1.742 0.12
-9.691 -2.668 -1.733 0.20999999
-9.6660004 -2.677 -1.729 0.17
-9.6820002 -2.714 -1.734 0.27000001
-9.6429996 -2.7360001 -1.728 0.23
-9.625 -2.7639999 -1.726 0.18000001
-9.6409998 -2.8010001 -1.7309999 0.28
-9.6099997 -2.825 -1.726 0.25
-9.5819998 -2.849 -1.723 0.22
-9.566 -2.8610001 -1.721 0.31999999
-9.5609999 -2.892 -1.721 0.28
-9.5310001 -2.9159999 -1.717 0.30000001
-9.5100002 -2.9430001 -1.715 0.31
-9.5030003 -2.973 -1.715 0.31999999
-9.4949999 -3.003 -1.716 0.31
-9.4709997 -3.0280001 -1.7130001 0.28999999
-9.4680004 -3.0439999 -1.7130001 0.28
-9.427 -3.063 -1.707 0.23999999
-9.4020004 -3.0880001 -1.704 0.33000001
-9.375 -3.112 -1.701 0.28999999
-9.3450003 -3.135 -1.697 0.36000001
-9.3240004 -3.1600001 -1.6950001 0.30000001
-9.3199997 -3.191 -1.696 0.31999999
-9.2810001 -3.1949999 -1.689 0.25
-9.2539997 -3.2179999 -1.686 0.34
-9.2290001 -3.2420001 -1.683 0.28999999
-9.1820002 -3.2579999 -1.676 0.31
-9.1680002 -3.2850001 -1.675 0.31999999
-9.1669998 -3.3169999 -1.677 0.28999999
-9.1429996 -3.342 -1.674 0.41
-9.1099997 -3.346 -1.669 0.11
-7.5900002 -2.819 -1.372 0.039999999
-7.566 -2.8369999 -1.369 0.15000001
-7.5669999 -2.865 -1.3710001 0.2
-7.5479999 -2.885 -1.369 0.16
-7.5450001 -2.911 -1.37 0.25
-7.5229998 -2.9300001 -1.367 0.16
-7.5250001 -2.944 -1.369 0.28
-7.5050001 -2.9630001 -1.367 0.23999999
-7.5029998 -2.99 -1.368 0.25
-7.4879999 -3.0109999 -1.367 0.25999999
-7.4949999 -3.0409999 -1.37 0.25999999
-7.4949999 -3.069 -1.372 0.28
-7.3340001 -3.03 -1.342 0
-7.4439998 -3.089 -1.365 0
-5.8590002 -2.48 -1.051 0
-5.802 -2.4779999 -1.041 0
-5.7420001 -2.474 -1.031 0
-5.7160001 -2.484 -1.027 0
-5.665 -2.483 -1.018 0
-5.6209998 -2.4749999 -1.01 0
-5.5840001 -2.48 -1.0039999 0
-5.5510001 -2.4860001 -0.99900001 0
-5.513 -2.49 -0.99299997 0
-5.487 -2.4990001 -0.99000001 0
-5.474 -2.5139999 -0.98900002 0
-5.4320002 -2.516 -0.98199999 0
-5.414 -2.5179999 -0.97899997 0
-5.3899999 -2.527 -0.97500002 0
-5.3530002 -2.5309999 -0.97000003 0
-5.335 -2.543 -0.96700001 0
-5.3179998 -2.5550001 -0.96600002 0
-5.2849998 -2.5599999 -0.96100003 0
-5.2639999 -2.5710001 -0.958 0
-5.243 -2.5699999 -0.954 0
-5.2309999 -2.585 -0.954 0
-5.211 -2.595 -0.95099998 0
-5.1849999 -2.6029999 -0.94700003 0
-5.1690001 -2.6159999 -0.94599998 0
-5.151 -2.6270001 -0.94400001 0
-5.1290002 -2.6259999 -0.94 0
-5.1079998 -2.6359999 -0.93800002 0
-5.0900002 -2.6459999 -0.935 0
-5.0739999 -2.6589999 -0.93400002 0
-5.0640001 -2.674 -0.93400002 0
-5.0380001 -2.6800001 -0.93000001 0
-5.0279999 -2.6949999 -0.93000001 0
-5.007 -2.694 -0.926 0
-4.9840002 -2.7019999 -0.92299998 0
-4.9980001 -2.73 -0.92799997 0
-4.9790001 -2.74 -0.926 0
-4.974 -2.7579999 -0.926 0
-4.928 -2.7520001 -0.91799998 0
-4.914 -2.7650001 -0.917 0.029999999
-4.9039998 -2.77 -0.91600001 0.029999999
-4.8889999 -2.7809999 -0.91500002 0.029999999
-4.875 -2.7939999 -0.91399997 0.039999999
-4.869 -2.8110001 -0.91399997 0.039999999
-4.8569999 -2.8239999 -0.91399997 0.07
-4.8379998 -2.8340001 -0.91100001 0.039999999
-4.8340001 -2.852 -0.91299999 0.07
-4.8280001 -2.858 -0.912 0.16
-4.816 -2.872 -0.91100001 0.16
-4.803 -2.885 -0.91100001 0.16
-4.8010001 -2.904 -0.912 0.17
-4.7880001 -2.9170001 -0.91100001 0.17
-4.7810001 -2.9330001 -0.912 0.17
-4.7750001 -2.95 -0.91299999 0.18000001
-4.7690001 -2.9560001 -0.912 0.17
-4.7579999 -2.97 -0.912 0.039999999
-4.7319999 -2.9749999 -0.90799999 0.14
-4.737 -2.9990001 -0.91100001 0.050000001
-4.7280002 -3.0139999 -0.91100001 0.15000001
-4.71 -3.0239999 -0.91000003 0.050000001
-4.6950002 -3.0350001 -0.90899998 0.16
-4.711 -3.0550001 -0.91299999 0.050000001
-4.6929998 -3.0650001 -0.91100001 0.15000001
-4.6950002 -3.0869999 -0.91399997 0.050000001
-4.691 -3.1059999 -0.91500002 0.15000001
-4.6729999 -3.115 -0.91299999 0.050000001
-4.665 -3.131 -0.91399997 0.15000001
-4.677 -3.1600001 -0.91799998 0.039999999
-4.6539998 -3.155 -0.91399997 0.14
-4.658 -3.1800001 -0.91799998 0.18000001
-4.6570001 -3.2 -0.91900003 0.039999999
-4.6370001 -3.2079999 -0.917 0.14
-4.6360002 -3.2290001 -0.91900003 0.050000001
-4.6360002 -3.25 -0.92199999 0.15000001
-4.6269999 -3.266 -0.92199999 0.18000001
-4.6220002 -3.273 -0.92199999 0.039999999
-4.631 -3.3010001 -0.926 0.15000001
-4.6160002 -3.313 -0.92500001 0.050000001
-4.6090002 -3.329 -0.926 0.15000001
-4.6170001 -3.358 -0.93000001 0.050000001
-4.592 -3.362 -0.92699999 0.15000001
-4.6009998 -3.3900001 -0.93099999 0.050000001
-4.6079998 -3.4070001 -0.93400002 0.15000001
-4.598 -3.421 -0.93400002 0.050000001
-4.5879998 -3.437 -0.935 0.15000001
-4.5999999 -3.467 -0.94 0.050000001
-4.5809999 -3.4760001 -0.93800002 0.15000001
-4.586 -3.5020001 -0.94199997 0.050000001
-4.5890002 -3.527 -0.94499999 0.16
-4.5799999 -3.5320001 -0.94400001 0.18000001
-4.5739999 -3.55 -0.94499999 0.039999999
-4.5830002 -3.5799999 -0.94999999 0.15000001
-4.5700002 -3.5929999 -0.94999999 0.050000001
-4.5650001 -3.612 -0.95099998 0.16
-4.559 -3.632 -0.95300001 0.050000001
-4.5479999 -3.6340001 -0.95099998 0.16
-4.5560002 -3.664 -0.95599997 0.050000001
-4.5539999 -3.6860001 -0.958 0.15000001
-4.539 -3.698 -0.95700002 0.050000001
-4.5339999 -3.717 -0.95899999 0.15000001
-4.5489998 -3.753 -0.96499997 0.19
-4.5310001 -3.763 -0.96399999 0.039999999
-4.5250001 -3.77 -0.96399999 0.15000001
-4.539 -3.8050001 -0.97000003 0.050000001
-4.5229998 -3.816 -0.96899998 0.15000001
-4.5180001 -3.836 -0.97100002 0.039999999
-4.5139999 -3.8570001 -0.97299999 0.16
-4.5180001 -3.885 -0.977 0.18000001
-4.513 -3.9059999 -0.97799999 0.18000001
-4.5250001 -3.928 -0.98299998 0.17
-4.5110002 -3.941 -0.98199999 0.17
-4.5139999 -3.9679999 -0.986 0.17
-4.5089998 -3.9890001 -0.98799998 0.17
-4.5029998 -4.0089998 -0.99000001 0.17
-4.5050001 -4.0370002 -0.99299997 0.17
-4.5019999 -4.059 -0.995 0.17
-4.5009999 -4.0710001 -0.99699998 0.17
-4.493 -4.0890002 -0.99800003 0.17
-4.5 -4.1220002 -1.003 0.17
-4.4860001 -4.1339998 -1.003 0.17
-4.4770002 -4.1529999 -1.0039999 0.17
-4.4840002 -4.1849999 -1.0089999 0.17
-4.4720001 -4.2010002 -1.0089999 0.17
-4.4850001 -4.2249999 -1.0140001 0.17
-4.48 -4.2470002 -1.016 0.17
-4.474 -4.2680001 -1.018 0.16
-4.4689999 -4.29 -1.02 0.16
-4.4749999 -4.323 -1.025 0.16
-4.467 -4.3429999 -1.027 0.16
-4.4660001 -4.369 -1.03 0.16
-4.4749999 -4.3909998 -1.034 0.17
-4.461 -4.4050002 -1.034 0.16
-4.4629998 -4.434 -1.038 0.17
-4.454 -4.454 -1.039 0.17
-4.4549999 -4.4829998 -1.043 0.18000001
-4.4499998 -4.506 -1.046 0.18000001
-4.4530001 -4.5380001 -1.05 0.17
-4.448 -4.546 -1.051 0.17
-4.447 -4.5739999 -1.054 0.17
-4.4439998 -4.599 -1.057 0.17
-4.4380002 -4.6220002 -1.059 0.16
-4.428 -4.6409998 -1.061 0.039999999
-4.4229999 -4.665 -1.063 0.14
-4.4299998 -4.7020001 -1.069 0.19
-4.428 -4.7150002 -1.071 0.090000004
-4.4200001 -4.7360001 -1.072 0
-4.4169998 -4.7620001 -1.076 0
-4.4050002 -4.7789998 -1.076 0
-4.4349999 -4.842 -1.089 0
-4.4029999 -4.8369999 -1.084 0.02
-4.4060001 -4.8559999 -1.087 0.029999999
-4.4180002 -4.9000001 -1.095 0.07
-4.4109998 -4.9229999 -1.097 0.079999998
-4.4060001 -4.948 -1.1 0.079999998
-4.4050002 -4.9780002 -1.104 0.079999998
-4.4050002 -5.0100002 -1.108 0.090000004
-4.401 -5.0370002 -1.1109999 0.090000004
-4.4120002 -5.066 -1.117 0.079999998
-4.4029999 -5.0869999 -1.119 0.079999998
-4.4050002 -5.1220002 -1.124 0.079999998
-4.3959999 -5.1440001 -1.126 0.039999999
-4.3930001 -5.1729999 -1.13 0.07
-4.3909998 -5.2030001 -1.1339999 0.039999999
-4.3909998 -5.237 -1.138 0
-4.3930001 -5.256 -1.141 0
-4.3860002 -5.2810001 -1.1440001 0
-4.4060001 -5.3390002 -1.155 0
-4.381 -5.342 -1.152 0
-4.375 -5.3699999 -1.155 0
-4.3779998 -5.408 -1.161 0
-4.362 -5.4229999 -1.1619999 0
-4.3759999 -5.4569998 -1.168 0
-4.4159999 -5.5419998 -1.1849999 0
-4.4099998 -5.5710001 -1.188 0
-4.381 -5.5689998 -1.1849999 0.029999999
-4.395 -5.6230001 -1.194 0
-4.3639998 -5.6199999 -1.1900001 0.050000001
-4.3569999 -5.6479998 -1.193 0.13
-4.3790002 -5.6950002 -1.2029999 0.19
-4.3790002 -5.7319999 -1.2079999 0.050000001
-4.3590002 -5.743 -1.2079999 0.14
-4.3590002 -5.7800002 -1.2130001 0.2
-4.3369999 -5.789 -1.212 0
-4.342 -5.8340001 -1.219 0.059999999
-4.3499999 -5.882 -1.227 0.16
-4.3540001 -5.9060001 -1.2309999 0.1
-4.3369999 -5.9229999 -1.232 0.090000004
-4.3340001 -5.9569998 -1.237 0.079999998
-4.3200002 -5.9770002 -1.238 0.039999999
-4.3169999 -6.013 -1.243 0.13
-4.3210001 -6.059 -1.251 0.20999999
-4.3140001 -6.0879998 -1.2539999 0.11
-4.631 -6.598 -1.365 0.25999999
-4.6240001 -6.632 -1.369 0.43000001
-4.6069999 -6.6529999 -1.3710001 0.38999999
-4.6059999 -6.6950002 -1.377 0.34999999
-4.5830002 -6.7080002 -1.377 0.36000001
-4.5570002 -6.7140002 -1.375 0.33000001
-4.5440001 -6.7179999 -1.374 0.28999999
-4.5029998 -6.7030001 -1.368 0.38999999
-4.4920001 -6.7319999 -1.3710001 0.34999999
-4.467 -6.7410002 -1.37 0.38999999
-4.4310002 -6.7319999 -1.365 0.23
-4.3909998 -6.7179999 -1.359 0.28999999
-4.3590002 -6.7150002 -1.355 0.38999999
-4.3309999 -6.6939998 -1.349 0.38
-4.3179998 -6.7210002 -1.352 0.36000001
-4.2859998 -6.7179999 -1.348 0.27000001
-4.2610002 -6.7249999 -1.347 0.41999999
-4.2529998 -6.7579999 -1.351 0.31999999
-4.2259998 -6.763 -1.349 0.30000001
-4.2020001 -6.7480001 -1.344 0.30000001
-4.1700001 -6.744 -1.341 0.23
-4.1440001 -6.7490001 -1.339 0.37
-4.112 -6.7449999 -1.335 0.33000001
-4.0830002 -6.7449999 -1.332 0.36000001
-4.0669999 -6.7659998 -1.334 0.31999999
-4.0300002 -6.7529998 -1.329 0.30000001
-4.007 -6.7379999 -1.324 0.27000001
-3.9790001 -6.7399998 -1.322 0.23999999
-3.944 -6.7290001 -1.317 0.34
-3.924 -6.743 -1.317 0.36000001
-3.9000001 -6.75 -1.316 0.40000001
-3.8670001 -6.7420001 -1.312 0.36000001
-3.846 -6.7540002 -1.312 0.38999999
-3.8310001 -6.7529998 -1.3099999 0.31999999
-3.8050001 -6.757 -1.308 0.31999999
-3.773 -6.75 -1.304 0.23
-3.744 -6.7480001 -1.301 0.22
-3.7179999 -6.7509999 -1.3 0.47999999
-3.7030001 -6.7729998 -1.302 0.30000001
-3.684 -6.79 -1.303 0.27000001
-3.6689999 -6.7870002 -1.301 0.27000001
-3.648 -6.8000002 -1.301 0.28
-3.631 -6.8179998 -1.303 0.27000001
-3.6010001 -6.8140001 -1.3 0.25999999
-3.575 -6.8169999 -1.298 0.25999999
-3.5510001 -6.823 -1.2970001 0.28
-3.52 -6.816 -1.293 0.34999999
-3.5039999 -6.8119998 -1.291 0.37
-3.4949999 -6.8470001 -1.296 0.34
-3.471 -6.8530002 -1.295 0.34
-3.4460001 -6.8569999 -1.293 0.28
-3.427 -6.8730001 -1.295 0.28
-3.404 -6.8800001 -1.294 0.27000001
-3.3759999 -6.8779998 -1.291 0.25999999
-3.362 -6.8759999 -1.29 0.31999999
-3.335 -6.8759999 -1.288 0.31999999
-3.313 -6.8870001 -1.288 0.27000001
-3.293 -6.901 -1.288 0.27000001
-3.2690001 -6.9060001 -1.2869999 0.28999999
-3.244 -6.9089999 -1.286 0.28999999
-3.214 -6.901 -1.2819999 0.30000001
-3.197 -6.8940001 -1.28 0.30000001
-3.171 -6.895 -1.278 0.28999999
-3.1559999 -6.9190001 -1.281 0.31
-3.135 -6.9310002 -1.281 0.36000001
-3.115 -6.9439998 -1.2819999 0.30000001
-3.0929999 -6.954 -1.2819999 0.27000001
-3.0680001 -6.9260001 -1.275 0.30000001
-3.0480001 -6.9400001 -1.276 0.28
-3.029 -6.9559999 -1.277 0.28999999
-3.0020001 -6.9530001 -1.275 0.28999999
-2.9749999 -6.9520001 -1.273 0.31
-2.957 -6.9699998 -1.275 0.34
-2.9319999 -6.9720001 -1.273 0.31999999
-2.9200001 -6.973 -1.272 0.31999999
-2.8970001 -6.98 -1.272 0.28
-2.875 -6.9889998 -1.272 0.28
-2.849 -6.9879999 -1.27 0.28
-2.825 -6.993 -1.2690001 0.28999999
-2.802 -6.9980001 -1.268 0.31999999
-2.776 -6.9980001 -1.267 0.28999999
-2.767 -7.007 -1.268 0.28999999
-2.7420001 -7.007 -1.266 0.28
-2.7190001 -7.0139999 -1.265 0.30000001
-2.6989999 -7.0279999 -1.267 0.30000001
-2.6730001 -7.0250001 -1.2640001 0.30000001
-2.6530001 -7.039 -1.265 0.30000001
-2.6240001 -7.0310001 -1.262 0.28999999
-2.612 -7.0310001 -1.261 0.28999999
-2.5929999 -7.0489998 -1.263 0.28
-2.572 -7.0599999 -1.2640001 0.27000001
-2.5480001 -7.0630002 -1.263 0.31999999
-2.5190001 -7.052 -1.2589999 0.31
-2.494 -7.0510001 -1.257 0.28
-2.4660001 -7.0440001 -1.255 0.28
-2.4590001 -7.059 -1.257 0.37
-2.444 -7.085 -1.26 0.33000001
-2.405 -7.046 -1.251 0.27000001
-2.375 -7.0300002 -1.247 0.34
-2.3629999 -7.0669999 -1.252 0.31
-2.345 -7.0869999 -1.255 0.31
-2.326 -7.1059999 -1.257 0.31
-2.3199999 -7.125 -1.26 0.31
-2.296 -7.1259999 -1.2589999 0.28999999
-2.273 -7.131 -1.2589999 0.31
-2.257 -7.1570001 -1.262 0.34
-2.2260001 -7.1399999 -1.257 0.30000001
-2.207 -7.1560001 -1.2589999 0.30000001
-2.187 -7.171 -1.261 0.28999999
-2.164 -7.138 -1.2539999 0.23
-2.141 -7.1430001 -1.253 0.38999999
-2.125 -7.171 -1.257 0.30000001
-2.0969999 -7.1589999 -1.2539999 0.28999999
-2.0669999 -7.1409998 -1.249 0.23999999
-2.0469999 -7.1529999 -1.25 0.31999999
-2.0120001 -7.1160002 -1.242 0.34999999
-2.0020001 -7.1230001 -1.243 0.33000001
-1.9809999 -7.1360002 -1.244 0.34999999
-1.9529999 -7.1220002 -1.24 0.25
-1.919 -7.0840001 -1.232 0.37
-1.91 -7.1399999 -1.2410001 0.31999999
-1.882 -7.125 -1.237 0.31999999
-1.876 -7.1479998 -1.2410001 0.34999999
-1.859 -7.1750002 -1.245 0.28999999
-1.839 -7.191 -1.247 0.27000001
-1.818 -7.204 -1.248 0.34
-1.795 -7.2059999 -1.248 0.28999999
-1.771 -7.2059999 -1.247 0.28999999
-1.739 -7.1750002 -1.24 0.27000001
-1.729 -7.1810002 -1.24 0.31999999
-1.702 -7.1680002 -1.237 0.36000001
-1.679 -7.1729999 -1.237 0.34
-1.661 -7.197 -1.24 0.34
-1.635 -7.1890001 -1.238 0.36000001
-1.6160001 -7.2080002 -1.24 0.31
-1.592 -7.2090001 -1.24 0.28999999
-1.573 -7.1750002 -1.233 0.34999999
-1.551 -7.184 -1.233 0.31
-1.534 -7.2150002 -1.239 0.33000001
-1.511 -7.2179999 -1.238 0.31999999
-1.489 -7.223 -1.238 0.28999999
-1.464 -7.2199998 -1.237 0.31
-1.439 -7.2090001 -1.234 0.34999999
-1.427 -7.2090001 -1.233 0.31
-1.402 -7.2020001 -1.2309999 0.25
-1.365 -7.131 -1.217 0.34999999
-1.3430001 -7.1389999 -1.2180001 0.28999999
-1.33 -7.1939998 -1.227 0.33000001
-1.302 -7.1669998 -1.221 0.31
-1.28 -7.1750002 -1.222 0.31999999
-1.275 -7.2160001 -1.229 0.28
-1.25 -7.204 -1.227 0.23
-1.23 -7.224 -1.229 0.38
-1.205 -7.2160001 -1.227 0.28999999
-1.1799999 -7.2059999 -1.225 0.34
-1.1569999 -7.2059999 -1.224 0.27000001
-1.147 -7.211 -1.225 0.38
-1.122 -7.2049999 -1.223 0.36000001
-1.1 -7.2129998 -1.224 0.28999999
-1.0779999 -7.2160001 -1.224 0.2
-1.04 -7.1199999 -1.205 0.31999999
-0.977 -6.8429999 -1.153 0.18000001
-0.91299999 -6.5539999 -1.098 0.33000001
-0.91100001 -6.6139998 -1.109 0.30000001
-0.88300002 -6.5619998 -1.099 0.28
-0.84600002 -6.4460001 -1.077 0.25
-0.824 -6.4369998 -1.075 0.43000001
-0.815 -6.5240002 -1.09 0.31
-0.79400003 -6.52 -1.089 0.28
-0.76499999 -6.4559999 -1.077 0.33000001
-0.713 -6.1100001 -1.012 0.34999999
-0.72000003 -6.3330002 -1.053 0.30000001
-0.70899999 -6.4109998 -1.067 0.25
-0.68900001 -6.421 -1.069 0.36000001
-0.65899998 -6.3319998 -1.052 0.34999999
-0.63599998 -6.3060002 -1.0470001 0.37
-0.61000001 -6.2459998 -1.035 0.30000001
-0.59899998 -6.2350001 -1.033 0.23
-0.57499999 -6.1919999 -1.024 0.31
-0.55599999 -6.1919999 -1.024 0.38
-0.53500003 -6.1849999 -1.023 0.41
-0.51499999 -6.1750002 -1.02 0.27000001
-0.49700001 -6.1890001 -1.023 0.51999998
-0.46700001 -6.0609999 -0.99900001 0.31
-0.43399999 -5.777 -0.94599998 0.34999999
-0.41499999 -5.7649999 -0.94300002 0.31
-0.39700001 -5.7680001 -0.94400001 0.31
-0.38 -5.7810001 -0.94599998 0.30000001
-0.36000001 -5.7550001 -0.94099998 0.38999999
-0.338 -5.6950002 -0.93000001 0.34999999
-0.32100001 -5.71 -0.93199998 0.34
-0.31299999 -5.73 -0.93599999 0.38
-0.29499999 -5.7350001 -0.93699998 0.37
-0.27900001 -5.763 -0.94199997 0.40000001
-0.25999999 -5.7540002 -0.94 0.37
-0.242 -5.743 -0.93800002 0.41
-0.22400001 -5.75 -0.93900001 0.36000001
-0.215 -5.7480001 -0.93800002 0.44
-0.19599999 -5.7309999 -0.935 0.36000001
-0.177 -5.7160001 -0.93199998 0.43000001
-0.15899999 -5.7189999 -0.93300003 0.41
-0.141 -5.7189999 -0.93300003 0.33000001
-0.122 -5.6620002 -0.92199999 0.31999999
-0.104 -5.6609998 -0.92199999 0.37
-0.096000001 -5.671 -0.92299998 0.43000001
-0.078000002 -5.665 -0.92199999 0.36000001
-0.059999999 -5.652 -0.92000002 0.38
-0.041999999 -5.6459999 -0.91900003 0.38
-0.024 -5.6479998 -0.91900003 0.34999999
-0.0060000001 -5.678 -0.92500001 0.44
0.011 -5.652 -0.92000002 0.38
0.02 -5.6539998 -0.92000002 0.38
0.037999999 -5.6560001 -0.921 0.33000001
0.056000002 -5.6220002 -0.91399997 0.44999999
0.074000001 -5.6440001 -0.91799998 0.34
0.090999998 -5.6199999 -0.91399997 0.33000001
0.109 -5.612 -0.91299999 0.56999999
0.122 -5.3730001 -0.86900002 0
0.085000001 -3.0350001 -0.43599999 0
0.093999997 -3.027 -0.435 0.059999999
0.104 -3.0150001 -0.433 0.079999998
0.113 -3.0050001 -0.43099999 0.14
0.123 -3.0239999 -0.435 0.25
0.131 -2.9820001 -0.42699999 0.23
0.14 -2.9860001 -0.428 0.27000001
0.146 -3.003 -0.43099999 0.28
0.155 -2.997 -0.43000001 0.19
0.16500001 -3 -0.43099999 0.14
0.17399999 -3.01 -0.43200001 0.19
0.184 -3.017 -0.43399999 0.1
0.193 -3.006 -0.43200001 0
0.36399999 -5.605 -0.91299999 0.12
0.38299999 -5.6209998 -0.917 0.33000001
0.403 -5.651 -0.92199999 0.31999999
0.421 -5.6620002 -0.92500001 0.40000001
0.43799999 -5.651 -0.92299998 0.36000001
0.45899999 -5.6849999 -0.92900002 0.41
0.46700001 -5.6760001 -0.92799997 0.34999999
0.484 -5.6609998 -0.92500001 0.33000001
0.50400001 -5.6849999 -0.93000001 0.40000001
0.52100003 -5.677 -0.92900002 0.37
0.54000002 -5.6869998 -0.93099999 0.34
0.56199998 -5.7329998 -0.94 0.31999999
0.57800001 -5.7049999 -0.935 0.44999999
0.58899999 -5.7280002 -0.93900001 0.34
0.60900003 -5.744 -0.94300002 0.37
0.625 -5.7280002 -0.94 0.34999999
0.64499998 -5.7399998 -0.94300002 0.44999999
0.67000002 -5.8000002 -0.954 0.34999999
0.68699998 -5.79 -0.95300001 0.37
0.70499998 -5.7880001 -0.95300001 0.34
0.71899998 -5.8280001 -0.96100003 0.31999999
0.736 -5.8119998 -0.958 0.44
0.75599998 -5.823 -0.96100003 0.41999999
0.76800001 -5.7719998 -0.95099998 0.25
0.79299998 -5.8189998 -0.96100003 0.44
0.80800003 -5.7969999 -0.95700002 0.34
0.81999999 -5.8150001 -0.96100003 0.28
0.84299999 -5.8429999 -0.96600002 0.44999999
0.86299998 -5.8540001 -0.96899998 0.28999999
0.88 -5.8460002 -0.96799999 0.37
0.89700001 -5.8309999 -0.96600002 0.25999999
0.926 -5.8979998 -0.97899997 0.41
0.94800001 -5.9169998 -0.98299998 0.38999999
0.94800001 -5.855 -0.97100002 0.34999999
0.96899998 -5.8699999 -0.97500002 0.27000001
0.99599999 -5.9190001 -0.98500001 0.36000001
1.026 -5.9860001 -0.99800003 0.27000001
1.054 -6.039 -1.008 0.30000001
1.076 -6.0510001 -1.011 0.44
1.0930001 -6.0359998 -1.0089999 0.33000001
1.099 -6.0149999 -1.005 0.34
1.122 -6.0339999 -1.01 0.38
1.16 -6.1329999 -1.029 0.41999999
1.186 -6.1659999 -1.036 0.25
1.2819999 -6.4499998 -1.091 0.38999999
1.257 -6.217 -1.0470001 0.19
1.436 -7.0630002 -1.207 0.27000001
1.466 -7.1009998 -1.215 0.33000001
1.495 -7.125 -1.221 0.31999999
1.517 -7.119 -1.22 0.28
1.35 -6.223 -1.052 0.25
1.363 -6.1919999 -1.0470001 0.38
1.387 -6.2049999 -1.05 0.33000001
1.51 -6.7160001 -1.147 0.31
1.544 -6.7719998 -1.159 0.31
1.571 -6.7919998 -1.164 0.22
1.651 -7.04 -1.212 0.27000001
1.694 -7.1230001 -1.228 0.30000001
1.712 -7.1009998 -1.225 0.38999999
1.71 -7.0419998 -1.215 0.18000001
1.748 -7.1020002 -1.227 0.41999999
1.777 -7.1230001 -1.232 0.34
1.799 -7.118 -1.232 0.28999999
1.8279999 -7.1389999 -1.237 0.38
1.854 -7.1440001 -1.239 0.38
1.881 -7.1570001 -1.243 0.28999999
1.893 -7.1560001 -1.243 0.36000001
1.9170001 -7.158 -1.245 0.36000001
1.9400001 -7.152 -1.245 0.31999999
1.967 -7.165 -1.248 0.31999999
1.994 -7.1760001 -1.252 0.30000001
2.016 -7.1669998 -1.251 0.30000001
2.04 -7.1669998 -1.252 0.28999999
2.0510001 -7.1599998 -1.252 0.27000001
2.0699999 -7.1440001 -1.25 0.28999999
2.0940001 -7.1409998 -1.251 0.28
2.115 -7.131 -1.25 0.34999999
2.138 -7.1240001 -1.25 0.33000001
2.1600001 -7.1170001 -1.25 0.33000001
2.181 -7.1069999 -1.249 0.34999999
2.1949999 -7.1110001 -1.251 0.36000001
2.2219999 -7.119 -1.253 0.31999999
2.247 -7.1209998 -1.255 0.31999999
2.2679999 -7.1100001 -1.255 0.30000001
2.2909999 -7.105 -1.255 0.20999999
2.26 -6.9330001 -1.223 0.07
2.0999999 -6.4000001 -1.12 0
2.0899999 -6.3039999 -1.103 0
2.1210001 -6.3309999 -1.109 0
2.102 -6.2059999 -1.086 0.090000004
2.0239999 -5.8509998 -1.0190001 0.34
2.049 -5.8649998 -1.023 0.039999999
2.04 -5.8080001 -1.013 0
2.0409999 -5.7509999 -1.003 0
2.0610001 -5.75 -1.0039999 0
2.073 -5.7290001 -1.001 0
2.0710001 -5.6669998 -0.99000001 0
2.059 -5.5770001 -0.97399998 0
2.063 -5.5339999 -0.96700001 0
2.063 -5.5079999 -0.96200001 0
2.0550001 -5.4320002 -0.949 0
2.059 -5.2909999 -0.92500001 0
2.059 -5.2399998 -0.91600001 0
2.059 -5.1919999 -0.90700001 0
2.052 -5.152 -0.89999998 0
2.05 -5.0999999 -0.89099997 0
2.063 -5.0840001 -0.889 0
2.0409999 -4.9850001 -0.87099999 0
2.052 -4.967 -0.86900002 0
2.0610001 -4.9429998 -0.86500001 0
2.049 -4.8709998 -0.852 0
2.0409999 -4.8309999 -0.84500003 0
2.0469999 -4.8010001 -0.83999997 0
2.0450001 -4.7550001 -0.83200002 0
2.0539999 -4.7340002 -0.829 0
2.0610001 -4.711 -0.82599998 0
2.0569999 -4.6599998 -0.81699997 0
2.046 -4.6149998 -0.80800003 0
2.056 -4.598 -0.80599999 0
2.052 -4.5500002 -0.79799998 0
2.0539999 -4.5170002 -0.792 0
2.063 -4.4990001 -0.79000002 0
2.0480001 -4.428 -0.77700001 0
2.0650001 -4.4289999 -0.778 0
2.066 -4.4130001 -0.77600002 0
2.063 -4.369 -0.76800001 0.029999999
2.0510001 -4.3099999 -0.75700003 0
2.0680001 -4.3099999 -0.759 0
2.0669999 -4.2719998 -0.75199997 0
2.0669999 -4.2389998 -0.74699998 0
2.0650001 -4.1999998 -0.74000001 0
2.0650001 -4.1830001 -0.73699999 0
2.0680001 -4.1570001 -0.73299998 0
2.0739999 -4.1350002 -0.73000002 0
2.0699999 -4.0949998 -0.72299999 0
2.0769999 -4.0780001 -0.72100002 0
2.0829999 -4.0570002 -0.71799999 0
2.085 -4.0289998 -0.71399999 0
2.0769999 -3.9979999 -0.708 0
2.0869999 -3.9860001 -0.70700002 0
2.0899999 -3.9619999 -0.70300001 0
2.085 -3.921 -0.69599998 0
2.1010001 -3.921 -0.69700003 0
2.1029999 -3.895 -0.69300002 0
2.0999999 -3.8610001 -0.68800002 0
2.1070001 -3.8599999 -0.68800002 0
2.1059999 -3.829 -0.68300003 0
2.1099999 -3.8080001 -0.68000001 0
2.112 -3.783 -0.676 0
2.118 -3.766 -0.67400002 0
2.1210001 -3.744 -0.67000002 0
2.1210001 -3.73 -0.66799998 0
2.1229999 -3.704 -0.66399997 0
2.1300001 -3.691 -0.66299999 0
2.1370001 -3.6760001 -0.66100001 0
2.1329999 -3.642 -0.65499997 0
2.132 -3.615 -0.65100002 0
2.142 -3.6040001 -0.64999998 0
2.1389999 -3.5880001 -0.64700001 0
2.1470001 -3.5739999 -0.64600003 0
2.148 -3.55 -0.64200002 0
2.155 -3.5369999 -0.64099997 0
2.158 -3.517 -0.63800001 0
2.165 -3.503 -0.63599998 0
2.1659999 -3.4809999 -0.63300002 0
2.1630001 -3.4630001 -0.63 0
2.178 -3.4630001 -0.63099998 0
2.175 -3.434 -0.62599999 0
2.178 -3.4159999 -0.62400001 0
2.188 -3.4070001 -0.62400001 0
2.1889999 -3.385 -0.62 0
2.1889999 -3.362 -0.61699998 0
2.1949999 -3.358 -0.61699998 0
2.197 -3.3380001 -0.61400002 0
2.1949999 -3.313 -0.61000001 0
2.2119999 -3.316 -0.61199999 0
2.2149999 -3.2980001 -0.60900003 0
2.217 -3.2780001 -0.60600001 0
2.224 -3.266 -0.60500002 0
2.223 -3.2539999 -0.60399997 0
2.2360001 -3.25 -0.60399997 0
2.2420001 -3.2379999 -0.60299999 0
2.25 -3.2279999 -0.60299999 0
2.2639999 -3.2260001 -0.60399997 0
2.2750001 -3.22 -0.60399997 0
2.4560001 -3.1619999 -0.61500001 0
2.4319999 -3.109 -0.60500002 0
2.4430001 -3.1029999 -0.60500002 0
2.4630001 -3.109 -0.60799998 0
2.4679999 -3.095 -0.60699999 0
2.4849999 -3.1070001 -0.61000001 0
2.4990001 -3.1029999 -0.61199999 0
2.523 -3.1140001 -0.616 0
2.5409999 -3.1170001 -0.61799997 0
2.549 -3.1059999 -0.61799997 0
2.566 -3.1070001 -0.62 0
2.5880001 -3.1140001 -0.62400001 0
2.572 -3.0840001 -0.61699998 0
2.5840001 -3.079 -0.61799997 0
2.609 -3.089 -0.62199998 0
2.6210001 -3.0840001 -0.62300003 0
2.638 -3.085 -0.625 0
2.645 -3.073 -0.625 0
2.641 -3.049 -0.62099999 0
2.651 -3.05 -0.62199998 0
2.671 -3.0539999 -0.625 0
2.687 -3.053 -0.62699997 0
2.6860001 -3.033 -0.62400001 0
2.6989999 -3.029 -0.625 0
2.7219999 -3.0350001 -0.62900001 0
2.7390001 -3.0350001 -0.63099998 0
2.7550001 -3.043 -0.634 0
2.7709999 -3.0409999 -0.63599998 0
2.882 -3.0179999 -0.64600003 0
2.891 -3.0090001 -0.64600003 0
2.904 -3.003 -0.64700001 0
3.1329999 -3.006 -0.67799997 0
3.155 -3.0090001 -0.68099999 0
3.1830001 -3.016 -0.68599999 0
3.1949999 -3.0179999 -0.68800002 0
3.2219999 -3.0239999 -0.69199997 0
3.227 -3.01 -0.69099998 0
3.2520001 -3.0150001 -0.69499999 0
3.2690001 -3.0109999 -0.69700003 0
3.2850001 -3.0079999 -0.69800001 0
3.3150001 -3.016 -0.704 0
3.3269999 -3.017 -0.70499998 0
3.3380001 -3.0079999 -0.70599997 0
3.3740001 -3.0220001 -0.71200001 0
3.3889999 -3.016 -0.71399999 0
3.4159999 -3.0209999 -0.71799999 0
3.4489999 -3.0309999 -0.72399998 0
3.4579999 -3.03 -0.72500002 0
3.4909999 -3.04 -0.73100001 0
3.5420001 -3.0650001 -0.741 0
3.579 -3.0769999 -0.74800003 0
4.7010002 -4.0009999 -1.016 0
4.6789999 -3.957 -1.008 0
4.6729999 -3.9400001 -1.005 0
4.6929998 -3.931 -1.007 0
4.6929998 -3.9070001 -1.0039999 0.050000001
4.796 -3.967 -1.026 0.14
4.842 -3.98 -1.034 0.17
4.8709998 -3.9779999 -1.038 0.039999999
4.8850002 -3.964 -1.038 0.16
4.9109998 -3.973 -1.043 0.11
4.9330001 -3.9649999 -1.045 0.18000001
4.9369998 -3.9430001 -1.043 0.12
4.947 -3.925 -1.0420001 0.18000001
4.9530001 -3.905 -1.041 0.050000001
4.9499998 -3.8770001 -1.0369999 0.18000001
4.9429998 -3.8469999 -1.033 0.11
4.9310002 -3.8239999 -1.028 0.18000001
4.9400001 -3.8069999 -1.028 0.11
4.9299998 -3.7739999 -1.023 0.17
4.9419999 -3.7590001 -1.023 0
4.7940001 -3.622 -0.986 0
4.6719999 -3.506 -0.95499998 0
4.6469998 -3.464 -0.94599998 0
4.6490002 -3.454 -0.94599998 0
4.652 -3.4330001 -0.94400001 0.029999999
4.6560001 -3.414 -0.94199997 0.16
4.6700001 -3.402 -0.94300002 0.20999999
4.6669998 -3.3770001 -0.94 0.30000001
4.6609998 -3.3499999 -0.93599999 0.28
4.6669998 -3.3429999 -0.93599999 0.36000001
4.6750002 -3.3269999 -0.93599999 0.30000001
4.6810002 -3.309 -0.935 0.31999999
4.691 -3.2939999 -0.935 0.31999999
4.6919999 -3.273 -0.93300003 0.31999999
4.7020001 -3.2579999 -0.93300003 0.34999999
4.7059999 -3.2390001 -0.93099999 0.31999999
4.7080002 -3.2290001 -0.93000001 0.36000001
4.7179999 -3.214 -0.93000001 0.38999999
4.7309999 -3.2019999 -0.93099999 0.34
4.743 -3.188 -0.93099999 0.38999999
4.7470002 -3.1689999 -0.93000001 0.41
4.7579999 -3.155 -0.93000001 0.41
4.7649999 -3.138 -0.93000001 0.44999999
4.7659998 -3.128 -0.92900002 0.43000001
4.7750001 -3.112 -0.92900002 0.41
4.7880001 -3.099 -0.92900002 0.34999999
4.8119998 -3.0940001 -0.93300003 0.36000001
4.8169999 -3.075 -0.93099999 0.34
4.8400002 -3.069 -0.93400002 0.31999999
4.8540001 -3.0569999 -0.935 0.30000001
4.8540001 -3.046 -0.93400002 0.30000001
4.8670001 -3.033 -0.935 0.27000001
4.8969998 -3.03 -0.93900001 0.23
4.901 -3.0109999 -0.93800002 0.13
4.9320002 -3.0090001 -0.94300002 0.54000002
4.9419999 -2.994 -0.94300002 0.14
4.948 -2.987 -0.94300002 0.20999999
4.9689999 -2.9790001 -0.94599998 0.17
4.9990001 -2.9749999 -0.94999999 0.25999999
5.0229998 -2.9690001 -0.954 0.16
5.046 -2.961 -0.95700002 0.25999999
5.0640001 -2.95 -0.958 0.19
5.0760002 -2.9360001 -0.95899999 0.12
5.0879998 -2.9319999 -0.96100003 0.19
5.1209998 -2.9300001 -0.96600002 0.11
5.145 -2.9230001 -0.96899998 0.16
5.1560001 -2.9070001 -0.96899998 0.050000001
5.1760001 -2.8970001 -0.97100002 0.17
5.211 -2.895 -0.977 0.11
5.2519999 -2.8970001 -0.98400003 0.17
5.2550001 -2.888 -0.98299998 0.050000001
5.2729998 -2.8759999 -0.98500001 0.16
5.3080001 -2.8729999 -0.991 0.050000001
5.3429999 -2.8710001 -0.99599999 0.079999998
5.3600001 -2.859 -0.99800003 0.039999999
5.3930001 -2.855 -1.003 0
5.4159999 -2.845 -1.006 0
5.4450002 -2.8499999 -1.011 0
5.5219998 -2.868 -1.025 0
5.527 -2.849 -1.024 0
5.5500002 -2.839 -1.027 0
5.6030002 -2.8440001 -1.036 0
5.631 -2.836 -1.04 0
5.6859999 -2.8410001 -1.05 0
5.7309999 -2.8529999 -1.058 0
5.7620001 -2.846 -1.063 0
5.8280001 -2.8559999 -1.075 0
5.9070001 -2.872 -1.089 0
5.9660001 -2.878 -1.099 0
6.099 -2.9189999 -1.125 0
6.2319999 -2.9590001 -1.15 0.1
7.6230001 -3.6110001 -1.434 0.23
7.6479998 -3.5940001 -1.437 0.34
7.6110001 -3.5480001 -1.427 0.28
7.6139998 -3.52 -1.425 0.31999999
7.6079998 -3.4879999 -1.4220001 0.23
7.6090002 -3.4590001 -1.42 0.5
7.6750002 -3.461 -1.431 0.38
7.7449999 -3.4779999 -1.444 0.36000001
7.7579999 -3.454 -1.4450001 0.36000001
7.7129998 -3.405 -1.433 0.30000001
7.7470002 -3.391 -1.438 0.34
7.7680001 -3.372 -1.4400001 0.37
7.7639999 -3.3410001 -1.437 0.38999999
7.822 -3.3510001 -1.448 0.31999999
7.8200002 -3.3210001 -1.4450001 0.31999999
7.823 -3.2939999 -1.444 0.36000001
7.868 -3.283 -1.451 0.38
7.9200001 -3.276 -1.459 0.31
7.9349999 -3.2539999 -1.46 0.38999999
7.9489999 -3.23 -1.461 0.36000001
7.9400001 -3.2119999 -1.4579999 0.41999999
7.9419999 -3.184 -1.457 0.31999999
7.9910002 -3.174 -1.464 0.31999999
8.0880003 -3.184 -1.482 0.30000001
8.1199999 -3.1670001 -1.4859999 0.43000001
8.1630001 -3.154 -1.493 0.34999999
8.191 -3.1359999 -1.4960001 0.38999999
8.1800003 -3.1170001 -1.493 0.33000001
