# .PCD v0.7 - Point Cloud Data file format
VERSION 0.7
FIELDS x y z intensity
SIZE 4 4 4 4
TYPE F F F F
COUNT 1 1 1 1
WIDTH 1381
HEIGHT 1
VIEWPOINT 0 0 0 1 0 0 0
POINTS 1381
DATA ascii
-5.1469998 4.2069998 -1.742 0.23999999
-5.1630001 4.1939998 -1.743 0.28999999
-5.1929998 4.191 -1.749 0.25
-5.223 4.1880002 -1.755 0.13
-5.1859999 4.132 -1.737 0.34
-5.276 4.177 -1.765 0.25
-5.3150001 4.1799998 -1.774 0.22
-5.3239999 4.1739998 -1.775 0.14
-5.3590002 4.1739998 -1.783 0.28999999
-5.3660002 4.1529999 -1.78 0.54000002
-5.3969998 4.1500001 -1.7869999 0.36000001
-5.4039998 4.1279998 -1.785 0.46000001
-5.4229999 4.1160002 -1.7869999 0.25
-5.4190001 4.086 -1.781 0.51999998
-5.4250002 4.0770001 -1.781 0.25
-5.4549999 4.073 -1.7869999 0.46000001
-5.4970002 4.0780001 -1.7970001 0.36000001
-5.5279999 4.0739999 -1.804 0.41
-5.54 4.0560002 -1.803 0.30000001
-5.566 4.0489998 -1.808 0.47999999
-5.5679998 4.0229998 -1.804 0.31999999
-5.5619998 4.0050001 -1.8 0.34
-5.6009998 4.007 -1.809 0.37
-5.5900002 3.973 -1.801 0.37
-5.618 3.9660001 -1.806 0.36000001
-5.6399999 3.9549999 -1.8099999 0.38999999
-5.6669998 3.947 -1.814 0.36000001
-5.671 3.924 -1.812 0.34
-5.6849999 3.921 -1.814 0.44999999
-5.7399998 3.9319999 -1.829 0.25
-5.7589998 3.9189999 -1.831 0.51999998
-5.7810001 3.9070001 -1.834 0.34999999
-5.8070002 3.8989999 -1.839 0.38999999
-5.823 3.8829999 -1.84 0.28999999
-5.8400002 3.8670001 -1.842 0.25
-5.8439999 3.8570001 -1.841 0.31999999
-5.8639998 3.8440001 -1.844 0.37
-5.8730001 3.8239999 -1.8430001 0.34
-5.8920002 3.809 -1.845 0.31999999
-5.8889999 3.7809999 -1.84 0.25999999
-5.9109998 3.7690001 -1.844 0.28
-5.9289999 3.7550001 -1.846 0.34999999
-5.9400001 3.7479999 -1.847 0.33000001
-5.9499998 3.7290001 -1.847 0.31
-5.9580002 3.7079999 -1.846 0.28
-5.973 3.691 -1.847 0.31
-6.0009999 3.6830001 -1.852 0.31999999
-5.9949999 3.6530001 -1.846 0.28999999
-5.9980001 3.6289999 -1.844 0.34999999
-6.0139999 3.6129999 -1.845 0.23
-6.0100002 3.5969999 -1.842 0.20999999
-6.0279999 3.5829999 -1.844 0.30000001
-6.0609999 3.576 -1.851 0.49000001
-6.0819998 3.563 -1.854 0.28999999
-6.0799999 3.536 -1.85 0.25
-6.0669999 3.5039999 -1.842 0.23
-6.0949998 3.494 -1.848 0.44
-6.1040001 3.487 -1.849 0.25
-6.118 3.4690001 -1.85 0.47
-6.132 3.4519999 -1.851 0.37
-6.1550002 3.4389999 -1.855 0.34
-6.1659999 3.4200001 -1.855 0.30000001
-6.1659999 3.395 -1.852 0.25
-6.1820002 3.378 -1.853 0.31
-6.2010002 3.3759999 -1.858 0.30000001
-6.1960001 3.348 -1.853 0.31999999
-6.2270002 3.3399999 -1.859 0.36000001
-6.2290001 3.316 -1.8559999 0.30000001
-6.2340002 3.293 -1.855 0.31999999
-6.2309999 3.266 -1.851 0.25999999
-6.25 3.2509999 -1.853 0.31
-6.25 3.2390001 -1.852 0.31
-6.263 3.221 -1.853 0.34
-6.263 3.1960001 -1.849 0.23
-6.2779999 3.1789999 -1.851 0.37
-6.2729998 3.151 -1.846 0.30000001
-6.2880001 3.1340001 -1.848 0.34999999
-6.2870002 3.109 -1.845 0.27000001
-6.309 3.108 -1.85 0
-6.2859998 3.072 -1.84 0
-6.2989998 3.0539999 -1.841 0
-5.6599998 -2.5009999 -1.613 0
-5.5739999 -2.4849999 -1.589 0.02
-5.5279999 -2.4849999 -1.577 0.15000001
-5.5159998 -2.5009999 -1.576 0.23
-5.612 -2.5650001 -1.608 0.30000001
-5.6160002 -2.5880001 -1.612 0.25
-5.5650001 -2.576 -1.597 0.28
-5.5240002 -2.5780001 -1.587 0.44999999
-5.4910002 -2.5840001 -1.58 0.30000001
-5.4549999 -2.5880001 -1.571 0.34999999
-5.447 -2.605 -1.571 0.44999999
-5.4720001 -2.638 -1.581 0.44999999
-5.5139999 -2.6789999 -1.597 0.41
-5.5599999 -2.7119999 -1.613 0.27000001
-5.5440001 -2.7260001 -1.61 0.28999999
-5.4400001 -2.697 -1.581 0.34
-5.3990002 -2.698 -1.5700001 0.25999999
-5.348 -2.6930001 -1.557 0.49000001
-5.4699998 -2.776 -1.598 0.34999999
-5.3559999 -2.74 -1.5650001 0.5
-5.6389999 -2.8940001 -1.655 0.27000001
-5.546 -2.869 -1.6289999 0.20999999
-5.3000002 -2.7639999 -1.554 0.30000001
-5.2639999 -2.767 -1.546 0.5
-5.2470002 -2.779 -1.543 0.30000001
-5.2090001 -2.78 -1.534 0.51999998
-5.349 -2.875 -1.581 0.14
-5.276 -2.8469999 -1.559 0.56
-5.46 -2.9679999 -1.6210001 0.20999999
-5.2379999 -2.869 -1.553 0.44
-5.3720002 -2.964 -1.598 0.23
-5.2150002 -2.8989999 -1.551 0.47999999
-5.2389998 -2.934 -1.562 0.31
-5.3239999 -3.003 -1.592 0.41999999
-5.3280001 -3.016 -1.595 0.41
-5.2709999 -3.007 -1.58 0.38
-5.2550001 -3.0190001 -1.577 0.44999999
-5.257 -3.0420001 -1.581 0.37
-5.2610002 -3.0669999 -1.586 0.46000001
-5.2610002 -3.089 -1.589 0.47999999
-5.3200002 -3.145 -1.6109999 0.31999999
-5.2800002 -3.1329999 -1.6 0.41
-5.2399998 -3.132 -1.59 0.30000001
-5.2160001 -3.1400001 -1.585 0.37
-5.2090001 -3.158 -1.586 0.33000001
-5.1989999 -3.174 -1.586 0.44999999
-5.1939998 -3.194 -1.5880001 0.34
-5.1739998 -3.204 -1.584 0.44999999
-5.1900001 -3.2360001 -1.5930001 0.34999999
-5.1739998 -3.237 -1.589 0.41999999
-5.1719999 -3.2590001 -1.592 0.41999999
-5.1609998 -3.2750001 -1.592 0.49000001
-5.197 -3.3199999 -1.607 0.31999999
-5.3189998 -3.421 -1.651 0.38
-5.3260002 -3.4489999 -1.6569999 0.31
-5.2509999 -3.424 -1.636 0.30000001
-5.2550001 -3.4389999 -1.6390001 0.33000001
-5.2140002 -3.4349999 -1.6289999 0.49000001
-5.224 -3.4649999 -1.636 0.28999999
-5.2059999 -3.4779999 -1.6339999 0.43000001
-5.224 -3.513 -1.643 0.34999999
-5.2150002 -3.5309999 -1.6440001 0.47
-5.1989999 -3.5439999 -1.642 0.31
-5.2249999 -3.5739999 -1.653 0.47999999
-5.2379999 -3.6059999 -1.661 0.30000001
-5.2090001 -3.6110001 -1.655 0.49000001
-5.2940001 -3.694 -1.688 0.22
-5.2319999 -3.675 -1.671 0.44999999
-5.23 -3.698 -1.674 0.44999999
-5.2639999 -3.747 -1.6900001 0.25999999
-5.2470002 -3.747 -1.686 0.51999998
-5.2480001 -3.773 -1.6900001 0.25999999
-5.2270002 -3.783 -1.687 0.60000002
-5.6300001 -4.099 -1.831 0.31999999
-5.7030001 -4.1789999 -1.86 0.41
-5.697 -4.2020001 -1.863 0.18000001
-5.2859998 -3.927 -1.724 0.41999999
-5.2550001 -3.9170001 -1.716 0.44999999
-5.3720002 -4.0300002 -1.761 0.2
-5.244 -3.96 -1.72 0.56999999
-5.5879998 -4.2449999 -1.846 0.25
-5.283 -4.0419998 -1.743 0.43000001
-5.2540002 -4.046 -1.737 0.34
-5.2449999 -4.066 -1.739 0.37
-5.2010002 -4.0440001 -1.725 0.34
-5.2049999 -4.0739999 -1.7309999 0.41999999
-5.2379999 -4.1259999 -1.747 0.31999999
-5.2199998 -4.138 -1.7460001 0.49000001
-5.2030001 -4.151 -1.744 0.5
-5.2210002 -4.1929998 -1.756 0.16
-9.2559996 -7.4549999 -3.21 0.31
-9.2019997 -7.4349999 -3.1949999 0.2
-5.4310002 -4.4299998 -1.8430001 0.51999998
-5.2750001 -4.3309999 -1.7920001 0.41999999
-5.96 -4.921 -2.0450001 0.31
-5.928 -4.9260001 -2.039 0.28
-5.9310002 -4.96 -2.046 0.46000001
-5.6739998 -4.777 -1.957 0.18000001
-5.1999998 -4.4089999 -1.79 0.57999998
-5.1830001 -4.408 -1.786 0.25999999
-5.1570001 -4.415 -1.781 0.16
-5.395 -4.6459999 -1.874 0.54000002
-6.8379998 -5.9159999 -2.4130001 0.19
-5.6880002 -4.9899998 -2 0.61000001
-5.8239999 -5.1409998 -2.056 0.30000001
-5.316 -4.71 -1.869 0.54000002
-5.2690001 -4.6989999 -1.858 0.34
-5.0960002 -4.5749998 -1.798 0.34
-5.0650001 -4.5749998 -1.7920001 0.31999999
-5.0560002 -4.5960002 -1.794 0.30000001
-5.026 -4.598 -1.788 0.34
-5.0089998 -4.6110001 -1.7869999 0.30000001
-4.9970002 -4.6149998 -1.785 0.31
-4.974 -4.6230001 -1.7819999 0.33000001
-4.9549999 -4.6339998 -1.78 0.36000001
-4.941 -4.6500001 -1.78 0.28999999
-4.9180002 -4.658 -1.777 0.34999999
-4.8930001 -4.664 -1.773 0.33000001
-4.8759999 -4.6760001 -1.772 0.34
-4.8699999 -4.6849999 -1.773 0.34
-4.8429999 -4.6890001 -1.768 0.31
-4.8280001 -4.704 -1.768 0.33000001
-4.8119998 -4.7179999 -1.767 0.36000001
-4.79 -4.7259998 -1.765 0.34
-4.77 -4.7360001 -1.763 0.34
-4.7519999 -4.7480001 -1.761 0.25999999
-4.7389998 -4.75 -1.7589999 0.41
-4.7150002 -4.7550001 -1.756 0.30000001
-4.6929998 -4.763 -1.753 0.34999999
-4.6750002 -4.7750001 -1.752 0.34999999
-4.6529999 -4.783 -1.749 0.34
-4.638 -4.7979999 -1.749 0.30000001
-4.6170001 -4.8049998 -1.7460001 0.38
-4.6009998 -4.8039999 -1.743 0.34999999
-4.586 -4.8189998 -1.743 0.34999999
-4.5630002 -4.8249998 -1.74 0.31
-4.546 -4.8369999 -1.739 0.31999999
-4.5219998 -4.842 -1.7359999 0.33000001
-4.4990001 -4.848 -1.732 0.34
-4.4819999 -4.8600001 -1.732 0.30000001
-4.4679999 -4.8600001 -1.729 0.37
-4.454 -4.8759999 -1.73 0.41
-4.428 -4.8779998 -1.725 0.36000001
-4.4130001 -4.8920002 -1.725 0.28999999
-4.3909998 -4.8990002 -1.723 0.43000001
-4.3769999 -4.914 -1.723 0.28999999
-4.3540001 -4.9190001 -1.72 0.41999999
-4.3270001 -4.9200001 -1.715 0.33000001
-4.3189998 -4.927 -1.715 0.36000001
-4.2969999 -4.9330001 -1.712 0.33000001
-4.2820001 -4.9460001 -1.712 0.31999999
-4.2690001 -4.9629998 -1.7130001 0.30000001
-4.2420001 -4.9629998 -1.709 0.49000001
-4.2220001 -4.9720001 -1.707 0.31
-4.1999998 -4.9780002 -1.704 0.34999999
-4.1890001 -4.98 -1.7029999 0.31999999
-4.1669998 -4.9860001 -1.7 0.40000001
-4.1529999 -5 -1.7 0.38999999
-4.1279998 -5.0029998 -1.697 0.31999999
-4.1079998 -5.0100002 -1.6950001 0.33000001
-4.0869999 -5.0170002 -1.692 0.34
-4.0689998 -5.027 -1.691 0.31999999
-4.0599999 -5.0320001 -1.691 0.41
-4.039 -5.0380001 -1.689 0.31999999
-4.0250001 -5.0539999 -1.6900001 0.36000001
-4.0019999 -5.0580001 -1.686 0.41
-3.983 -5.066 -1.6849999 0.37
-3.96 -5.0689998 -1.682 0.38999999
-3.938 -5.0739999 -1.679 0.33000001
-3.925 -5.0739999 -1.677 0.36000001
-3.901 -5.0760002 -1.673 0.36000001
-3.8870001 -5.0910001 -1.674 0.34
-3.8670001 -5.0970001 -1.6720001 0.37
-3.849 -5.1079998 -1.671 0.36000001
-3.832 -5.118 -1.671 0.34
-3.8069999 -5.118 -1.666 0.36000001
-3.7980001 -5.1220002 -1.666 0.43000001
-3.7720001 -5.1220002 -1.6619999 0.31999999
-3.7609999 -5.1399999 -1.664 0.40000001
-3.734 -5.138 -1.659 0.30000001
-3.7190001 -5.151 -1.659 0.28999999
-3.7090001 -5.1700001 -1.6619999 0.38
-3.688 -5.1760001 -1.66 0.31
-3.6730001 -5.1719999 -1.6569999 0.37
-3.6559999 -5.1820002 -1.656 0.34
-3.6359999 -5.1890001 -1.655 0.31999999
-3.608 -5.1830001 -1.649 0.41999999
-3.5999999 -5.2069998 -1.653 0.31999999
-3.573 -5.2020001 -1.648 0.38999999
-3.5539999 -5.21 -1.647 0.33000001
-3.5369999 -5.2199998 -1.646 0.41
-3.527 -5.2220001 -1.645 0.38999999
-3.506 -5.2270002 -1.643 0.31999999
-3.487 -5.2350001 -1.642 0.37
-3.4690001 -5.2420001 -1.641 0.36000001
-3.4530001 -5.2550001 -1.641 0.34
-3.4300001 -5.256 -1.638 0.34999999
-3.415 -5.25 -1.6339999 0.34
-3.3929999 -5.2529998 -1.631 0.36000001
-3.381 -5.27 -1.6339999 0.30000001
-3.3610001 -5.276 -1.632 0.36000001
-3.3410001 -5.2810001 -1.63 0.43000001
-3.3199999 -5.2849998 -1.628 0.31999999
-3.3069999 -5.3010001 -1.63 0.28999999
-3.293 -5.2979999 -1.627 0.46000001
-3.2739999 -5.303 -1.625 0.31999999
-3.25 -5.302 -1.622 0.41
-3.227 -5.302 -1.618 0.38
-3.214 -5.3169999 -1.62 0.31999999
-3.1919999 -5.3189998 -1.617 0.43000001
-3.1700001 -5.3210001 -1.615 0.31999999
-3.148 -5.322 -1.612 0.34
-3.1440001 -5.3340001 -1.614 0.38
-3.1229999 -5.3369999 -1.612 0.34999999
-3.1029999 -5.3400002 -1.61 0.36000001
-3.0829999 -5.3449998 -1.608 0.36000001
-3.0610001 -5.3460002 -1.605 0.38
-3.043 -5.3530002 -1.604 0.30000001
-3.0280001 -5.3660002 -1.605 0.41
-3.0139999 -5.362 -1.603 0.31999999
-2.997 -5.3699999 -1.602 0.33000001
-2.9779999 -5.3759999 -1.601 0.36000001
-2.9579999 -5.3800001 -1.6 0.38
-2.9389999 -5.3839998 -1.598 0.31999999
-2.921 -5.3920002 -1.597 0.36000001
-2.902 -5.3979998 -1.596 0.43000001
-2.888 -5.3920002 -1.5930001 0.34
-2.869 -5.3979998 -1.592 0.33000001
-2.848 -5.3979998 -1.589 0.34999999
-2.832 -5.4089999 -1.59 0.34
-2.8080001 -5.4060001 -1.586 0.31
-2.793 -5.4180002 -1.587 0.36000001
-2.7750001 -5.4250002 -1.587 0.41
-2.7639999 -5.4239998 -1.585 0.36000001
-2.747 -5.4330001 -1.585 0.33000001
-2.7309999 -5.4429998 -1.586 0.40000001
-2.7060001 -5.4359999 -1.581 0.33000001
-2.6889999 -5.4450002 -1.581 0.34999999
-2.671 -5.4510002 -1.58 0.33000001
-2.652 -5.4559999 -1.579 0.36000001
-2.641 -5.4549999 -1.577 0.38
-2.6229999 -5.4619999 -1.577 0.38
-2.6010001 -5.461 -1.574 0.41
-2.5810001 -5.4619999 -1.572 0.31999999
-2.566 -5.4759998 -1.574 0.37
-2.546 -5.4770002 -1.571 0.38
-2.5280001 -5.4829998 -1.571 0.31999999
-2.5190001 -5.487 -1.571 0.36000001
-2.4990001 -5.4899998 -1.569 0.34999999
-2.4809999 -5.494 -1.568 0.36000001
-2.46 -5.4949999 -1.566 0.34
-2.4430001 -5.5019999 -1.566 0.27000001
-2.425 -5.5079999 -1.566 0.44
-2.404 -5.507 -1.563 0.36000001
-2.3929999 -5.507 -1.562 0.31
-2.3729999 -5.5079999 -1.5599999 0.40000001
-2.359 -5.5219998 -1.562 0.34
-2.3380001 -5.5229998 -1.5599999 0.38999999
-2.3180001 -5.5229998 -1.557 0.38
-2.3 -5.5279999 -1.557 0.33000001
-2.2809999 -5.5320001 -1.556 0.41999999
-2.27 -5.5300002 -1.554 0.31999999
-2.25 -5.5300002 -1.552 0.38
-2.2320001 -5.5370002 -1.552 0.36000001
-2.211 -5.5349998 -1.549 0.34
-2.1949999 -5.5440001 -1.55 0.31999999
-2.1760001 -5.5469999 -1.549 0.34
-2.158 -5.5539999 -1.549 0.34999999
-2.145 -5.5469999 -1.546 0.34
-2.1270001 -5.552 -1.545 0.36000001
-2.1110001 -5.5599999 -1.546 0.31
-2.0899999 -5.559 -1.543 0.44999999
-2.0710001 -5.5609999 -1.5420001 0.30000001
-2.052 -5.5630002 -1.541 0.31
-2.036 -5.5749998 -1.5420001 0.38
-2.0139999 -5.5669999 -1.538 0.34
-2.0050001 -5.5700002 -1.538 0.38999999
-1.988 -5.5780001 -1.539 0.38999999
-1.966 -5.572 -1.535 0.38999999
-1.948 -5.5760002 -1.534 0.30000001
-1.929 -5.579 -1.533 0.28
-1.91 -5.5809999 -1.5319999 0.38999999
-1.8940001 -5.5910001 -1.533 0.36000001
-1.886 -5.5970001 -1.534 0.36000001
-1.865 -5.592 -1.531 0.37
-1.845 -5.5910001 -1.529 0.31999999
-1.8279999 -5.5970001 -1.529 0.34999999
-1.811 -5.6040001 -1.529 0.34
-1.789 -5.599 -1.526 0.34
-1.773 -5.6100001 -1.528 0.34
-1.762 -5.6030002 -1.525 0.36000001
-1.743 -5.605 -1.524 0.36000001
-1.725 -5.6090002 -1.523 0.38999999
-1.707 -5.6139998 -1.523 0.33000001
-1.689 -5.618 -1.523 0.34
-1.671 -5.6230001 -1.523 0.34999999
-1.652 -5.6230001 -1.521 0.34
-1.641 -5.6199999 -1.52 0.37
-1.624 -5.6269999 -1.52 0.36000001
-1.6059999 -5.6300001 -1.52 0.38999999
-1.585 -5.6240001 -1.516 0.33000001
-1.568 -5.6290002 -1.516 0.33000001
-1.55 -5.6360002 -1.517 0.30000001
-1.5319999 -5.6370001 -1.516 0.41999999
-1.521 -5.6339998 -1.5140001 0.37
-1.505 -5.6420002 -1.515 0.36000001
-1.483 -5.632 -1.511 0.34
-1.4680001 -5.6479998 -1.5140001 0.38
-1.446 -5.6370001 -1.51 0.31999999
-1.4299999 -5.6459999 -1.511 0.34
-1.4119999 -5.652 -1.512 0.38
-1.402 -5.6469998 -1.5089999 0.33000001
-1.383 -5.6469998 -1.508 0.38
-1.364 -5.6479998 -1.507 0.36000001
-1.348 -5.6560001 -1.508 0.34
-1.3279999 -5.6550002 -1.507 0.34999999
-1.311 -5.6589999 -1.507 0.34
-1.2920001 -5.6570001 -1.505 0.31999999
-1.284 -5.665 -1.507 0.31999999
-1.265 -5.665 -1.506 0.36000001
-1.244 -5.6539998 -1.501 0.28
-1.227 -5.6599998 -1.502 0.37
-1.212 -5.677 -1.506 0.28999999
-1.191 -5.6669998 -1.502 0.31999999
-1.173 -5.671 -1.502 0.31999999
-1.165 -5.6750002 -1.502 0.38999999
-1.146 -5.6750002 -1.501 0.30000001
-1.128 -5.6760001 -1.501 0.33000001
-1.1109999 -5.684 -1.502 0.31999999
-1.0930001 -5.6849999 -1.501 0.44
-1.071 -5.6700001 -1.4960001 0.23
-1.057 -5.6900001 -1.501 0.41
-1.036 -5.6760001 -1.4960001 0.20999999
-1.028 -5.684 -1.498 0.44
-1.0089999 -5.6810002 -1.4960001 0.23999999
-0.99000001 -5.6799998 -1.495 0.31999999
-0.972 -5.6799998 -1.494 0.34999999
-0.95499998 -5.6880002 -1.495 0.34
-0.935 -5.678 -1.492 0.33000001
-0.917 -5.6830001 -1.492 0.43000001
-0.90899998 -5.6880002 -1.493 0.28
-0.88999999 -5.6830001 -1.4910001 0.37
-0.87199998 -5.6880002 -1.492 0.40000001
-0.85500002 -5.6929998 -1.492 0.34
-0.83600003 -5.6880002 -1.49 0.34999999
-0.81800002 -5.6900001 -1.49 0.38
-0.80900002 -5.6900001 -1.489 0.31999999
-0.79100001 -5.6919999 -1.489 0.36000001
-0.77200001 -5.6929998 -1.489 0.37
-0.75300002 -5.6859999 -1.4859999 0.25
-0.736 -5.6919999 -1.487 0.37
-0.71899998 -5.6999998 -1.489 0.34
-0.69999999 -5.6939998 -1.487 0.28
-0.69 -5.6919999 -1.4859999 0.28
-0.67299998 -5.6939998 -1.4859999 0.37
-0.65499997 -5.698 -1.4859999 0.30000001
-0.63700002 -5.6999998 -1.4859999 0.37
-0.61799997 -5.6900001 -1.483 0.34
-0.60100001 -5.6999998 -1.485 0.30000001
-0.583 -5.7020001 -1.485 0.31999999
-0.565 -5.7030001 -1.485 0.36000001
-0.55599999 -5.7020001 -1.485 0.25
-0.53600001 -5.6849999 -1.479 0.16
-0.51999998 -5.704 -1.484 0.20999999
-0.34999999 -4.0640001 -1.022 0.28
-0.48199999 -5.6900001 -1.479 0.25999999
-0.33399999 -4.1719999 -1.052 0.20999999
-0.324 -4.2150002 -1.064 0.23
-0.317 -4.2059999 -1.061 0.22
-0.301 -4.1760001 -1.052 0.2
-0.28 -4.079 -1.025 0.050000001
-0.29699999 -4.493 -1.141 0
-0.30399999 -4.7940001 -1.225 0.13
-0.264 -4.6420002 -1.182 0.34
-0.248 -4.4920001 -1.14 0.22
-0.199 -3.8889999 -0.97000003 0.23
-0.205 -4.224 -1.064 0.18000001
-0.205 -4.4879999 -1.138 0.40000001
-0.19 -4.4619999 -1.131 0.30000001
-0.176 -4.4720001 -1.133 0.28999999
-0.164 -4.513 -1.145 0.47999999
-0.15099999 -4.375 -1.1059999 0.33000001
-0.126 -4.0809999 -1.023 0.25999999
-0.109 -3.9560001 -0.98799998 0.31
-0.103 -4.1529999 -1.043 0.34999999
-0.090999998 -4.211 -1.059 0.25999999
-0.079999998 -4.302 -1.085 0.38
-0.067000002 -4.3099999 -1.087 0.22
-0.059 -4.2309999 -1.0650001 0.43000001
-0.044 -4.1690001 -1.0470001 0.31999999
-0.032000002 -4.198 -1.0549999 0.28999999
-0.018999999 -4.2470002 -1.069 0.31999999
-0.0049999999 -4.1950002 -1.054 0.37
0.0080000004 -4.204 -1.057 0.44999999
0.021 -4.1139998 -1.0319999 0.27000001
0.028000001 -4.0149999 -1.0039999 0.25
0.039999999 -4.0419998 -1.012 0.41999999
0.055 -4.277 -1.0779999 0.28999999
0.068000004 -4.2379999 -1.067 0.30000001
0.079000004 -4.125 -1.035 0.31
0.090999998 -4.0279999 -1.008 0.36000001
0.104 -4.0549998 -1.016 0.31999999
0.108 -3.954 -0.98699999 0.34
0.116 -3.773 -0.93699998 0.25999999
0.134 -4 -1 0.23999999
0.147 -4.0009999 -1.001 0.30000001
0.164 -4.1360002 -1.039 0.28
0.17200001 -4.0040002 -1.002 0.18000001
0.185 -4.0050001 -1.003 0.31
0.192 -4.0229998 -1.007 0.25
0.206 -4.0599999 -1.018 0.17
0.206 -3.7750001 -0.93800002 0.34
0.21699999 -3.7739999 -0.93800002 0.31
0.23899999 -3.9489999 -0.98699999 0.34
0.243 -3.809 -0.949 0.25999999
0.25099999 -3.7409999 -0.93000001 0.25999999
0.25600001 -3.724 -0.92500001 0.31999999
0.26699999 -3.7190001 -0.92400002 0.34999999
0.27900001 -3.7160001 -0.92299998 0.30000001
0.28999999 -3.7130001 -0.92299998 0.44
0.301 -3.6949999 -0.91799998 0.30000001
0.308 -3.642 -0.903 0.25
0.31799999 -3.6199999 -0.89700001 0.16
0.35499999 -4 -1.0039999 0.2
0.35800001 -3.8840001 -0.972 0.27000001
0.347 -3.618 -0.89700001 0.18000001
0.35600001 -3.5940001 -0.89099997 0.25999999
0.36899999 -3.615 -0.89700001 0.47999999
0.72399998 -6.8909998 -1.821 0.31999999
0.38100001 -3.622 -0.89899999 0.18000001
0.73500001 -6.8959999 -1.822 0.41
0.75700003 -6.888 -1.821 0.14
0.42399999 -3.642 -0.90700001 0.18000001
0.447 -3.7420001 -0.935 0.23
0.45500001 -3.7090001 -0.926 0.36000001
0.46900001 -3.73 -0.93199998 0.23999999
0.52899998 -4.1220002 -1.044 0.23
0.67799997 -5.2719998 -1.369 0.23
0.53799999 -4.0359998 -1.02 0.2
0.51800001 -3.786 -0.94999999 0.20999999
0.52700001 -3.7609999 -0.94300002 0.31
0.54900002 -3.836 -0.96499997 0.25999999
0.56 -3.825 -0.96200001 0.31999999
0.611 -4.0970001 -1.04 0.25
0.58099997 -3.8 -0.95599997 0.19
0.60100001 -3.8940001 -0.98299998 0.28999999
0.60600001 -3.845 -0.97000003 0.25
0.61699998 -3.835 -0.96799999 0.25999999
0.62699997 -3.822 -0.96399999 0.28
0.64700001 -3.8670001 -0.97799999 0.23999999
0.65600002 -3.846 -0.972 0.27000001
0.66100001 -3.8010001 -0.95999998 0.34999999
0.66399997 -3.7839999 -0.95599997 0.25
0.68199998 -3.8180001 -0.96600002 0.13
0.801 -4.4250002 -1.1390001 0.19
0.74900001 -4.0549998 -1.034 0.25
0.74900001 -3.98 -1.0140001 0.22
0.741 -3.868 -0.98299998 0.27000001
0.73199999 -3.7880001 -0.95999998 0.33000001
0.74400002 -3.7850001 -0.95999998 0.41
0.76200002 -3.8150001 -0.96899998 0.27000001
0.77100003 -3.796 -0.96399999 0.36000001
0.792 -3.8380001 -0.977 0.31999999
0.796 -3.7980001 -0.96600002 0.30000001
0.82700002 -3.8859999 -0.99199998 0.31999999
0.83099997 -3.875 -0.99000001 0.34
0.89700001 -4.131 -1.064 0.28
0.91299999 -4.1409998 -1.067 0.25
0.954 -4.2649999 -1.104 0.15000001
1.035 -4.5700002 -1.192 0.15000001
0.93900001 -4.072 -1.05 0.15000001
0.96399999 -4.1259999 -1.066 0.34999999
1.02 -4.3070002 -1.119 0.25
1.01 -4.2340002 -1.099 0.25
1.051 -4.349 -1.133 0.20999999
1.033 -4.2140002 -1.095 0.19
1.345 -5.4429998 -1.45 0.46000001
1.748 -7.0089998 -1.903 0.25
1.774 -7.0209999 -1.908 0.25
1.793 -7.0040002 -1.905 0.56999999
1.096 -4.2119999 -1.099 0.30000001
1.0319999 -3.9070001 -1.011 0.25999999
1.05 -3.9260001 -1.018 0.37
1.057 -3.902 -1.012 0.31
1.0650001 -3.8840001 -1.007 0.19
1.081 -3.8929999 -1.011 0.28999999
1.098 -3.9089999 -1.017 0.38
1.099 -3.8900001 -1.012 0.25
1.109 -3.8770001 -1.0089999 0.41
1.1289999 -3.902 -1.017 0.34
1.149 -3.924 -1.025 0.18000001
1.53 -5.197 -1.397 0.46000001
1.464 -4.9109998 -1.3150001 0.25
2.095 -6.9840002 -1.9220001 0.28999999
2.1110001 -6.9970002 -1.927 0.33000001
1.592 -5.1960001 -1.402 0.41
1.5369999 -4.9549999 -1.3329999 0.25
1.5 -4.7789998 -1.283 0.33000001
1.396 -4.3940001 -1.171 0.16
1.554 -4.8470001 -1.3049999 0.28999999
1.613 -4.98 -1.346 0.38
1.67 -5.131 -1.391 0.25
1.533 -4.652 -1.251 0.38999999
1.323 -3.96 -1.049 0.15000001
1.286 -3.8080001 -1.005 0.31999999
1.38 -4.0489998 -1.0779999 0.22
1.39 -4.0349998 -1.075 0.28999999
1.461 -4.2020001 -1.126 0.23999999
1.4809999 -4.2399998 -1.138 0.30000001
1.47 -4.164 -1.1160001 0.23999999
1.53 -4.2940001 -1.156 0.27000001
1.418 -3.9349999 -1.051 0.13
1.436 -3.9449999 -1.0549999 0.15000001
1.794 -4.901 -1.342 0.20999999
1.84 -4.9790001 -1.3660001 0.16
2.631 -7.1170001 -2.0050001 0.17
1.395 -3.7019999 -0.98699999 0.18000001
1.4119999 -3.7119999 -0.99199998 0.23
1.553 -4.0500002 -1.094 0.17
1.47 -3.793 -1.0190001 0.039999999
1.464 -3.743 -1.005 0.07
1.614 -4.0960002 -1.113 0.039999999
1.4450001 -3.641 -0.977 0.07
1.444 -3.6040001 -0.96700001 0.039999999
1.449 -3.5840001 -0.96200001 0
1.529 -3.753 -1.0140001 0
1.545 -3.757 -1.017 0
1.904 -4.6059999 -1.276 0
1.847 -4.4260001 -1.223 0
1.747 -4.164 -1.145 0
1.775 -4.1929998 -1.155 0
1.715 -4.0149999 -1.102 0
1.858 -4.243 -1.177 0
1.836 -4.1560001 -1.152 0
1.864 -4.1999998 -1.1670001 0
3.1229999 -7.0209999 -2.0320001 0
3.138 -6.9949999 -2.0280001 0.090000004
3.1670001 -7.0009999 -2.0320001 0.11
3.234 -7.0910001 -2.063 0.30000001
3.253 -7.0739999 -2.0610001 0.55000001
3.247 -7.0029998 -2.0420001 0.30000001
3.27 -7.0240002 -2.05 0.25999999
3.296 -7.0219998 -2.053 0.12
3.322 -7.0209999 -2.056 0.15000001
3.342 -7.0050001 -2.0539999 0.19
3.369 -7.0050001 -2.0569999 0.33000001
3.391 -6.994 -2.0569999 0.25999999
3.427 -7.013 -2.066 0.30000001
3.444 -7.02 -2.0699999 0.16
3.4660001 -7.0089998 -2.0699999 0.19
3.4920001 -7.006 -2.073 0.44999999
3.441 -6.849 -2.027 0
3.5550001 -7.0219998 -2.085 0
0.89499998 -1.712 -0.41999999 0
0.90100002 -1.709 -0.41999999 0
0.90200001 -1.704 -0.419 0
0.91100001 -1.71 -0.42199999 0
0.92000002 -1.712 -0.42300001 0
3.803 -6.9879999 -2.109 0.17
3.819 -6.9899998 -2.1110001 0.27000001
3.848 -6.9920001 -2.1159999 0.41
3.8889999 -7.013 -2.1259999 0.25
3.9100001 -6.9990001 -2.1259999 0.20999999
3.9349999 -6.9920001 -2.1270001 0.27000001
3.96 -6.9860001 -2.1300001 0.34999999
3.9749999 -6.987 -2.132 0.38
4.006 -6.9889998 -2.1370001 0.31999999
4.0380001 -6.9949999 -2.1429999 0.16
4.0739999 -7.006 -2.1500001 0.2
4.0949998 -6.9910002 -2.1500001 0.2
4.1110001 -6.9679999 -2.1459999 0.059999999
4.1490002 -6.9840002 -2.155 0
0.90100002 -1.472 -0.36199999 0
0.90899998 -1.474 -0.36399999 0
0.91900003 -1.479 -0.36700001 0
0.91299999 -1.46 -0.361 0
3.493 -5.0380001 -1.597 0
4.8520002 -6.9679999 -2.2590001 0
2.6199999 -3.7160001 -1.153 0.029999999
2.6259999 -3.7 -1.15 0.14
3.4460001 -4.8379998 -1.543 0.22
2.6489999 -3.684 -1.15 0.34999999
3.4560001 -4.8039999 -1.5369999 0.2
3.4230001 -4.7259998 -1.5140001 0.33000001
3.405 -4.6700001 -1.499 0.38999999
3.477 -4.737 -1.526 0.33000001
3.431 -4.6440001 -1.497 0.51999998
2.6500001 -3.552 -1.1210001 0.16
2.6570001 -3.539 -1.119 0.36000001
2.6329999 -3.4949999 -1.105 0.38999999
2.602 -3.431 -1.086 0.31
2.602 -3.408 -1.08 0.31999999
2.6029999 -3.3870001 -1.076 0.36000001
2.6300001 -3.4000001 -1.084 0.33000001
2.6300001 -3.378 -1.079 0.33000001
2.6489999 -3.381 -1.082 0.34
2.645 -3.3640001 -1.0779999 0.37
2.674 -3.3800001 -1.087 0.28999999
2.674 -3.358 -1.082 0.41
2.701 -3.3710001 -1.089 0.37
2.7179999 -3.3699999 -1.092 0.31999999
2.7260001 -3.358 -1.091 0.38999999
2.7320001 -3.3440001 -1.089 0.34999999
2.74 -3.3429999 -1.09 0.41999999
2.75 -3.3340001 -1.09 0.31
2.7639999 -3.3299999 -1.092 0.44999999
2.7920001 -3.342 -1.099 0.28999999
2.789 -3.3169999 -1.0930001 0.47
2.806 -3.3169999 -1.097 0.37
2.839 -3.335 -1.1059999 0.30000001
2.8180001 -3.299 -1.095 0.34
2.8210001 -3.2809999 -1.092 0.38999999
2.859 -3.3050001 -1.104 0.38
2.8670001 -3.293 -1.102 0.31999999
2.954 -3.3729999 -1.135 0.41
2.934 -3.329 -1.122 0.23999999
2.9649999 -3.342 -1.131 0.43000001
2.983 -3.352 -1.136 0.28
2.9619999 -3.3069999 -1.123 0.25
3.0179999 -3.349 -1.142 0.44
3.0480001 -3.3610001 -1.15 0.23
4.0009999 -4.3969998 -1.545 0.41
4.1009998 -4.4780002 -1.581 0.27000001
4.1950002 -4.5539999 -1.614 0.27000001
4.0700002 -4.402 -1.559 0.56
4.1409998 -4.4520001 -1.5829999 0.28999999
4.3119998 -4.6079998 -1.648 0.20999999
4.2610002 -4.5240002 -1.6210001 0.28
4.0100002 -4.2290001 -1.512 0.54000002
4.2340002 -4.4390001 -1.598 0.25
4.3940001 -4.579 -1.6569999 0.34999999
4.2729998 -4.4380002 -1.605 0.33000001
4.316 -4.4549999 -1.617 0.22
4.2270002 -4.335 -1.576 0.44999999
4.2610002 -4.342 -1.584 0.34
4.257 -4.3109999 -1.577 0.44
4.2719998 -4.2989998 -1.577 0.41
4.2880001 -4.2880001 -1.579 0.37
4.3039999 -4.2909999 -1.582 0.37
4.289 -4.2490001 -1.571 0.38
4.3270001 -4.2600002 -1.581 0.49000001
4.4689999 -4.3740001 -1.631 0.25999999
4.4650002 -4.342 -1.624 0.28999999
4.4980001 -4.3470001 -1.632 0.54000002
4.5910001 -4.4089999 -1.663 0.25
4.7579999 -4.5570002 -1.725 0.28999999
4.4920001 -4.2729998 -1.6160001 0.20999999
4.408 -4.165 -1.579 0.44999999
4.3969998 -4.1290002 -1.569 0.28999999
4.0679998 -3.793 -1.438 0.30000001
3.98 -3.687 -1.399 0.38
3.98 -3.664 -1.395 0.31999999
3.9860001 -3.658 -1.395 0.34
3.9990001 -3.6459999 -1.396 0.34
4.02 -3.6429999 -1.399 0.36000001
4.0289998 -3.628 -1.398 0.37
4.059 -3.632 -1.405 0.43000001
4.086 -3.6329999 -1.411 0.34
4.119 -3.6400001 -1.419 0.28
4.0939999 -3.6059999 -1.408 0.46000001
4.1300001 -3.615 -1.4170001 0.34
4.1389999 -3.5999999 -1.416 0.43000001
4.1500001 -3.5869999 -1.416 0.33000001
4.145 -3.5599999 -1.41 0.44999999
4.2030001 -3.5869999 -1.427 0.44
4.296 -3.6440001 -1.4579999 0.37
4.1849999 -3.5369999 -1.414 0.25999999
4.1599998 -3.494 -1.401 0.31999999
4.2750001 -3.5680001 -1.439 0.28999999
4.2839999 -3.553 -1.439 0.36000001
4.2979999 -3.5420001 -1.4400001 0.37
4.2839999 -3.5079999 -1.431 0.36000001
4.283 -3.484 -1.426 0.40000001
4.296 -3.484 -1.429 0.34999999
4.309 -3.471 -1.4299999 0.37
4.3049998 -3.4460001 -1.424 0.31999999
4.2600002 -3.388 -1.404 0.44999999
4.2610002 -3.3670001 -1.401 0.36000001
4.2659998 -3.349 -1.399 0.30000001
4.2919998 -3.3469999 -1.404 0.43000001
4.316 -3.3440001 -1.409 0.33000001
4.3150001 -3.3329999 -1.4069999 0.41
4.3039999 -3.303 -1.399 0.34
4.3249998 -3.2980001 -1.403 0.44999999
4.322 -3.273 -1.398 0.41
4.3239999 -3.2539999 -1.396 0.33000001
4.3369999 -3.243 -1.397 0.43000001
4.3629999 -3.2409999 -1.402 0.34
4.3600001 -3.2279999 -1.399 0.38999999
4.4200001 -3.2509999 -1.4170001 0.31
4.4349999 -3.2409999 -1.418 0.41999999
4.473 -3.247 -1.428 0.38
4.4970002 -3.243 -1.433 0.38
4.5120001 -3.2320001 -1.434 0.34999999
4.4860001 -3.2030001 -1.424 0.43000001
4.4819999 -3.1789999 -1.419 0.28999999
4.506 -3.175 -1.424 0.49000001
4.572 -3.2 -1.443 0.33000001
4.5640001 -3.1730001 -1.437 0.30000001
4.5560002 -3.1459999 -1.431 0.44
4.5739999 -3.1370001 -1.433 0.44999999
4.6059999 -3.1489999 -1.442 0.38999999
4.6539998 -3.161 -1.455 0.34
4.7020001 -3.1719999 -1.4680001 0.37
4.7069998 -3.154 -1.467 0.34
4.6799998 -3.1140001 -1.454 0.41
4.7329998 -3.1289999 -1.469 0.37
4.756 -3.122 -1.473 0.40000001
4.8039999 -3.1429999 -1.488 0.27000001
4.8039999 -3.122 -1.485 0.38
4.816 -3.108 -1.485 0.5
4.8449998 -3.105 -1.492 0.36000001
4.8850002 -3.1099999 -1.502 0.49000001
4.9239998 -3.1129999 -1.512 0.34999999
5.0100002 -3.1459999 -1.5369999 0.36000001
5.0170002 -3.128 -1.536 0.34999999
5.1020002 -3.171 -1.562 0.31999999
5.145 -3.175 -1.573 0.37
5.2480001 -3.2160001 -1.604 0.36000001
5.1999998 -3.165 -1.585 0.31999999
5.302 -3.204 -1.615 0.31999999
5.4619999 -3.279 -1.664 0.36000001
5.4330001 -3.2379999 -1.651 0.38999999
5.4180002 -3.217 -1.645 0.30000001
5.349 -3.1530001 -1.619 0.31
5.4770002 -3.2060001 -1.6569999 0.34
5.5159998 -3.2060001 -1.6670001 0.36000001
5.5 -3.1730001 -1.658 0.36000001
5.5300002 -3.1670001 -1.665 0.38
5.54 -3.1500001 -1.665 0.36000001
5.5279999 -3.132 -1.659 0.36000001
5.5500002 -3.1210001 -1.663 0.37
5.5710001 -3.1099999 -1.6670001 0.34
5.5809999 -3.0929999 -1.6670001 0.36000001
5.5799999 -3.069 -1.664 0.36000001
5.5879998 -3.0510001 -1.663 0.43000001
5.5640001 -3.0150001 -1.652 0.30000001
5.559 -3.0009999 -1.649 0.36000001
5.5780001 -2.9890001 -1.652 0.34
5.579 -2.967 -1.65 0.25
5.5749998 -2.9419999 -1.645 0.41
5.599 -2.9319999 -1.65 0.34
5.605 -2.9130001 -1.649 0.33000001
5.6230001 -2.9000001 -1.652 0.33000001
5.6269999 -2.891 -1.652 0.33000001
5.6300001 -2.8699999 -1.65 0.33000001
5.632 -2.849 -1.648 0.31999999
5.6440001 -2.8329999 -1.649 0.31
5.6550002 -2.816 -1.649 0.31999999
5.6620002 -2.7969999 -1.649 0.31999999
5.6719999 -2.78 -1.649 0.31999999
5.6700001 -2.7679999 -1.647 0.31999999
5.6849999 -2.753 -1.649 0.31
5.6919999 -2.7349999 -1.649 0.31
5.697 -2.7149999 -1.648 0.31999999
5.7160001 -2.7019999 -1.651 0.34
5.7160001 -2.6800001 -1.648 0.30000001
5.724 -2.6619999 -1.648 0.31
5.7249999 -2.651 -1.647 0.30000001
5.7379999 -2.6359999 -1.649 0.31999999
5.7410002 -2.615 -1.647 0.31999999
5.7529998 -2.599 -1.648 0.31
5.7540002 -2.5780001 -1.646 0.31999999
5.7690001 -2.563 -1.648 0.30000001
5.7740002 -2.543 -1.647 0.31
5.7779999 -2.5339999 -1.647 0.31
5.7859998 -2.516 -1.647 0.30000001
5.7940001 -2.4979999 -1.647 0.31
5.802 -2.4790001 -1.647 0.31999999
5.809 -2.461 -1.647 0.30000001
5.8210001 -2.444 -1.648 0.36000001
5.8210001 -2.4230001 -1.646 0.30000001
5.8340001 -2.418 -1.649 0.34
5.8309999 -2.395 -1.645 0.30000001
5.8449998 -2.3800001 -1.648 0.34
5.849 -2.3599999 -1.647 0.30000001
5.8569999 -2.3410001 -1.647 0.34
5.8509998 -2.3180001 -1.643 0.28999999
5.8709998 -2.3050001 -1.647 0.34
5.8730001 -2.2950001 -1.646 0.28999999
5.8860002 -2.2780001 -1.648 0.34
5.8850002 -2.257 -1.645 0.28999999
5.8889999 -2.237 -1.6440001 0.31
5.8959999 -2.2190001 -1.6440001 0.36000001
5.908 -2.2019999 -1.646 0.30000001
5.9120002 -2.1819999 -1.645 0.30000001
5.9200001 -2.175 -1.647 0.33000001
5.9109998 -2.1500001 -1.642 0.30000001
5.9250002 -2.1340001 -1.6440001 0.34
5.9299998 -2.115 -1.643 0.30000001
5.9349999 -2.096 -1.643 0.30000001
5.954 -2.082 -1.647 0.34
5.9530001 -2.0599999 -1.6440001 0.30000001
5.9510002 -2.049 -1.643 0.33000001
5.961 -2.0320001 -1.6440001 0.31999999
5.96 -2.01 -1.642 0.31999999
5.9640002 -1.9910001 -1.641 0.30000001
5.9829998 -1.977 -1.645 0.33000001
5.9790001 -1.954 -1.642 0.30000001
5.9829998 -1.9349999 -1.641 0.31
5.9879999 -1.926 -1.642 0.31999999
5.9899998 -1.906 -1.641 0.31999999
5.9980001 -1.888 -1.641 0.36000001
5.9910002 -1.865 -1.637 0.27000001
6 -1.847 -1.638 0.37
6.0139999 -1.831 -1.641 0.31999999
6.0190001 -1.812 -1.641 0.30000001
6.0279999 -1.804 -1.642 0.34
6.026 -1.783 -1.64 0.30000001
6.039 -1.766 -1.642 0.33000001
6.0409999 -1.7460001 -1.641 0.33000001
6.0500002 -1.728 -1.642 0.33000001
6.0549998 -1.709 -1.642 0.31999999
6.053 -1.688 -1.64 0.31
6.052 -1.677 -1.6390001 0.28
6.0669999 -1.661 -1.642 0.33000001
6.066 -1.64 -1.64 0.28999999
6.0700002 -1.6210001 -1.6390001 0.33000001
6.0840001 -1.604 -1.642 0.31999999
6.0799999 -1.582 -1.6390001 0.28999999
6.086 -1.564 -1.64 0.33000001
6.0840001 -1.543 -1.638 0.28999999
6.0960002 -1.536 -1.641 0.33000001
6.0949998 -1.515 -1.6390001 0.31999999
6.1030002 -1.497 -1.64 0.31999999
6.099 -1.475 -1.637 0.28999999
6.1110001 -1.4579999 -1.6390001 0.33000001
6.1020002 -1.436 -1.636 0.25
6.1139998 -1.418 -1.638 0.38
6.1110001 -1.4069999 -1.636 0.28999999
6.1259999 -1.391 -1.6390001 0.30000001
6.1269999 -1.3710001 -1.638 0.34
6.1259999 -1.35 -1.637 0.28999999
6.1350002 -1.332 -1.638 0.33000001
6.1399999 -1.313 -1.638 0.30000001
6.1440001 -1.294 -1.638 0.30000001
6.1459999 -1.284 -1.638 0.30000001
6.1440001 -1.263 -1.637 0.30000001
6.1550002 -1.2460001 -1.6390001 0.34999999
6.152 -1.225 -1.637 0.30000001
6.1589999 -1.206 -1.638 0.34
6.171 -1.188 -1.64 0.33000001
6.171 -1.168 -1.6390001 0.31999999
6.1719999 -1.158 -1.6390001 0.31999999
6.178 -1.1390001 -1.6390001 0.31999999
6.1799998 -1.12 -1.6390001 0.28999999
6.177 -1.099 -1.637 0.33000001
6.1830001 -1.08 -1.638 0.31999999
6.177 -1.059 -1.635 0.25
6.1669998 -1.0369999 -1.631 0.28999999
6.164 -1.027 -1.63 0.33000001
6.164 -1.007 -1.6289999 0.41
6.1919999 -0.99199998 -1.636 0.46000001
6.204 -0.97399998 -1.6390001 0.30000001
6.2069998 -0.954 -1.6390001 0.31
6.2049999 -0.93400002 -1.637 0.31
6.2140002 -0.92500001 -1.6390001 0.34999999
6.2069998 -0.90399998 -1.637 0.28999999
6.2210002 -0.88700002 -1.64 0.34
6.2199998 -0.866 -1.6390001 0.31999999
6.2270002 -0.847 -1.64 0.33000001
6.2199998 -0.82700002 -1.637 0.30000001
6.2220001 -0.80699998 -1.637 0.30000001
6.223 -0.787 -1.637 0.31
6.224 -0.77700001 -1.637 0.31
6.223 -0.75700003 -1.636 0.30000001
6.2290001 -0.73799998 -1.637 0.30000001
6.2270002 -0.71799999 -1.636 0.31999999
6.2329998 -0.699 -1.637 0.30000001
6.2340002 -0.67900002 -1.636 0.31
6.2360001 -0.66000003 -1.636 0.30000001
6.2350001 -0.64999998 -1.636 0.31
6.2410002 -0.63099998 -1.637 0.31999999
6.2470002 -0.611 -1.638 0.31
6.2410002 -0.59100002 -1.636 0.31
6.243 -0.57099998 -1.636 0.30000001
6.244 -0.55199999 -1.636 0.30000001
6.2480001 -0.53200001 -1.636 0.31
6.2509999 -0.523 -1.637 0.31
6.243 -0.50199997 -1.6339999 0.31999999
6.244 -0.48300001 -1.6339999 0.31999999
6.2550001 -0.46399999 -1.637 0.31999999
6.2550001 -0.44400001 -1.636 0.30000001
6.256 -0.42399999 -1.636 0.31
6.2579999 -0.405 -1.636 0.30000001
6.2620001 -0.39500001 -1.637 0.34
6.256 -0.375 -1.635 0.30000001
6.2620001 -0.35600001 -1.637 0.34
6.256 -0.33500001 -1.635 0.30000001
6.263 -0.31600001 -1.636 0.30000001
6.2600002 -0.296 -1.635 0.30000001
6.263 -0.27700001 -1.636 0.30000001
6.2690001 -0.26699999 -1.637 0.34
6.2579999 -0.24699999 -1.6339999 0.30000001
6.2670002 -0.228 -1.636 0.36000001
6.277 -0.208 -1.6390001 0.31999999
6.276 -0.18799999 -1.638 0.31999999
6.2740002 -0.169 -1.638 0.28999999
6.277 -0.149 -1.638 0.33000001
6.2729998 -0.139 -1.637 0.30000001
6.2810001 -0.119 -1.6390001 0.34
6.2740002 -0.1 -1.637 0.25999999
6.276 -0.079999998 -1.638 0.38
6.2740002 -0.059999999 -1.637 0.30000001
6.2779999 -0.041000001 -1.638 0.30000001
6.2800002 -0.021 -1.6390001 0.34
6.2820001 -0.011 -1.6390001 0.30000001
6.0700002 0.001 -1.64 0.31999999
6.086 0.02 -1.6440001 0.31999999
6.072 0.039000001 -1.641 0.31999999
6.0760002 0.057999998 -1.642 0.31999999
6.0739999 0.077 -1.641 0.31999999
6.0739999 0.086999997 -1.641 0.31999999
6.0710001 0.106 -1.641 0.31999999
6.0809999 0.125 -1.643 0.31999999
6.059 0.14300001 -1.637 0.28
6.0510001 0.162 -1.635 0.23999999
6.066 0.182 -1.6390001 0.44
6.0570002 0.2 -1.637 0.31
6.053 0.219 -1.636 0.30000001
6.0619998 0.229 -1.6390001 0.28999999
6.0580001 0.248 -1.638 0.30000001
6.0549998 0.26699999 -1.637 0.28999999
6.0539999 0.28600001 -1.637 0.30000001
6.0450001 0.30500001 -1.635 0.30000001
6.046 0.324 -1.636 0.30000001
6.0489998 0.34299999 -1.637 0.30000001
6.0539999 0.35299999 -1.638 0.31
6.0419998 0.37099999 -1.635 0.31
6.0349998 0.38999999 -1.633 0.31999999
6.0320001 0.40900001 -1.633 0.31
6.0279999 0.42699999 -1.632 0.31
6.0370002 0.447 -1.635 0.31
6.027 0.465 -1.633 0.31
6.0250001 0.47499999 -1.632 0.30000001
6.0250001 0.49399999 -1.633 0.30000001
6.0289998 0.51300001 -1.6339999 0.30000001
6.0240002 0.53200001 -1.633 0.30000001
6.0339999 0.55199999 -1.637 0.31
5.9980001 0.56699997 -1.627 0.28999999
6.0149999 0.588 -1.632 0.34
6.0139999 0.59799999 -1.632 0.31999999
6.006 0.616 -1.631 0.30000001
6.0079999 0.63499999 -1.632 0.30000001
6.0159998 0.65499997 -1.6339999 0.30000001
6.006 0.67299998 -1.632 0.28999999
5.9980001 0.69099998 -1.631 0.28999999
5.9959998 0.70999998 -1.631 0.30000001
5.9990001 0.72000003 -1.632 0.30000001
5.994 0.73900002 -1.631 0.31
6.007 0.759 -1.636 0.30000001
5.9990001 0.778 -1.6339999 0.31999999
5.9889998 0.79500002 -1.632 0.31999999
5.9879999 0.81400001 -1.632 0.31
5.9759998 0.83200002 -1.6289999 0.31999999
5.9790001 0.84200001 -1.631 0.31999999
5.993 0.86299998 -1.636 0.31
5.9640002 0.87800002 -1.628 0.30000001
5.9780002 0.89899999 -1.633 0.30000001
5.973 0.91799998 -1.632 0.30000001
5.9629998 0.935 -1.63 0.30000001
5.947 0.95200002 -1.626 0.28999999
5.9720001 0.96600002 -1.6339999 0.34
5.9549999 0.98199999 -1.63 0.33000001
5.9640002 1.003 -1.633 0.31
5.9530001 1.02 -1.631 0.30000001
5.9530001 1.04 -1.632 0.31999999
5.9520001 1.059 -1.633 0.31999999
5.9450002 1.077 -1.632 0.31999999
5.9510002 1.087 -1.6339999 0.31
5.9380002 1.104 -1.631 0.31
5.9320002 1.123 -1.631 0.31999999
5.9349999 1.142 -1.632 0.33000001
5.9250002 1.16 -1.631 0.31999999
5.9289999 1.1799999 -1.633 0.33000001
5.9250002 1.199 -1.633 0.31999999
5.9180002 1.207 -1.631 0.31
5.908 1.224 -1.6289999 0.31
5.9060001 1.243 -1.63 0.30000001
5.895 1.26 -1.628 0.31
5.8969998 1.28 -1.6289999 0.31
5.8829999 1.296 -1.627 0.30000001
5.888 1.317 -1.6289999 0.31
5.881 1.325 -1.628 0.31
5.8779998 1.344 -1.628 0.31999999
5.8699999 1.3609999 -1.627 0.28999999
5.862 1.3789999 -1.626 0.33000001
5.8660002 1.399 -1.628 0.34
5.8649998 1.418 -1.6289999 0.31
5.862 1.437 -1.63 0.31
5.8579998 1.446 -1.6289999 0.31
5.8569999 1.465 -1.631 0.31999999
5.8579998 1.485 -1.632 0.31
5.8400002 1.5 -1.628 0.31999999
5.8429999 1.52 -1.631 0.31999999
5.8439999 1.54 -1.632 0.31999999
5.8260002 1.5549999 -1.628 0.31999999
5.8270001 1.5650001 -1.6289999 0.31
5.8410001 1.589 -1.635 0.31
5.8080001 1.599 -1.627 0.31999999
5.8109999 1.62 -1.6289999 0.31999999
5.809 1.6390001 -1.63 0.31999999
5.7979999 1.655 -1.628 0.33000001
5.7969999 1.675 -1.6289999 0.31999999
5.8000002 1.6849999 -1.631 0.28
5.7480001 1.6900001 -1.617 0.30000001
5.7259998 1.7029999 -1.612 0.31999999
5.723 1.722 -1.613 0.31999999
5.6989999 1.734 -1.607 0.33000001
5.6919999 1.751 -1.607 0.33000001
5.6859999 1.7690001 -1.607 0.34
5.6690001 1.773 -1.602 0.31999999
5.6820002 1.7970001 -1.608 0.31999999
5.6919999 1.8200001 -1.613 0.33000001
5.6919999 1.84 -1.614 0.38999999
5.6880002 1.858 -1.615 0.27000001
5.7410002 1.896 -1.633 0.30000001
5.7270002 1.911 -1.631 0.41999999
5.73 1.9220001 -1.632 0.33000001
5.7290001 1.942 -1.6339999 0.31999999
5.7179999 1.9579999 -1.632 0.28
5.7080002 1.975 -1.631 0.34
5.7160001 1.998 -1.636 0.34
5.7010002 2.013 -1.633 0.33000001
5.6890001 2.0280001 -1.631 0.25999999
5.7069998 2.0450001 -1.638 0.44
5.7010002 2.063 -1.638 0.37
5.691 2.0799999 -1.637 0.30000001
5.6810002 2.096 -1.636 0.31
5.6669998 2.1110001 -1.633 0.27000001
5.6739998 2.135 -1.638 0.28999999
5.6820002 2.158 -1.642 0.30000001
5.6550002 2.158 -1.635 0.23
5.6409998 2.1730001 -1.633 0.30000001
5.6669998 2.2030001 -1.643 0.41
5.6469998 2.2160001 -1.6390001 0.28
5.6459999 2.2360001 -1.641 0.28999999
5.6399999 2.2539999 -1.641 0.33000001
5.6209998 2.267 -1.637 0.28
5.6170001 2.286 -1.638 0.28999999
5.619 2.2969999 -1.64 0.27000001
5.6030002 2.3110001 -1.637 0.31
5.6009998 2.3310001 -1.6390001 0.31999999
5.599 2.3510001 -1.641 0.30000001
5.5910001 2.368 -1.641 0.37
5.579 2.3840001 -1.6390001 0.31999999
5.5799999 2.405 -1.642 0.27000001
5.5739999 2.4130001 -1.641 0.33000001
5.5650001 2.4300001 -1.641 0.30000001
5.5539999 2.4460001 -1.6390001 0.34
5.5430002 2.461 -1.638 0.31
5.5240002 2.474 -1.635 0.34
5.5219998 2.494 -1.637 0.34
5.5089998 2.4979999 -1.6339999 0.30000001
5.4980001 2.5139999 -1.633 0.25
5.4970002 2.5350001 -1.635 0.37
5.473 2.5450001 -1.63 0.34
5.4720001 2.5650001 -1.632 0.31999999
5.4759998 2.5880001 -1.636 0.36000001
5.4749999 2.609 -1.638 0.25999999
5.473 2.618 -1.6390001 0.41
5.4559999 2.631 -1.636 0.34
5.4510002 2.6500001 -1.637 0.31
5.4489999 2.6700001 -1.6390001 0.31
5.4320002 2.6830001 -1.637 0.31
5.4260001 2.701 -1.637 0.25999999
5.4190001 2.7190001 -1.638 0.28999999
5.4200001 2.73 -1.6390001 0.34
5.401 2.7420001 -1.636 0.25
5.3969998 2.7609999 -1.638 0.30000001
5.4190001 2.7939999 -1.648 0.38999999
5.3829999 2.7969999 -1.6390001 0.27000001
5.381 2.8180001 -1.641 0.31999999
5.3720002 2.8340001 -1.641 0.34999999
5.3470001 2.842 -1.636 0.28
5.3400002 2.8499999 -1.635 0.27000001
5.3410001 2.872 -1.638 0.27000001
5.3260002 2.885 -1.636 0.25
5.3249998 2.9059999 -1.6390001 0.23999999
5.316 2.9230001 -1.6390001 0.23999999
5.3200002 2.947 -1.643 0.41
5.316 2.967 -1.645 0.34
5.3130002 2.9760001 -1.646 0.33000001
5.2979999 2.99 -1.6440001 0.31
5.2810001 3.0020001 -1.641 0.25999999
5.2680001 3.016 -1.64 0.30000001
5.2649999 3.0369999 -1.642 0.34
5.2600002 3.056 -1.6440001 0.28
5.2620001 3.0799999 -1.648 0.28999999
5.2540002 3.086 -1.647 0.34
5.2509999 3.1059999 -1.649 0.34999999
5.2399998 3.122 -1.648 0.28999999
5.2309999 3.1389999 -1.649 0.33000001
5.21 3.1489999 -1.645 0.28999999
5.2069998 3.1689999 -1.647 0.31
5.2080002 3.1930001 -1.651 0.34
5.184 3.1889999 -1.6440001 0.28
5.178 3.2079999 -1.646 0.36000001
5.1630001 3.221 -1.6440001 0.25999999
5.1609998 3.2420001 -1.647 0.36000001
5.1529999 3.26 -1.648 0.34
5.1279998 3.266 -1.643 0.25
5.1339998 3.293 -1.648 0.34999999
5.1339998 3.3039999 -1.65 0.36000001
5.1149998 3.3150001 -1.647 0.31
5.1009998 3.329 -1.646 0.31
5.1129999 3.3599999 -1.654 0.31999999
5.0760002 3.358 -1.6440001 0.25
5.0780001 3.382 -1.649 0.36000001
5.059 3.3929999 -1.646 0.31999999
5.0599999 3.405 -1.648 0.36000001
5.0419998 3.4159999 -1.646 0.25
5.0450001 3.441 -1.651 0.38
5.052 3.4690001 -1.6569999 0.40000001
5.033 3.4790001 -1.654 0.33000001
5.0339999 3.5039999 -1.658 0.31999999
5.0089998 3.51 -1.653 0.28
5.0009999 3.5150001 -1.652 0.25999999
5.007 3.543 -1.658 0.34999999
4.9879999 3.5539999 -1.656 0.27000001
4.9629998 3.559 -1.651 0.34
4.9590001 3.5799999 -1.653 0.27000001
4.9450002 3.5940001 -1.652 0.31999999
4.9330001 3.609 -1.652 0.38
4.9429998 3.628 -1.658 0.36000001
4.9239998 3.638 -1.655 0.33000001
4.9260001 3.664 -1.66 0.28
4.9130001 3.678 -1.66 0.28999999
4.8990002 3.691 -1.658 0.30000001
4.8860002 3.7049999 -1.658 0.30000001
4.868 3.7160001 -1.656 0.28
4.8509998 3.7160001 -1.652 0.18000001
4.8720002 3.756 -1.663 0.47999999
4.8610001 3.7720001 -1.664 0.30000001
4.8429999 3.7820001 -1.6619999 0.28999999
4.8280001 3.7950001 -1.661 0.28999999
4.8400002 3.8299999 -1.67 0.31
4.8189998 3.8380001 -1.666 0.30000001
4.803 3.8369999 -1.6619999 0.28999999
4.7909999 3.852 -1.6619999 0.28
4.7740002 3.8629999 -1.661 0.25999999
4.7680001 3.8829999 -1.663 0.27000001
4.7690001 3.9089999 -1.668 0.44999999
4.7329998 3.904 -1.659 0.31999999
4.7160001 3.915 -1.6569999 0.27000001
4.7150002 3.927 -1.659 0.30000001
4.6830001 3.925 -1.652 0.28
4.6620002 3.9319999 -1.648 0.22
4.6700001 3.9649999 -1.656 0.47999999
4.6589999 3.98 -1.6569999 0.44999999
4.651 3.9990001 -1.658 0.28
4.6529999 4.026 -1.664 0.36000001
4.632 4.0209999 -1.658 0.23
4.6399999 4.053 -1.666 0.30000001
4.6329999 4.073 -1.668 0.34
4.5999999 4.0689998 -1.661 0.36000001
4.5840001 4.0809999 -1.66 0.27000001
4.5780001 4.1020002 -1.6619999 0.33000001
4.5650001 4.1160002 -1.6619999 0.30000001
4.5570002 4.1350002 -1.664 0.31999999
4.553 4.1440001 -1.665 0.28999999
4.54 4.1589999 -1.665 0.31999999
4.5209999 4.1680002 -1.663 0.23999999
4.5209999 4.1939998 -1.668 0.38999999
4.5009999 4.2010002 -1.665 0.34999999
4.48 4.2090001 -1.6619999 0.33000001
4.48 4.2350001 -1.6670001 0.31
4.4619999 4.2309999 -1.663 0.28999999
4.4400001 4.237 -1.66 0.34999999
4.434 4.2579999 -1.6619999 0.30000001
4.4330001 4.2839999 -1.6670001 0.38999999
4.4109998 4.29 -1.664 0.28999999
4.4000001 4.3060002 -1.665 0.34
4.3790002 4.3119998 -1.6619999 0.28
4.3899999 4.336 -1.669 0.38
4.3800001 4.3540001 -1.671 0.31999999
4.3509998 4.3530002 -1.665 0.22
4.3379998 4.3670001 -1.665 0.27000001
4.323 4.3790002 -1.664 0.31999999
4.3060002 4.3899999 -1.663 0.28
4.3060002 4.4169998 -1.668 0.47
4.2880001 4.4130001 -1.664 0.30000001
4.2810001 4.4330001 -1.6670001 0.31
4.2820001 4.4619999 -1.673 0.37
4.27 4.4780002 -1.674 0.28999999
4.2550001 4.4899998 -1.673 0.28
4.2329998 4.4949999 -1.67 0.28
4.2319999 4.5219998 -1.676 0.34
2.448 2.6240001 -0.92000002 0.14
4.2160001 4.5339999 -1.675 0.31
2.4360001 2.628 -0.91799998 0.34
2.421 2.628 -0.91600001 0.40000001
2.4089999 2.632 -0.91399997 0.31
2.385 2.622 -0.90700001 0.44
2.378 2.631 -0.90799999 0.34
2.365 2.625 -0.90399998 0.44
2.3629999 2.6389999 -0.90700001 0.38
2.3499999 2.641 -0.90499997 0.38999999
2.3410001 2.648 -0.90499997 0.41
2.3280001 2.6500001 -0.90200001 0.41
2.316 2.6530001 -0.90100002 0.43000001
2.313 2.6659999 -0.903 0.43000001
2.313 2.675 -0.90499997 0.41
2.3 2.677 -0.903 0.41
2.2950001 2.688 -0.90499997 0.44999999
2.283 2.691 -0.903 0.41
2.273 2.697 -0.90200001 0.41
2.267 2.707 -0.903 0.40000001
2.273 2.7320001 -0.91000003 0.31999999
2.273 2.74 -0.912 0.36000001
2.263 2.7460001 -0.91100001 0.38999999
2.256 2.7539999 -0.912 0.34
2.26 2.7780001 -0.91799998 0.36000001
2.256 2.7909999 -0.92000002 0.34
2.2590001 2.813 -0.926 0.40000001
2.25 2.8199999 -0.926 0.38
2.2379999 2.822 -0.92400002 0.38999999
2.237 2.8310001 -0.926 0.38999999
2.2390001 2.8510001 -0.93099999 0.31999999
2.2509999 2.8859999 -0.94099998 0.2
2.279 2.9419999 -0.95899999 0.44999999
3.684 4.8130002 -1.637 0.34999999
3.668 4.823 -1.637 0.50999999
3.641 4.8189998 -1.631 0.25
3.6270001 4.8150001 -1.628 0.18000001
3.619 4.8369999 -1.632 0.31999999
3.6110001 4.8579998 -1.635 0.47
3.678 4.9809999 -1.675 0.46000001
3.6600001 4.9889998 -1.674 0.34
3.651 5.0100002 -1.677 0.38999999
3.645 5.0359998 -1.682 0.27000001
3.632 5.052 -1.684 0.28999999
3.628 5.0619998 -1.686 0.31
3.6099999 5.0700002 -1.6849999 0.23999999
3.599 5.0900002 -1.687 0.28
3.5840001 5.1020002 -1.688 0.31999999
3.562 5.1040001 -1.6849999 0.41
3.556 5.1300001 -1.6900001 0.25
3.54 5.1420002 -1.6900001 0.23999999
3.53 5.145 -1.689 0.19
3.5220001 5.1669998 -1.693 0.34
3.5020001 5.1729999 -1.691 0.30000001
3.4690001 5.1589999 -1.682 0.41
3.4590001 5.1789999 -1.686 0.31999999
3.4260001 5.164 -1.677 0.52999997
3.4119999 5.178 -1.678 0.31
3.4100001 5.1929998 -1.681 0.37
3.3829999 5.1880002 -1.676 0.41999999
3.3640001 5.1929998 -1.674 0.41
3.3659999 5.2329998 -1.684 0.38999999
3.3570001 5.2550001 -1.688 0.31999999
3.3239999 5.2399998 -1.679 0.41
3.303 5.243 -1.677 0.38999999
3.286 5.2340002 -1.6720001 0.40000001
3.244 5.2030001 -1.658 0.34
3.2349999 5.2249999 -1.6619999 0.38
3.2260001 5.2480001 -1.666 0.41999999
3.207 5.2529998 -1.665 0.34999999
3.181 5.2490001 -1.66 0.44999999
3.1589999 5.2490001 -1.656 0.36000001
3.1489999 5.25 -1.655 0.34
3.1229999 5.244 -1.649 0.54000002
3.0940001 5.2340002 -1.643 0.34999999
3.079 5.2449999 -1.643 0.34999999
3.0309999 5.1999998 -1.625 0.25
2.931 5.0999999 -1.585 0.86000001
2.924 5.1079998 -1.587 0.77999997
2.8940001 5.092 -1.5779999 0.36000001
2.8710001 5.0879998 -1.574 0.36000001
2.8670001 5.119 -1.581 0.31
2.848 5.1230001 -1.579 0.52999997
2.8399999 5.1469998 -1.584 0.37
2.8310001 5.1690001 -1.589 0.25
2.8410001 5.2270002 -1.605 0.27000001
2.832 5.23 -1.604 0.41
2.8239999 5.2540002 -1.609 0.34999999
2.825 5.2969999 -1.6210001 0.31999999
2.8110001 5.3109999 -1.622 0.43000001
2.7869999 5.3039999 -1.617 0.36000001
2.777 5.3260002 -1.622 0.41
2.7509999 5.316 -1.615 0.34999999
2.724 5.2849998 -1.604 0.38999999
2.71 5.2979999 -1.605 0.38
2.697 5.3140001 -1.608 0.38
2.671 5.303 -1.602 0.41999999
2.6570001 5.3189998 -1.604 0.38
2.645 5.336 -1.607 0.38999999
2.622 5.3319998 -1.603 0.34999999
2.6140001 5.336 -1.603 0.44
2.6010001 5.3530002 -1.605 0.40000001
2.5880001 5.368 -1.608 0.40000001
2.5680001 5.3709998 -1.6059999 0.37
2.539 5.3530002 -1.598 0.33000001
2.5309999 5.3800001 -1.604 0.40000001
2.4920001 5.3390002 -1.5880001 0.38999999
2.4679999 5.3080001 -1.577 0.34999999
2.4349999 5.2810001 -1.566 0.44999999
2.4360001 5.3270001 -1.5779999 0.46000001
2.3510001 5.184 -1.53 0.2
2.1960001 4.8769999 -1.431 0.28999999
