# .PCD v0.7 - Point Cloud Data file format
VERSION 0.7
FIELDS x y z intensity
SIZE 4 4 4 4
TYPE F F F F
COUNT 1 1 1 1
WIDTH 1437
HEIGHT 1
VIEWPOINT 0 0 0 1 0 0 0
POINTS 1437
DATA ascii
-6.8319998 -13.562 -1.104 0.55000001
-7.9650002 -15.946 -1.331 0.34
-7.882 -15.905 -1.325 0.20999999
-6.9679999 -14.167 -1.156 0.33000001
-5.0630002 -10.36 -0.79000002 0.38
-7.7729998 -16 -1.3279999 0.28
-7.723 -16.024 -1.3279999 0.38
-5.026 -10.491 -0.79900002 0.31
-5.026 -10.577 -0.80599999 0.40000001
-5.0050001 -10.62 -0.80800003 0.38
-4.9689999 -10.63 -0.80800003 0.41
-4.947 -10.669 -0.81 0.31
-5.053 -11.037 -0.84200001 0.57999998
-6.9060001 -15.234 -1.237 0.19
-6.428 -14.293 -1.146 0.16
-4.9809999 -11.157 -0.84899998 0.46000001
-6.316 -14.284 -1.142 0.30000001
-4.902 -11.168 -0.847 0.40000001
-5.072 -11.607 -0.88800001 0.20999999
-6.211 -14.35 -1.143 0.28999999
-5.1020002 -11.879 -0.91000003 0.66000003
-3.7939999 -8.8950005 -0.63 0.23999999
-6.2150002 -14.742 -1.174 0.34999999
-6.21 -14.859 -1.183 0.23
-6.2179999 -15.08 -1.201 0.57999998
-4.8150001 -11.766 -0.89200002 0.31
-6.2659998 -15.474 -1.234 0.25999999
-4.7129998 -11.726 -0.88499999 0.20999999
-3.862 -9.684 -0.69499999 0.23
-3.8150001 -9.6549997 -0.69099998 0.61000001
-3.783 -9.6610003 -0.69099998 0.31999999
-3.7590001 -9.6450005 -0.68900001 0.47999999
-3.7379999 -9.6809998 -0.69099998 0.25
-3.7260001 -9.7410002 -0.69599998 0.62
-3.6860001 -9.7290001 -0.69300002 0.34
-3.7320001 -9.9460001 -0.71200001 0.20999999
-3.9230001 -10.61 -0.77100003 0.57999998
-3.8870001 -10.615 -0.77100003 0.25999999
-3.891 -10.732 -0.77999997 0.56
-4.6209998 -12.888 -0.97600001 0.18000001
-4.5419998 -12.791 -0.96600002 0.28999999
-4.5019999 -12.808 -0.96600002 0.47
-5.6750002 -16.327999 -1.285 0.47
-5.5949998 -16.181 -1.271 0.33000001
-3.7809999 -11.02 -0.801 0.28
-5.4299998 -16.028999 -1.2539999 0.38999999
-3.066 -9.1099997 -0.625 0.23
-3.0369999 -9.1160002 -0.625 0.23
-3 -9.1009998 -0.62300003 0.52999997
-2.9790001 -9.1350002 -0.625 0.23
-3.5309999 -10.902 -0.78399998 0.37
-2.9349999 -9.1470003 -0.625 0.33000001
-2.905 -9.1499996 -0.62400001 0.46000001
-2.8640001 -9.1199999 -0.62099999 0.31999999
-2.806 -9.0349998 -0.61199999 0.20999999
-2.7739999 -9.0319996 -0.611 0.36000001
-2.7420001 -9.026 -0.61000001 0.34
-2.7420001 -9.0780001 -0.61400002 0.43000001
-2.7409999 -9.1820002 -0.62300003 0.25999999
-3.8870001 -13.209 -0.98299998 0.2
-3.8340001 -13.181 -0.97899997 0.54000002
-2.6029999 -9.0249996 -0.60600001 0.17
-2.5680001 -9.0120001 -0.60500002 0.31
-2.5799999 -9.1639996 -0.61699998 0.34999999
-2.576 -9.2049999 -0.62099999 0.34
-2.5039999 -9.0570002 -0.60699999 0.28
-2.487 -9.1070004 -0.611 0.40000001
-2.4760001 -9.1809998 -0.616 0.25
-2.4460001 -9.1850004 -0.616 0.47
-2.4130001 -9.1750002 -0.61400002 0.31999999
-2.3759999 -9.0900002 -0.60699999 0.28
-2.352 -9.1190004 -0.60799998 0.20999999
-3.138 -12.361 -0.89499998 0.37
-3.082 -12.303 -0.889 0.46000001
-2.302 -9.2849998 -0.62099999 0.34
-2.2969999 -9.3909998 -0.63 0.41
-2.2809999 -9.4589996 -0.63499999 0.17
-2.9360001 -12.291 -0.88499999 0.40000001
-2.9070001 -12.341 -0.889 0.38999999
-2.8629999 -12.327 -0.88700002 0.38
-2.826 -12.346 -0.88800001 0.38
-2.8039999 -12.428 -0.89399999 0.34999999
-2.753 -12.383 -0.889 0.46000001
-2.721 -12.42 -0.89200002 0.28
-2.7019999 -12.431 -0.89300001 0.57999998
-2.0650001 -9.6140003 -0.64399999 0.18000001
-2.6340001 -12.496 -0.89700001 0.50999999
-2.5550001 -12.307 -0.88 0.37
-2.6170001 -12.815 -0.92299998 0.37
-2.474 -12.309 -0.87800002 0.37
-2.473 -12.507 -0.89499998 0.25
-2.3559999 -12.012 -0.85100001 0.38
-2.3080001 -11.964 -0.84600002 0.34
-2.3970001 -12.647 -0.90600002 0.28
-2.346 -12.592 -0.89999998 0.61000001
-2.365 -12.923 -0.92799997 0.27000001
-2.1389999 -11.886 -0.83700001 0.17
-2.3039999 -13.055 -0.93900001 0.58999997
-2.2720001 -12.99 -0.93300003 0.25
-2.2690001 -13.219 -0.95200002 0.51999998
-2.257 -13.407 -0.96799999 0.22
-2.7460001 -16.665001 -1.251 0.31
-2.0969999 -12.947 -0.926 0.34
-2.6459999 -16.716999 -1.2539999 0.38999999
-2.122 -13.649 -0.986 0.25
-2.0940001 -13.609 -0.98299998 0.55000001
-2 -13.273 -0.95300001 0.18000001
-2.0150001 -13.669 -0.98699999 0.51999998
-1.902 -13.182 -0.94400001 0.20999999
-1.937 -13.741 -0.99199998 0.44999999
-1.882 -13.656 -0.98400003 0.33000001
-1.788 -13.281 -0.95099998 0.41
-1.837 -13.817 -0.99699998 0.27000001
-1.791 -13.803 -0.995 0.63
-2.1589999 -17.101 -1.281 0.15000001
-1.702 -13.792 -0.99400002 0.58999997
-1.6670001 -13.868 -1 0.28999999
-1.618 -13.83 -0.99599999 0.51999998
-1.918 -16.658001 -1.24 0.19
-1.5599999 -13.899 -1.001 0.56
-1.817 -16.705 -1.244 0.31999999
-1.466 -13.847 -0.99599999 0.36000001
-1.692 -16.518 -1.226 0.30000001
-1.63 -16.422001 -1.2180001 0.46000001
-1.579 -16.431 -1.2180001 0.37
-1.552 -16.43 -1.2180001 0.41
-1.497 -16.396999 -1.214 0.41
-1.447 -16.417 -1.216 0.34999999
-1.393 -16.392 -1.2130001 0.43000001
-1.336 -16.329 -1.207 0.38999999
-1.288 -16.377001 -1.211 0.40000001
-1.24 -16.42 -1.215 0.31
-1.21 -16.363001 -1.209 0.62
-1.155 -16.313 -1.205 0.23999999
-1.102 -16.298 -1.2029999 0.28
-1.062 -16.475 -1.2180001 0.44999999
-1.012 -16.502001 -1.22 0.28999999
-0.958 -16.471001 -1.217 0.56999999
-0.90600002 -16.476 -1.2180001 0.28999999
-0.77499998 -14.45 -1.043 0.41999999
-0.736 -14.585 -1.054 0.38
-0.69599998 -14.717 -1.066 0.36000001
-0.70899999 -16.113001 -1.1849999 0.22
-0.65399998 -15.989 -1.175 0.49000001
-0.60399997 -16.011 -1.176 0.27000001
-0.50400001 -14.5 -1.046 0.38
-0.458 -13.771 -0.98299998 0.33000001
-0.43099999 -14.356 -1.034 0.28
-0.42500001 -15.888 -1.165 0.37
-0.37900001 -16.098 -1.183 0.23
-0.32699999 -16.023001 -1.177 0.34
-0.27700001 -16.038 -1.178 0.34
-0.252 -16.063 -1.1799999 0.27000001
-0.20200001 -16.077 -1.181 0.5
-0.153 -16.221001 -1.194 0.19
-0.102 -16.181999 -1.1900001 0.46000001
-0.050999999 -16.101999 -1.183 0.37
-0 -16.075001 -1.181 0.47999999
0.050999999 -16.101999 -1.183 0.30000001
0.075000003 -16.031 -1.177 0.40000001
0.126 -16.025999 -1.177 0.41
0.17399999 -15.886 -1.165 0.43000001
0.219 -15.525 -1.1339999 0.28999999
0.273 -15.837 -1.161 0.37
0.32100001 -15.754 -1.154 0.38999999
0.36700001 -15.594 -1.14 0.33000001
0.396 -15.765 -1.155 0.36000001
0.44299999 -15.678 -1.147 0.28999999
0.493 -15.714 -1.151 0.46000001
0.537 -15.563 -1.138 0.37
0.58099997 -15.43 -1.126 0.28999999
0.64999998 -15.906 -1.1670001 0.38999999
0.69499999 -15.812 -1.16 0.40000001
0.71100003 -15.62 -1.143 0.28999999
0.78200001 -16.040001 -1.179 0.44999999
0.80400002 -15.508 -1.1339999 0.34
0.84799999 -15.428 -1.127 0.28
0.87699997 -15.101 -1.099 0.31999999
0.92500001 -15.112 -1.1 0.36000001
0.98400003 -15.284 -1.1160001 0.41
1.002 -15.189 -1.108 0.30000001
1.079 -15.601 -1.143 0.38
1.098 -15.184 -1.108 0.31
1.158 -15.345 -1.122 0.44999999
1.197 -15.227 -1.112 0.23
1.166 -14.283 -1.031 0.47
1.23 -14.498 -1.05 0.34
1.226 -14.196 -1.024 0.31999999
1.3049999 -14.56 -1.056 0.27000001
1.355 -14.601 -1.0599999 0.31
1.479 -15.4 -1.1289999 0.50999999
1.495 -15.076 -1.101 0.25999999
1.551 -15.149 -1.108 0.23999999
1.549 -14.688 -1.069 0.40000001
1.568 -14.642 -1.0650001 0.33000001
1.659 -15.045 -1.1 0.28999999
1.705 -15.026 -1.099 0.23
1.6950001 -14.539 -1.057 0.38999999
1.738 -14.512 -1.0549999 0.28999999
1.862 -15.133 -1.11 0.5
1.801 -14.456 -1.051 0.34
1.844 -14.431 -1.05 0.25
1.852 -14.149 -1.026 0.34999999
1.817 -13.556 -0.97500002 0.28999999
1.859 -13.55 -0.97500002 0.5
2.0569999 -14.632 -1.069 0.36000001
2.1300001 -14.814 -1.086 0.23999999
2.0799999 -14.31 -1.0420001 0.36000001
2.1559999 -14.508 -1.0599999 0.28999999
2.201 -14.5 -1.0599999 0.28999999
2.2119999 -14.272 -1.041 0.41999999
2.2750001 -14.379 -1.05 0.23
2.293 -14.205 -1.036 0.46000001
2.303 -13.993 -1.018 0.18000001
2.408 -14.483 -1.061 0.28999999
2.427 -14.322 -1.048 0.43000001
2.4560001 -14.218 -1.039 0.2
2.5369999 -14.414 -1.057 0.49000001
2.5599999 -14.287 -1.0470001 0.31999999
2.6070001 -14.29 -1.048 0.41999999
2.6570001 -14.31 -1.05 0.30000001
2.7119999 -14.478 -1.0650001 0.30000001
2.5380001 -13.324 -0.96499997 0.5
2.6210001 -13.529 -0.98400003 0.28
2.7090001 -13.752 -1.0039999 0.28
2.6900001 -13.435 -0.977 0.25
2.8010001 -13.762 -1.006 0.51999998
2.8859999 -13.952 -1.024 0.20999999
2.8499999 -13.672 -1 0.41
3.027 -14.289 -1.0549999 0.38999999
3.016 -14.022 -1.0319999 0.41
3.0899999 -14.147 -1.044 0.34999999
3.075 -13.875 -1.021 0.40000001
3.0840001 -13.71 -1.007 0.25
3.1270001 -13.802 -1.016 0.46000001
3.1029999 -13.501 -0.99000001 0.27000001
3.168 -13.588 -0.99800003 0.44
3.3 -13.952 -1.031 0.46000001
2.9790001 -12.431 -0.898 0.23999999
3.256 -13.395 -0.98400003 0.28999999
3.201 -12.994 -0.949 0.31
3.329 -13.416 -0.98699999 0.27000001
3.388 -13.475 -0.99299997 0.63
3.4089999 -13.379 -0.986 0.23999999
3.4679999 -13.434 -0.99199998 0.43000001
3.5039999 -13.398 -0.98900002 0.27000001
3.5869999 -13.541 -1.003 0.40000001
3.6630001 -13.655 -1.0140001 0.31999999
3.665 -13.576 -1.008 0.46000001
3.615 -13.228 -0.97799999 0.23999999
3.7839999 -13.676 -1.0190001 0.43000001
3.7950001 -13.549 -1.0089999 0.28999999
3.8380001 -13.539 -1.0089999 0.51999998
3.6589999 -12.759 -0.94 0.25999999
3.8540001 -13.279 -0.98799998 0.27000001
3.9430001 -13.504 -1.008 0.46000001
4.0250001 -13.625 -1.02 0.44
3.967 -13.277 -0.99000001 0.25
3.944 -13.053 -0.97100002 0.31
4.1350002 -13.528 -1.015 0.38
4.1690001 -13.488 -1.013 0.55000001
4.0830002 -13.137 -0.98199999 0.2
4.1529999 -13.218 -0.99000001 0.28999999
4.1960001 -13.206 -0.99000001 0.34
4.2470002 -13.225 -0.99299997 0.20999999
4.2779999 -13.18 -0.99000001 0.5
4.3969998 -13.399 -1.011 0.27000001
4.4260001 -13.347 -1.008 0.52999997
4.5479999 -13.641 -1.035 0.22
4.7399998 -14.066 -1.075 0.36000001
4.7919998 -14.074 -1.077 0.37
4.8509998 -14.102 -1.081 0.30000001
4.8930001 -14.081 -1.08 0.41
4.9200001 -14.017 -1.076 0.46000001
5.0240002 -14.168 -1.091 0.30000001
5.0409999 -14.145 -1.09 0.34
4.526 -12.583 -0.949 0.23
5.0100002 -13.788 -1.0599999 0.41999999
4.9959998 -13.615 -1.046 0.38
4.7179999 -12.74 -0.96700001 0.31999999
4.6830001 -12.526 -0.949 0.30000001
5.1230001 -13.565 -1.046 0.30000001
4.783 -12.61 -0.958 0.25999999
4.961 -12.953 -0.991 0.41999999
4.7270002 -12.232 -0.926 0.37
4.869 -12.482 -0.95099998 0.34
5.04 -12.799 -0.98100001 0.37
4.8969998 -12.324 -0.93900001 0.40000001
5.0009999 -12.529 -0.95899999 0.25
4.9590001 -12.312 -0.94 0.43000001
5.052 -12.429 -0.95200002 0.41
5.1339998 -12.516 -0.96200001 0.36000001
5.099 -12.321 -0.94499999 0.38999999
5.2259998 -12.517 -0.96499997 0.23
5.2329998 -12.423 -0.958 0.5
5.2589998 -12.431 -0.95899999 0.25999999
5.3130002 -12.449 -0.963 0.55000001
5.4130001 -12.572 -0.97600001 0.23999999
5.434 -12.513 -0.972 0.51999998
5.4109998 -12.355 -0.958 0.34
5.5019999 -12.456 -0.97000003 0.47
5.5009999 -12.348 -0.96100003 0.28999999
5.559 -12.427 -0.96899998 0.41
5.5799999 -12.367 -0.96499997 0.31999999
5.5840001 -12.274 -0.958 0.46000001
5.6690001 -12.357 -0.96799999 0.37
5.6609998 -12.24 -0.958 0.2
5.8600001 -12.563 -0.991 0.56999999
5.8280001 -12.394 -0.97600001 0.34999999
5.5300002 -11.717 -0.91299999 0.28999999
5.9099998 -12.416 -0.98100001 0.47
5.704 -11.89 -0.93300003 0.25
5.6960001 -11.779 -0.92400002 0.31
5.723 -11.739 -0.92199999 0.33000001
5.7919998 -11.787 -0.92799997 0.49000001
5.9380002 -11.988 -0.949 0.28
5.895 -11.854 -0.93699998 0.36000001
5.9910002 -11.953 -0.94800001 0.44999999
5.4889998 -10.872 -0.84600002 0.28
5.9590001 -11.706 -0.92799997 0.36000001
5.96 -11.618 -0.921 0.37
6.086 -11.771 -0.93800002 0.31999999
6.1420002 -11.789 -0.94199997 0.36000001
6.1440001 -11.747 -0.93900001 0.31999999
6.0949998 -11.566 -0.92299998 0.44999999
6.2540002 -11.777 -0.94499999 0.38999999
6.2620001 -11.703 -0.94 0.30000001
6.151 -11.41 -0.91299999 0.47999999
6.276 -11.555 -0.92900002 0.43000001
6.2620001 -11.486 -0.92400002 0.22
6.2940001 -11.459 -0.92299998 0.5
6.3909998 -11.549 -0.93400002 0.31999999
6.4289999 -11.532 -0.93400002 0.36000001
6.4390001 -11.465 -0.92900002 0.41999999
6.414 -11.337 -0.91900003 0.40000001
6.3759999 -11.189 -0.90600002 0.31
6.7649999 -11.825 -0.97000003 0.41
6.8049998 -11.809 -0.97100002 0.25999999
6.7379999 -11.609 -0.95300001 0.34999999
6.849 -11.715 -0.96600002 0.36000001
6.5679998 -11.156 -0.912 0.28999999
6.9780002 -11.765 -0.97500002 0.51999998
7.0349998 -11.776 -0.97799999 0.19
7.0809999 -11.811 -0.98299998 0.47999999
7.1500001 -11.842 -0.98799998 0.40000001
7.1430001 -11.746 -0.98100001 0.34
7.1960001 -11.751 -0.98299998 0.43000001
7.2709999 -11.789 -0.99000001 0.33000001
7.2600002 -11.69 -0.98199999 0.46000001
7.3520002 -11.755 -0.991 0.31
7.3649998 -11.735 -0.99000001 0.37
7.3579998 -11.643 -0.98299998 0.43000001
7.375 -11.588 -0.98000002 0.34999999
7.4559999 -11.635 -0.98699999 0.38999999
7.5760002 -11.74 -1 0.25999999
7.546 -11.613 -0.98900002 0.55000001
7.3470001 -11.231 -0.95300001 0.27000001
7.4489999 -11.347 -0.96600002 0.43000001
7.382 -11.169 -0.94999999 0.30000001
7.5229998 -11.305 -0.96600002 0.31999999
7.6880002 -11.473 -0.986 0.49000001
7.6360002 -11.319 -0.97299999 0.36000001
7.6329999 -11.239 -0.96700001 0.23999999
7.7340002 -11.348 -0.98000002 0.38999999
7.8210001 -11.4 -0.98699999 0.25
7.973 -11.542 -1.005 0.28
7.5910001 -10.917 -0.94199997 0.52999997
7.349 -10.501 -0.90100002 0.28999999
7.8800001 -11.182 -0.97500002 0.30000001
7.572 -10.675 -0.92400002 0.34
7.5669999 -10.632 -0.921 0.31999999
7.6269999 -10.646 -0.92500001 0.44999999
8.0100002 -11.104 -0.97600001 0.36000001
8.1120005 -11.172 -0.986 0.31999999
8.2670002 -11.309 -1.003 0.31
8.184 -11.123 -0.986 0.38999999
8.0719995 -10.9 -0.96499997 0.37
8.1230001 -10.932 -0.97000003 0.30000001
8.1040001 -10.837 -0.96200001 0.44
8.2180004 -10.916 -0.97399998 0.36000001
8.0670004 -10.647 -0.94700003 0.28999999
8.033 -10.533 -0.93800002 0.38
7.9679999 -10.38 -0.92400002 0.44
8.1969995 -10.609 -0.95099998 0.19
8.0670004 -10.407 -0.93099999 0.63
8.2720003 -10.603 -0.95499998 0.27000001
8.2910004 -10.558 -0.95300001 0.27000001
8.4239998 -10.658 -0.96700001 0.44999999
8.3549995 -10.503 -0.95300001 0.37
8.3459997 -10.425 -0.94700003 0.36000001
8.3769999 -10.396 -0.94700003 0.34
8.3140001 -10.285 -0.93599999 0.41999999
8.533 -10.487 -0.96100003 0.23999999
8.4359999 -10.303 -0.94400001 0.44999999
8.5200005 -10.338 -0.95099998 0.38999999
8.6499996 -10.429 -0.96399999 0.34999999
8.7349997 -10.465 -0.97100002 0.41
8.7290001 -10.424 -0.96799999 0.31999999
8.8660002 -10.519 -0.98199999 0.31999999
8.8100004 -10.387 -0.97000003 0.44999999
8.8079996 -10.32 -0.96499997 0.38
8.8240004 -10.272 -0.963 0.44999999
8.8479996 -10.236 -0.96200001 0.28999999
8.9729996 -10.314 -0.97399998 0.52999997
8.9300003 -10.199 -0.96399999 0.37
8.8319998 -10.057 -0.94999999 0.28
8.7740002 -9.9280005 -0.93800002 0.44999999
8.967 -10.081 -0.95899999 0.36000001
9.0249996 -10.083 -0.96200001 0.36000001
9.2959995 -10.319 -0.99299997 0.37
9.2139997 -10.164 -0.97799999 0.16
9.4650002 -10.407 -1.008 0.52999997
9.4370003 -10.312 -1.001 0.25999999
9.4519997 -10.263 -0.99800003 0.47
9.3190002 -10.055 -0.977 0.41
9.2309999 -9.8979998 -0.96200001 0.28999999
9.165 -9.7659998 -0.94999999 0.38
9.2360001 -9.7799997 -0.95499998 0.30000001
9.158 -9.6680002 -0.94400001 0.38999999
9.1099997 -9.5570002 -0.93400002 0.36000001
9.3140001 -9.7089996 -0.95599997 0.44
9.5349998 -9.8760004 -0.97899997 0.31999999
9.6389999 -9.9209995 -0.98799998 0.34
9.165 -9.3760004 -0.926 0.44
9.2519999 -9.4049997 -0.93300003 0.20999999
9.448 -9.573 -0.95499998 0.31999999
9.5950003 -9.6610003 -0.96899998 0.31999999
9.4130001 -9.4200001 -0.94400001 0.38
9.434 -9.382 -0.94300002 0.36000001
9.7089996 -9.5939999 -0.972 0.27000001
9.7620001 -9.585 -0.97500002 0.25999999
9.8339996 -9.6260004 -0.98199999 0.52999997
9.823 -9.5550003 -0.977 0.33000001
9.6099997 -9.29 -0.94800001 0.41
9.6309996 -9.2519999 -0.94700003 0.40000001
9.8870001 -9.4370003 -0.97399998 0.23
9.8129997 -9.309 -0.96200001 0.51999998
9.526 -8.9799995 -0.92400002 0.14
9.1339998 -8.585 -0.87699997 0.49000001
9.0469999 -8.4510002 -0.86299998 0.34
9.2580004 -8.5930004 -0.88499999 0.27000001
9.2969999 -8.5740004 -0.88599998 0.51999998
9.2959995 -8.5200005 -0.88300002 0.30000001
9.2679996 -8.441 -0.87699997 0.47999999
9.3140001 -8.4289999 -0.87900001 0.33000001
9.224 -8.2959995 -0.86500001 0.38999999
9.2790003 -8.3190002 -0.87 0.44999999
9.2469997 -8.2379999 -0.86400002 0.38
9.4759998 -8.3879995 -0.88700002 0.36000001
9.3360004 -8.2130003 -0.86799997 0.28999999
9.4829998 -8.2889996 -0.88200003 0.51999998
9.5450001 -8.2910004 -0.88599998 0.23999999
9.6160002 -8.3249998 -0.89200002 0.44999999
9.6590004 -8.309 -0.89399999 0.38999999
9.7320004 -8.3190002 -0.89999998 0.44999999
9.7589998 -8.2889996 -0.89999998 0.37
9.7869997 -8.2600002 -0.89999998 0.34999999
9.8649998 -8.2729998 -0.90600002 0.41
9.908 -8.2559996 -0.90799999 0.44
9.7019997 -8.0600004 -0.88300002 0.34
9.8400002 -8.1219997 -0.89600003 0.33000001
10.134 -8.3100004 -0.926 0.38
10.038 -8.1789999 -0.912 0.25
10.164 -8.2290001 -0.92299998 0.37
10.158 -8.1700001 -0.92000002 0.31999999
10.164 -8.1239996 -0.91799998 0.44999999
10.113 -8.0570002 -0.91100001 0.38999999
10.126 -8.0150003 -0.90899998 0.38999999
10.198 -8.0200005 -0.91399997 0.41999999
10.187 -7.96 -0.91000003 0.2
10.037 -7.7930002 -0.89099997 0.55000001
10.133 -7.816 -0.89899999 0.30000001
10.293 -7.888 -0.91399997 0.5
10.32 -7.882 -0.91500002 0.25
10.553 -8.007 -0.93800002 0.41
10.667 -8.0410004 -0.94700003 0.31999999
10.253 -7.6799998 -0.89999998 0.34
10.306 -7.6690001 -0.903 0.36000001
10.985 -8.1190004 -0.97299999 0.31999999
10.911 -8.0380001 -0.96399999 0.30000001
10.831 -7.927 -0.95300001 0.51999998
10.818 -7.8649998 -0.949 0.23999999
10.197 -7.3670001 -0.88 0.33000001
10.839 -7.777 -0.94599998 0.18000001
11.093 -7.9060001 -0.97000003 0.44999999
10.912 -7.7259998 -0.94800001 0.27000001
10.975 -7.744 -0.954 0.47999999
10.97 -7.6890001 -0.95099998 0.30000001
11.081 -7.7150002 -0.95999998 0.25
11.151 -7.7119999 -0.96399999 0.57999998
11.085 -7.6149998 -0.95499998 0.33000001
11.113 -7.5830002 -0.95599997 0.37
11.198 -7.5900002 -0.96200001 0.25
11.265 -7.6090002 -0.96799999 0.47
11.184 -7.5040002 -0.95700002 0.37
11.145 -7.427 -0.94999999 0.36000001
11.031 -7.302 -0.93599999 0.36000001
11.196 -7.3600001 -0.95099998 0.36000001
11.264 -7.3540001 -0.95499998 0.40000001
11.148 -7.2290001 -0.94099998 0.30000001
11.203 -7.2389998 -0.94599998 0.38
11.295 -7.2480001 -0.95300001 0.41
11.407 -7.2690001 -0.96200001 0.20999999
11.354 -7.1849999 -0.954 0.61000001
11.285 -7.0929999 -0.94499999 0.27000001
11.536 -7.1989999 -0.96799999 0.5
11.139 -6.9039998 -0.926 0.25
11.434 -7.0609999 -0.954 0.34
11.559 -7.0890002 -0.96499997 0.37
11.44 -6.9660001 -0.94999999 0.46000001
11.51 -6.9590001 -0.95499998 0.25
11.631 -6.9819999 -0.96499997 0.46000001
11.737 -6.9959998 -0.97399998 0.37
11.769 -6.9650002 -0.97500002 0.31
11.818 -6.9679999 -0.97799999 0.54000002
11.812 -6.915 -0.97600001 0.28
11.951 -6.9460001 -0.98699999 0.37
12.052 -6.954 -0.995 0.38999999
12.122 -6.9439998 -1 0.43000001
12.051 -6.8530002 -0.991 0.28999999
12.098 -6.8540001 -0.99400002 0.41
12.142 -6.829 -0.99699998 0.38
12.186 -6.803 -0.99900001 0.41
12.15 -6.7329998 -0.99299997 0.34
12.136 -6.6760001 -0.99000001 0.41
12.319 -6.7259998 -1.006 0.30000001
12.456 -6.75 -1.017 0.41
12.441 -6.7160001 -1.0140001 0.33000001
12.469 -6.6810002 -1.015 0.43000001
12.505 -6.6500001 -1.017 0.47999999
12.644 -6.6729999 -1.028 0.20999999
12.706 -6.6539998 -1.0319999 0.28
12.837 -6.671 -1.043 0.47
12.84 -6.6220002 -1.041 0.36000001
13.043 -6.6999998 -1.0599999 0.36000001
12.96 -6.6059999 -1.049 0.41
12.995 -6.573 -1.051 0.31999999
13.054 -6.5510001 -1.0549999 0.46000001
11.755 -5.8559999 -0.92799997 0.38999999
12.362 -6.1090002 -0.98400003 0.37
12.56 -6.1570001 -1.001 0.25999999
12.375 -6.0419998 -0.98299998 0.28
12.632 -6.119 -1.006 0.34999999
12.766 -6.1339998 -1.017 0.19
12.408 -5.914 -0.98100001 0.34
12.569 -5.9419999 -0.99400002 0.46000001
12.634 -5.9250002 -0.99900001 0.36000001
12.613 -5.8909998 -0.99599999 0.31
12.655 -5.862 -0.99800003 0.27000001
12.659 -5.8150001 -0.99699998 0.44999999
12.697 -5.7849998 -0.99800003 0.34
12.662 -5.7210002 -0.99299997 0.38999999
12.733 -5.7049999 -0.99800003 0.46000001
12.8 -5.6869998 -1.003 0.41
12.842 -5.6810002 -1.006 0.44999999
13.002 -5.7030001 -1.0190001 0.36000001
13.032 -5.6669998 -1.021 0.43000001
13.217 -5.698 -1.036 0.34
13.27 -5.671 -1.04 0.34
13.328 -5.6459999 -1.043 0.47
13.393 -5.625 -1.048 0.38
13.454 -5.625 -1.053 0.34
13.478 -5.586 -1.053 0.43000001
13.627 -5.5970001 -1.0650001 0.37
13.609 -5.54 -1.062 0.41999999
13.667 -5.513 -1.066 0.30000001
13.731 -5.4889998 -1.0700001 0.47999999
13.865 -5.4920001 -1.081 0.38
14.014 -5.5250001 -1.094 0.34999999
14.087 -5.5029998 -1.099 0.38999999
14.185 -5.4889998 -1.1059999 0.44
14.245 -5.461 -1.11 0.36000001
14.361 -5.454 -1.12 0.43000001
14.477 -5.4450002 -1.1289999 0.41
14.568 -5.428 -1.135 0.44999999
14.672 -5.4400001 -1.1440001 0.27000001
14.706 -5.4000001 -1.146 0.54000002
14.785 -5.3759999 -1.151 0.38
14.824 -5.3379998 -1.153 0.33000001
14.865 -5.3000002 -1.156 0.47
14.889 -5.256 -1.156 0.31
14.919 -5.2129998 -1.158 0.36000001
14.957 -5.1999998 -1.16 0.34999999
14.987 -5.158 -1.161 0.34
15.027 -5.119 -1.164 0.30000001
15.079 -5.0840001 -1.1670001 0.34999999
15.105 -5.04 -1.168 0.31999999
15.145 -5 -1.17 0.34
15.183 -4.96 -1.1720001 0.34
15.204 -4.9400001 -1.173 0.34
15.235 -4.8979998 -1.175 0.30000001
15.284 -4.8600001 -1.178 0.31999999
15.315 -4.8169999 -1.179 0.31
15.347 -4.7740002 -1.181 0.31
15.391 -4.7350001 -1.183 0.31
15.411 -4.7150002 -1.184 0.31
15.462 -4.677 -1.188 0.31999999
15.49 -4.6329999 -1.189 0.31999999
15.52 -4.5879998 -1.1900001 0.31
15.555 -4.546 -1.192 0.31
15.591 -4.5029998 -1.194 0.31999999
15.639 -4.4640002 -1.197 0.31999999
15.652 -4.441 -1.198 0.31999999
15.693 -4.3990002 -1.2 0.31
15.726 -4.355 -1.202 0.31
15.743 -4.3070002 -1.202 0.31
15.778 -4.263 -1.204 0.2
11.588 -3.099 -0.82999998 0.55000001
15.826 -4.1690001 -1.206 0.15000001
11.662 -3.04 -0.83499998 0.23
9.5719995 -2.484 -0.64899999 0.41999999
9.4219999 -2.414 -0.63499999 0.99000001
9.2799997 -2.3469999 -0.62199998 0.99000001
9.7069998 -2.4219999 -0.65899998 0.72000003
9.5950003 -2.362 -0.648 0.15000001
11.716 -2.839 -0.83499998 0.54000002
14.436 -3.4679999 -1.075 0.18000001
14.533 -3.4430001 -1.0829999 0.55000001
14.417 -3.368 -1.072 0.28999999
14.766 -3.4000001 -1.102 0.47999999
14.531 -3.2980001 -1.08 0.23999999
14.269 -3.1919999 -1.056 0.40000001
14.275 -3.1459999 -1.056 0.34999999
14.557 -3.184 -1.08 0.31
14.483 -3.1199999 -1.073 0.38
14.518 -3.0799999 -1.075 0.31
14.793 -3.089 -1.098 0.41
14.877 -3.0580001 -1.105 0.43000001
14.988 -3.0320001 -1.114 0.31
15.02 -3.0139999 -1.1160001 0.47999999
15.049 -2.97 -1.118 0.34
15.232 -2.9560001 -1.133 0.31
15.512 -2.96 -1.1569999 0.49000001
15.494 -2.9059999 -1.154 0.34
15.452 -2.848 -1.15 0.33000001
15.208 -2.7539999 -1.128 0.33000001
15.067 -2.704 -1.115 0.34
15.081 -2.658 -1.115 0.36000001
15.199 -2.6289999 -1.125 0.41
15.406 -2.615 -1.142 0.31
15.404 -2.5650001 -1.141 0.38
15.605 -2.5480001 -1.158 0.31999999
15.855 -2.5369999 -1.179 0.51999998
15.605 -2.4719999 -1.1569999 0.23
16.02 -2.4860001 -1.193 0.34
16.190001 -2.46 -1.207 0.46000001
16.250999 -2.4170001 -1.211 0.37
16.285999 -2.369 -1.214 0.31999999
16.23 -2.309 -1.2079999 0.43000001
16.225 -2.257 -1.207 0.37
16.455999 -2.2620001 -1.227 0.31
16.768999 -2.2509999 -1.253 0.34
16.926001 -2.2179999 -1.266 0.40000001
16.988001 -2.1719999 -1.271 0.38
17.134001 -2.135 -1.283 0.41
17.308001 -2.102 -1.298 0.41999999
17.601999 -2.0810001 -1.323 0.33000001
17.912001 -2.0880001 -1.349 0.46000001
18.023001 -2.0439999 -1.358 0.44
18.091 -1.994 -1.364 0.34
18.282 -1.957 -1.38 0.23
18.639 -1.9349999 -1.41 0.28
18.927999 -1.905 -1.434 0.46000001
19.341999 -1.915 -1.47 0.46000001
19.608999 -1.8789999 -1.492 0.28999999
19.681 -1.823 -1.498 0.33000001
19.688 -1.762 -1.498 0.27000001
19.652 -1.696 -1.495 0.27000001
19.636999 -1.633 -1.493 0.27000001
19.627001 -1.5700001 -1.492 0.27000001
19.639 -1.54 -1.492 0.25
19.642 -1.478 -1.492 0.18000001
19.662001 -1.4170001 -1.494 0.43000001
19.686001 -1.357 -1.495 0.23
19.704 -1.296 -1.497 0.25
19.702 -1.234 -1.4960001 0.2
19.738001 -1.174 -1.499 0.20999999
19.756001 -1.1440001 -1.5 0.17
19.771 -1.082 -1.501 0.13
19.782 -1.02 -1.502 0.17
19.784 -0.958 -1.502 0.12
19.787001 -0.89600003 -1.502 0.16
19.768999 -0.833 -1.5 0.12
19.764 -0.77100003 -1.499 0.16
19.757 -0.73900002 -1.499 0.12
19.754999 -0.67699999 -1.498 0.17
19.754999 -0.61500001 -1.498 0.30000001
19.753 -0.55299997 -1.498 0.19
19.757 -0.491 -1.498 0.18000001
19.742001 -0.428 -1.497 0.34
19.75 -0.366 -1.497 0.18000001
19.728001 -0.33500001 -1.495 0.37
19.716999 -0.273 -1.494 0.23
19.709999 -0.211 -1.493 0.18000001
19.712999 -0.149 -1.494 0.40000001
19.697001 -0.086999997 -1.492 0.25
19.687 -0.025 -1.4910001 0.2
18.618 0.054000001 -1.51 0.1
18.629999 0.113 -1.511 0
18.653999 0.142 -1.5140001 0
18.673 0.20100001 -1.515 0
18.700001 0.25999999 -1.518 0
18.747 0.31999999 -1.522 0
18.722 0.37799999 -1.52 0
18.749001 0.43799999 -1.523 0
18.76 0.46700001 -1.524 0
18.771999 0.52700001 -1.525 0
18.780001 0.58600003 -1.526 0
18.780001 0.64499998 -1.526 0
18.780001 0.704 -1.526 0
18.778 0.76300001 -1.526 0
18.778 0.82200003 -1.527 0
18.796 0.852 -1.528 0
18.781 0.91100001 -1.527 0
18.764999 0.96899998 -1.526 0
18.768999 1.029 -1.527 0
18.742001 1.086 -1.525 0
18.731001 1.145 -1.524 0
18.705 1.202 -1.522 0
18.695 1.2309999 -1.521 0.07
18.683001 1.289 -1.52 0.14
18.693001 1.349 -1.522 0.13
18.671 1.406 -1.52 0.23
18.662001 1.465 -1.52 0.25
18.551001 1.515 -1.51 0.36000001
18.655001 1.582 -1.52 0.17
18.672001 1.613 -1.522 0.1
18.695 1.674 -1.524 0.15000001
18.715 1.735 -1.527 0.090000004
18.722 1.795 -1.528 0.15000001
18.728001 1.855 -1.529 0.090000004
18.742001 1.916 -1.531 0
18.754999 1.977 -1.5319999 0
18.766001 2.0079999 -1.534 0
18.801001 2.0710001 -1.5369999 0
18.785 2.1289999 -1.5369999 0
18.808001 2.1919999 -1.539 0
18.806999 2.2509999 -1.54 0
18.794001 2.3099999 -1.539 0
18.82 2.3729999 -1.5420001 0
18.826 2.404 -1.543 0
18.822001 2.4630001 -1.544 0
18.791 2.5190001 -1.5420001 0
18.796 2.5799999 -1.543 0
18.813999 2.6429999 -1.545 0
18.757999 2.6949999 -1.541 0
18.716 2.7490001 -1.538 0.11
18.695999 2.776 -1.536 0.22
18.677 2.8329999 -1.535 0.23999999
18.646999 2.8889999 -1.533 0.27000001
18.618 2.944 -1.531 0.11
18.618 3.0039999 -1.5319999 0.17
18.583 3.059 -1.53 0.12
18.594 3.0899999 -1.531 0.17
18.569 3.1459999 -1.53 0.12
18.561001 3.2049999 -1.53 0.16
18.545 3.2620001 -1.53 0.12
18.538 3.3210001 -1.53 0.16
18.52 3.378 -1.529 0.27000001
18.511 3.4360001 -1.529 0.25
18.514999 3.467 -1.53 0.25
18.499001 3.5239999 -1.53 0.11
18.493 3.5840001 -1.53 0.15000001
18.478001 3.641 -1.53 0.1
18.466999 3.6989999 -1.53 0.15000001
18.451 3.756 -1.53 0.090000004
18.433001 3.813 -1.529 0.090000004
18.441 3.845 -1.53 0.15000001
18.421 3.901 -1.53 0.090000004
18.414 3.96 -1.53 0.090000004
18.41 4.02 -1.531 0.090000004
18.403 4.079 -1.531 0.090000004
18.392 4.1370001 -1.5319999 0.14
18.365 4.1919999 -1.53 0.090000004
18.378 4.2249999 -1.5319999 0.14
18.355 4.2800002 -1.531 0.1
18.358999 4.342 -1.533 0.15000001
18.322001 4.3940001 -1.531 0.1
18.323 4.4549999 -1.5319999 0.16
18.311001 4.513 -1.5319999 0.28
18.283001 4.5679998 -1.531 0.19
18.297001 4.6020002 -1.533 0.18000001
18.283001 4.6589999 -1.533 0.20999999
18.264 4.7150002 -1.533 0.19
18.246 4.7719998 -1.5319999 0.20999999
18.25 4.8340001 -1.534 0.2
18.226999 4.8889999 -1.533 0.22
18.216999 4.948 -1.534 0.2
18.223 4.9809999 -1.535 0.22
18.212999 5.039 -1.536 0.20999999
18.201 5.098 -1.536 0.23
18.232 5.1680002 -1.541 0.2
18.266001 5.2399998 -1.546 0.23
18.275999 5.3049998 -1.548 0.31999999
18.323 5.3499999 -1.553 0.22
18.215 5.3800001 -1.545 0.25999999
18.051001 5.3940001 -1.531 0.25999999
17.891001 5.4070001 -1.517 0.41
17.721001 5.4169998 -1.502 0.22
17.554001 5.427 -1.488 0.22
17.422001 5.4460001 -1.477 0.41999999
17.264 5.427 -1.462 0.23999999
17.101999 5.4349999 -1.448 0.27000001
17.014999 5.4660001 -1.442 0.25
16.971001 5.5110002 -1.439 0.25
17.007 5.5819998 -1.444 0.18000001
17.004 5.6399999 -1.446 0.33000001
17.003 5.6989999 -1.447 0.18000001
16.987 5.724 -1.447 0.37
16.995001 5.7859998 -1.449 0.19
16.958 5.8330002 -1.447 0.36000001
16.955 5.8909998 -1.449 0.18000001
16.940001 5.9460001 -1.449 0.37
16.938 6.0050001 -1.451 0.2
16.927 6.0609999 -1.451 0.34999999
16.940001 6.0949998 -1.454 0.19
16.924 6.1500001 -1.454 0.36000001
16.923 6.21 -1.456 0.19
16.9 6.2620001 -1.455 0.34999999
16.895 6.3200002 -1.457 0.19
16.865999 6.3699999 -1.456 0.36000001
16.857 6.427 -1.457 0.2
16.825001 6.4450002 -1.455 0.23
16.808001 6.4990001 -1.455 0.2
16.789 6.553 -1.455 0.20999999
16.782 6.6110001 -1.457 0.2
16.774 6.6680002 -1.4579999 0.20999999
16.782 6.7329998 -1.461 0.19
16.767 6.7880001 -1.462 0.20999999
16.785 6.8260002 -1.464 0.2
16.777 6.8839998 -1.466 0.20999999
16.790001 6.9510002 -1.469 0.19
16.796 7.0149999 -1.472 0.20999999
16.813999 7.085 -1.476 0.2
16.816 7.1479998 -1.478 0.22
16.846001 7.1919999 -1.483 0.2
16.870001 7.2649999 -1.487 0.23999999
16.795 7.296 -1.482 0.25999999
16.65 7.2950001 -1.47 0.25999999
16.582001 7.3270001 -1.465 0.38
16.551001 7.3759999 -1.464 0.28
16.466 7.4000001 -1.4579999 0.34
16.424 7.4120002 -1.455 0.31999999
16.288 7.4130001 -1.444 0.37
16.221001 7.4439998 -1.439 0.31
16.16 7.4770002 -1.436 0.31999999
16.028999 7.4790001 -1.425 0.38
16.08 7.5640001 -1.432 0.28
16.047001 7.6100001 -1.431 0.41
15.967 7.6030002 -1.424 0.30000001
15.81 7.5890002 -1.411 0.31999999
15.791 7.6409998 -1.411 0.34
15.742 7.6789999 -1.409 0.30000001
15.691 7.7150002 -1.406 0.36000001
15.677 7.77 -1.4069999 0.27000001
15.549 7.7670002 -1.397 0.31999999
15.567 7.8070002 -1.4 0.30000001
15.635 7.902 -1.409 0.23
15.259 7.7729998 -1.373 0.31999999
15.741 8.0799999 -1.425 0.19
15.442 7.9879999 -1.397 0.43000001
15.34 7.9970002 -1.3890001 0.20999999
14.985 7.8730001 -1.355 0.25999999
15.5 8.1730003 -1.41 0.34
15.154 8.052 -1.376 0.25
15.297 8.1899996 -1.3940001 0.28999999
15.3 8.2530003 -1.397 0.25999999
15.238 8.2819996 -1.393 0.18000001
14.922 8.1709995 -1.363 0.13
15.352 8.4689999 -1.41 0.44
15.243 8.4399996 -1.4 0.28
15.164 8.4589996 -1.395 0.25999999
15.28 8.5860004 -1.41 0.34
15.112 8.5550003 -1.395 0.25999999
15.13 8.6280003 -1.4 0.33000001
15.122 8.6859999 -1.402 0.30000001
15 8.6470003 -1.39 0.25999999
15.021 8.7220001 -1.395 0.36000001
15.002 8.7749996 -1.396 0.31999999
14.998 8.8360004 -1.399 0.23
14.646 8.691 -1.364 0.30000001
14.645 8.7519999 -1.367 0.25999999
14.515 8.7370005 -1.3559999 0.38
14.654 8.8520002 -1.373 0.34
14.771 8.9860001 -1.388 0.22
14.947 9.1569996 -1.41 0.38
14.903 9.1940002 -1.408 0.34999999
14.801 9.1960001 -1.401 0.38
14.608 9.1400003 -1.383 0.23999999
14.606 9.2030001 -1.386 0.28999999
14.55 9.1990004 -1.381 0.34999999
14.61 9.302 -1.391 0.34
14.497 9.2939997 -1.382 0.34999999
14.375 9.2799997 -1.372 0.30000001
14.403 9.3620005 -1.378 0.23
14.425 9.441 -1.3839999 0.38
14.267 9.4020004 -1.369 0.31999999
14.414 9.5310001 -1.387 0.27000001
14.356 9.5570002 -1.3839999 0.34999999
14.393 9.6479998 -1.392 0.30000001
14.282 9.6379995 -1.383 0.38
14.265 9.6920004 -1.3839999 0.25
14.294 9.7770004 -1.391 0.31
14.232 9.8009996 -1.387 0.38
14.103 9.7449999 -1.375 0.25999999
14.126 9.8269997 -1.381 0.23999999
14.314 10.024 -1.405 0.34
14.05 9.9049997 -1.3789999 0.25
14.171 10.057 -1.396 0.27000001
14.149 10.109 -1.397 0.28
14.095 10.137 -1.395 0.34
14.119 10.188 -1.399 0.31
13.991 10.162 -1.388 0.28999999
13.944 10.196 -1.387 0.36000001
13.941 10.261 -1.39 0.28999999
13.91 10.306 -1.39 0.38999999
13.881 10.352 -1.391 0.31999999
13.931 10.457 -1.4 0.28999999
13.842 10.424 -1.392 0.34
13.79 10.453 -1.3890001 0.23999999
13.757 10.496 -1.3890001 0.38999999
13.833 10.623 -1.402 0.23999999
13.722 10.607 -1.393 0.36000001
13.752 10.699 -1.4 0.28999999
13.782 10.757 -1.406 0.25
13.714 10.773 -1.402 0.17
13.603 10.756 -1.393 0.47999999
13.611 10.832 -1.398 0.23999999
13.719 10.988 -1.414 0.23999999
13.45 10.912 -1.391 0.57999998
13.798 11.23 -1.434 0.19
14.083 11.535 -1.472 0.33000001
14.098 11.621 -1.478 0.27000001
13.941 11.566 -1.464 0.2
13.859 11.571 -1.4579999 0.43000001
13.714 11.524 -1.4450001 0.25
13.751 11.629 -1.454 0.23
13.827 11.73 -1.466 0.16
13.646 11.651 -1.448 0.47
13.826 11.879 -1.474 0.16
13.589 11.751 -1.45 0.14
13.478 11.729 -1.441 0.15000001
13.408 11.743 -1.437 0.20999999
13.377 11.79 -1.438 0.20999999
13.193 11.665 -1.418 0.11
13.134 11.687 -1.415 0.090000004
13.142 11.842 -1.425 0
12.978 11.768 -1.409 0
12.88 11.754 -1.402 0
34.743999 31.848 -4.131 0
34.528999 31.75 -4.1100001 0
35.271 32.637001 -4.2150002 0
34.835999 32.438 -4.1739998 0
34.952 32.751999 -4.2010002 0
34.551998 32.581001 -4.164 0
12.935 12.297 -1.439 0
12.956 12.394 -1.447 0
37.993 36.389999 -4.6339998 0
13.084 12.634 -1.471 0
34.702999 33.661999 -4.2420001 0
35.103001 34.264999 -4.3070002 0
38.721001 38.030998 -4.7870002 0
34.226002 33.833 -4.2220001 0
36.659 36.463001 -4.5510001 0
35.742001 35.664001 -4.4390001 0
37.080002 37.23 -4.6279998 0
36.908001 37.291 -4.6209998 0
33.812 34.381001 -4.2309999 0
33.668999 34.452 -4.2259998 0
33.617001 34.616001 -4.2340002 0
33.423 34.632999 -4.2220001 0
33.263 34.576 -4.2080002 0
33.201 34.729 -4.2150002 0
35.630001 37.501999 -4.553 0
34.683998 36.737999 -4.4419999 0
33.206001 35.396 -4.2600002 0
36.025002 38.639999 -4.6539998 0
30.197001 32.498001 -3.8759999 0.11
30.066999 32.561001 -3.872 0.27000001
30.049 32.748001 -3.8840001 0.11
29.982 32.882 -3.8889999 0
32.363998 35.715 -4.2290001 0
32.334 35.909 -4.2399998 0.059999999
29.407 32.868 -3.852 0.15000001
29.388 32.951 -3.8570001 0.12
29.077 32.810001 -3.8280001 0
29.174999 33.129002 -3.8559999 0
29.334 33.52 -3.8929999 0.12
29.169001 33.544998 -3.8840001 0
33.477001 38.737999 -4.5040002 0
29.385 34.223999 -3.9449999 0.12
28.694 33.526001 -3.855 0.20999999
28.201 33.160999 -3.8 0.18000001
32.998001 39.042999 -4.4970002 0
32.880001 39.152 -4.4980001 0
34.820999 41.727001 -4.7940001 0
32.972 39.765999 -4.5469999 0
31.868 38.682999 -4.4050002 0
35.527 43.257999 -4.9439998 0
30.695 37.619999 -4.2610002 0
34.626999 42.707001 -4.8520002 0
34.515999 42.845001 -4.855 0
32.484001 40.584 -4.5770001 0
34.342999 43.182999 -4.8699999 0
32.188999 40.737999 -4.5710001 0
28.540001 36.242001 -4.039 0
28.247 36.102001 -4.0120001 0
34.264999 44.07 -4.9289999 0
32.296001 41.808998 -4.6539998 0
32.089001 41.813 -4.6430001 0
29.077999 38.140999 -4.2069998 0
31.740999 41.902 -4.6300001 0
31.701 41.986 -4.6339998 0
31.461 42.216999 -4.638 0
31.346001 42.34 -4.6409998 0
27.818001 37.827 -4.1139998 0
27.739 37.969002 -4.1209998 0
27.527 37.929001 -4.1059999 0
27.579 38.125 -4.1240001 0
27.298 37.988998 -4.098 0
27.336 38.294998 -4.1230001 0
23.122999 32.615002 -3.473 0
23.149 32.869999 -3.494 0
23.047001 32.944 -3.494 0
23.075001 33.206001 -3.5150001 0
23.177 33.465 -3.54 0
22.841 33.202999 -3.503 0
22.530001 32.972 -3.4690001 0
23.313 34.347 -3.6140001 0
22.511999 33.394001 -3.5 0
21.808001 32.570999 -3.401 0
21.681999 32.604 -3.398 0
22.403 33.801998 -3.526 0
26.653999 40.481998 -4.2529998 0
21.909 33.512001 -3.4790001 0
21.983 33.855999 -3.5090001 0
21.799 33.806 -3.4960001 0
21.91 34.213001 -3.533 0
21.724001 34.157001 -3.5190001 0
22.007 34.723 -3.5769999 0
22.819 36.252998 -3.7360001 0
21.443001 34.307999 -3.517 0
21.339001 34.382 -3.5179999 0
29.625999 48.051998 -4.987 0
28.958 47.300999 -4.8959999 0
22.112 36.384998 -3.7119999 0
22.105 36.504002 -3.721 0
36.353001 60.426998 -6.2800002 0
28.153 47.143002 -4.8449998 0
28.047001 47.300999 -4.8530002 0
27.913 47.415001 -4.8559999 0
27.757999 47.492001 -4.855 0
27.709999 47.752998 -4.8730001 0
27.611 47.755001 -4.869 0
23.114 40.571999 -4.0900002 0
23.089001 40.824001 -4.1090002 0
32.907001 58.591 -5.9749999 0
26.32 47.221001 -4.7670002 0
22.629 40.908001 -4.0960002 0
26.042 47.243 -4.757 0
25.936001 47.403 -4.7649999 0
18.851 34.727001 -3.431 0
25.973 48.186001 -4.8299999 0
19.146999 35.806 -3.5309999 0
19.308001 36.381001 -3.5840001 0
18.593 35.301998 -3.4660001 0
18.423 35.113998 -3.4430001 0
18.593 35.708 -3.4990001 0
18.200001 35.223999 -3.4430001 0
18.174 35.446999 -3.46 0
18.437 36.238998 -3.536 0
20.951 41.493 -4.0710001 0
18.096001 36.127998 -3.513 0
17.944 35.966 -3.493 0
18.138 36.640999 -3.5569999 0
19.709 40.125 -3.908 0
20.423 41.909 -4.0840001 0
19.811001 40.981998 -3.9820001 0
19.528 40.722 -3.95 0
19.711 41.604 -4.0300002 0
26.129999 55.584 -5.4439998 0
22.277 47.785 -4.6440001 0
19.349001 41.855999 -4.0370002 0
22.136 48.272999 -4.6799998 0
22.063999 48.516998 -4.697 0
21.903 48.568001 -4.6960001 0
21.891001 48.743999 -4.71 0
24.523001 55.060001 -5.3379998 0
24.312 55.051998 -5.3299999 0
21.532 49.181 -4.7329998 0
23.348 53.782001 -5.1869998 0
23.222 53.953999 -5.197 0
23.204 54.382 -5.2329998 0
22.889999 53.881001 -5.1789999 0
22.659 53.806 -5.165 0
18.483999 44.292 -4.21 0
18.733999 45.290001 -4.303 0
18.649 45.488998 -4.3169999 0
18.535 45.618999 -4.3239999 0.12
18.410999 45.723999 -4.329 0.090000004
18.278999 45.603001 -4.3140001 0
18.207001 45.841 -4.3319998 0.07
18.055 45.877998 -4.3299999 0.14
17.778999 45.597 -4.2969999 0
17.625 45.625 -4.2940001 0
20.6 53.816002 -5.0949998 0
17.757 46.617001 -4.3839998 0
17.591999 46.622002 -4.3790002 0
17.413 46.591999 -4.3699999 0
17.202999 46.476002 -4.3540001 0
21.532 58.717999 -5.5469999 0
19.195999 52.867001 -4.9679999 0
23.407 65.084 -6.1560001 0
19.065001 53.550999 -5.0229998 0
21.927999 62.511002 -5.8870001 0
22.045 63.480999 -5.9749999 0
21.919001 63.764 -5.9959998 0
21.806999 64.091003 -6.0209999 0
21.636 64.251999 -6.0300002 0
21.493999 64.497002 -6.0469999 0
20.681 62.389 -5.8400002 0
20.495001 62.484001 -5.8429999 0
20.23 62.335999 -5.822 0
21.145 65.853996 -6.1560001 0
19.406 61.105 -5.691 0
19.881001 63.285999 -5.895 0
19.174 62.056999 -5.7680001 0
21.187 69.335999 -6.4619999 0
17.959999 60.136002 -5.5669999 0
20.745001 70.249001 -6.5310001 0
20.823 71.336998 -6.6290002 0
21.202 73.057999 -6.79 0
20.924999 72.960999 -6.7750001 0
20.225 71.367996 -6.6160002 0
20.023001 71.511002 -6.6240001 0
19.788 71.537003 -6.6199999 0
19.92 72.902 -6.7449999 0
19.475 72.164001 -6.6680002 0
19.343 72.125 -6.6620002 0
19.15 72.315002 -6.6739998 0
18.955999 72.5 -6.6859999 0
18.698999 72.446999 -6.6750002 0
18.76 73.636002 -6.783 0
18.601 73.983002 -6.8099999 0
18.379999 74.086998 -6.8140001 0
-2.3540001 78.087997 -6.9790001 0
-2.566 77.072998 -6.8860002 0
-2.7290001 74.883003 -6.6859999 0
-2.925 73.857002 -6.592 0
-3.063 71.630997 -6.388 0
-3.1070001 70.068001 -6.2449999 0
-3.2750001 68.961998 -6.1440001 0
-3.4130001 67.382004 -6 0
-3.5880001 66.691002 -5.9369998 0
-3.6259999 63.639 -5.6570001 0
-3.7880001 62.988998 -5.598 0
-3.9330001 62.138 -5.5209999 0
-3.9790001 61.337002 -5.448 0
-4.086 60.056 -5.3309999 0
-4.204 59.049999 -5.2399998 0
-4.3429999 58.401001 -5.1810002 0
-4.4190001 56.991001 -5.052 0
-4.5240002 56.050999 -4.967 0
-4.6459999 55.394001 -4.908 0
-4.7080002 54.083 -4.7880001 0
-4.7290001 53.355999 -4.7220001 0
-4.8540001 52.875 -4.6789999 0
-4.9580002 52.193001 -4.6170001 0
-5.0019999 50.956001 -4.5050001 0
-5.0370002 49.702 -4.3899999 0.059999999
-5.112 48.903 -4.3179998 0
-5.2179999 48.437 -4.276 0.11
-5.1420002 47.033001 -4.1469998 0.17
-5.2639999 46.789001 -4.1259999 0.16
-5.3330002 46.094002 -4.0630002 0.18000001
-5.421 45.598 -4.0190001 0.12
-5.4879999 44.950001 -3.961 0.15000001
-5.5450001 44.257 -3.898 0.12
-5.5469999 43.716999 -3.849 0.14
-5.5830002 42.915001 -3.776 0.12
-5.631 42.243 -3.7160001 0.16
-5.7010002 41.764 -3.6730001 0.17
-5.7639999 41.256001 -3.628 0.17
-5.763 40.320999 -3.5420001 0.18000001
-5.802 39.702 -3.487 0.33000001
-5.934 39.733002 -3.4909999 0.19
-5.9299998 39.276001 -3.45 0.1
-5.9949999 38.879002 -3.414 0.16
-6.0640001 38.521999 -3.3829999 0.28999999
-6.1259999 38.137001 -3.349 0.22
-6.224 37.981998 -3.336 0.30000001
-6.323 37.838001 -3.325 0
-6.3990002 37.567001 -3.3010001 0
-6.3590002 36.981998 -3.2479999 0
-6.3870001 36.455002 -3.201 0
-6.6490002 37.263 -3.2780001 0
-6.7620001 37.220001 -3.276 0
-6.7410002 36.448002 -3.2060001 0.11
-6.848 36.388 -3.2019999 0.22
-6.9650002 36.383999 -3.204 0.18000001
-7.098 36.765999 -3.24 0.1
-7.0450001 35.882 -3.1600001 0.19
-7.1479998 35.810001 -3.155 0
-7.4299998 36.626999 -3.234 0
-7.3639998 35.722 -3.151 0.14
-7.4380002 35.514999 -3.1340001 0.25999999
-7.5310001 35.402 -3.125 0
-7.5640001 35.285 -3.1159999 0
-8 36.762001 -3.257 0
-8.1230001 36.77 -3.26 0
-8.1920004 36.537998 -3.24 0
-8.1990004 36.037998 -3.1960001 0
-8.3400002 36.132 -3.207 0
-8.3260002 35.558998 -3.155 0
-18.542999 76.608002 -7.0430002 0
-18.493 75.365997 -6.9310002 0
-18.541 74.545998 -6.8590002 0
-18.392 72.964996 -6.7150002 0
-18.347 71.832001 -6.6129999 0
-18.011999 70.059998 -6.447 0
-17.929001 68.837997 -6.3369999 0
-17.886999 67.800003 -6.243 0
-17.724001 66.335999 -6.1090002 0
-17.825001 65.882004 -6.072 0
-17.875 65.251999 -6.0170002 0
-18.061001 65.127998 -6.0100002 0
-17.768999 63.686001 -5.875 0
-17.789 62.988998 -5.8140001 0
-17.434 60.994999 -5.6290002 0
-17.325001 59.898998 -5.5300002 0
-17.405001 59.474998 -5.494 0
-17.424 58.853001 -5.4400001 0
-17.282 57.707001 -5.335 0
-17.129 56.867001 -5.257 0
-17.132 56.235001 -5.2020001 0
-17.045 55.327 -5.1199999 0
-16.968 54.465 -5.0419998 0.1
-16.82 53.397999 -4.9439998 0
-16.955 53.243 -4.934 0
-17.056 52.981998 -4.914 0
-16.862 52.097 -4.8309999 0
-16.867001 51.556999 -4.7839999 0
-16.750999 50.664001 -4.7030001 0
-16.594999 49.667 -4.612 0
-16.563999 49.060001 -4.5580001 0
-16.622 48.724998 -4.5300002 0
-16.642 48.285999 -4.493 0.07
-16.663 48.102001 -4.4780002 0.15000001
-16.927 48.373001 -4.5089998 0.090000004
-16.945999 47.944 -4.4720001 0
-16.969 47.532001 -4.4369998 0
-16.860001 46.759998 -4.3670001 0
-16.768 46.048 -4.303 0
-16.823999 45.756001 -4.2789998 0
-16.851999 45.390999 -4.2490001 0
-16.819 45.084999 -4.2210002 0
-16.620001 44.125999 -4.132 0.07
-16.723 43.98 -4.1230001 0
-16.802 43.772999 -4.1079998 0.13
-16.749001 43.228001 -4.0599999 0.30000001
-16.794001 42.941002 -4.0370002 0.19
-16.712999 42.536999 -3.9990001 0.18000001
-16.694 42.098999 -3.961 0.17
-16.735001 41.817001 -3.938 0.19
-16.669001 41.276001 -3.8900001 0.28
-16.715 41.019001 -3.8699999 0
-16.681999 40.571999 -3.8310001 0.07
-15.698 37.834999 -3.5639999 0.090000004
-15.968 38.318001 -3.6140001 0.079999998
-15.92 37.865002 -3.5739999 0.14
-15.903 37.493999 -3.5420001 0.28999999
-15.802 36.931 -3.4909999 0.27000001
-15.754 36.501999 -3.4530001 0.19
-15.651 35.950001 -3.4030001 0.31999999
-15.682 35.715 -3.3840001 0.22
-15.715 35.487 -3.3659999 0.22
-15.635 35.157001 -3.335 0.20999999
-15.539 34.646 -3.289 0.16
-15.549 34.379002 -3.267 0.38999999
-15.595 34.194 -3.253 0.2
-15.5 33.702999 -3.2079999 0.20999999
-15.499 33.423 -3.1849999 0.41999999
-15.502 33.155998 -3.1630001 0.23
-15.462 32.935001 -3.1429999 0.18000001
-15.531 32.813999 -3.1359999 0.41999999
-15.545 32.577999 -3.1159999 0.25
-15.607 32.444 -3.108 0.2
-15.637 32.248001 -3.0929999 0.36000001
-15.514 31.739 -3.046 0.20999999
-15.612 31.687 -3.0450001 0.25999999
-15.477 31.287001 -3.007 0.23999999
-15.463 31.014 -2.984 0.18000001
-15.501 30.846001 -2.9719999 0.46000001
-15.474 30.551001 -2.9460001 0.22
-15.566 30.496 -2.9460001 0.28999999
-15.585 30.298 -2.9300001 0.28
-15.483 29.868 -2.891 0.27000001
-15.525 29.833 -2.8900001 0.30000001
-15.541 29.636 -2.875 0.20999999
-15.561 29.448 -2.8599999 0.18000001
-15.566 29.235001 -2.8429999 0.16
-15.427 28.756001 -2.7980001 0.28999999
-15.637 28.927999 -2.8210001 0.25
-15.618 28.677999 -2.8 0.25
-15.597 28.531 -2.7869999 0.31999999
-15.682 28.475 -2.7869999 0.28
-15.758 28.400999 -2.7839999 0.20999999
-15.673 28.038 -2.7509999 0.38
-15.709 27.896999 -2.7409999 0.23999999
-15.724 27.719 -2.7279999 0.23999999
-15.667 27.417 -2.701 0.37
-15.678 27.337 -2.6949999 0.20999999
-15.583 26.974001 -2.6619999 0.19
-15.502 26.639 -2.632 0.31999999
-15.885 27.101999 -2.6860001 0.20999999
-15.616 26.452 -2.622 0.28999999
-15.481 26.034 -2.5829999 0.25
-15.596 26.042 -2.589 0.33000001
-15.699 26.122 -2.5999999 0.17
-15.639 25.837 -2.575 0.19
-15.697 25.747999 -2.5710001 0.47
-15.538 25.308001 -2.5280001 0.16
-15.517 25.097 -2.5109999 0.27000001
-15.441 24.799 -2.484 0.20999999
-15.46 24.656 -2.474 0.28999999
-15.392 24.461 -2.4549999 0.25999999
-15.333 24.198999 -2.4319999 0.25999999
-15.541 24.357 -2.454 0.27000001
-15.63 24.329 -2.457 0.28999999
-15.447 23.878 -2.4130001 0.30000001
-15.315 23.51 -2.378 0.25999999
-15.636 23.84 -2.4189999 0.27000001
-15.57 23.658001 -2.402 0.34
-15.636 23.597 -2.401 0.20999999
-15.486 23.211 -2.3640001 0.33000001
-15.418 22.952 -2.3399999 0.25
-15.468 22.871 -2.3369999 0.38
-15.529 22.806 -2.335 0.30000001
-15.369 22.417999 -2.2969999 0.33000001
-15.381 22.361 -2.293 0.30000001
-15.346 22.16 -2.276 0.31
-15.352 22.02 -2.266 0.31999999
-15.378 21.91 -2.2590001 0.34
-15.443 21.857 -2.2590001 0.25999999
-15.434 21.698999 -2.2460001 0.33000001
-15.4 21.507999 -2.23 0.28
-15.362 21.384001 -2.2190001 0.31999999
-15.439 21.348 -2.22 0.34999999
-15.454 21.229 -2.2119999 0.28999999
-15.283 20.855 -2.175 0.28999999
-15.312 20.757 -2.1700001 0.36000001
-15.281 20.58 -2.155 0.30000001
-15.259 20.415001 -2.141 0.34
-15.288 20.320999 -2.1359999 0.34999999
-15.229 20.176001 -2.122 0.34
-15.047 19.804001 -2.085 0.30000001
-15.004 19.618999 -2.069 0.20999999
-14.966 19.441999 -2.0539999 0.40000001
-15.061 19.438999 -2.059 0.23
-15.006 19.242001 -2.0420001 0.28
-14.982 19.15 -2.0339999 0.33000001
-14.911 18.934999 -2.0139999 0.38
-14.987 18.91 -2.017 0.30000001
-15.041 18.855 -2.016 0.18000001
-14.975 18.652 -1.997 0.55000001
-15.224 18.841 -2.0250001 0.20999999
-14.95 18.382999 -1.977 0.27000001
-14.881 18.239 -1.962 0.25
-14.869 18.107 -1.952 0.38
-14.904 18.035 -1.949 0.30000001
-14.891 17.903 -1.939 0.31999999
-14.865 17.759001 -1.928 0.30000001
-14.972 17.773001 -1.9349999 0.38
-15.047 17.747999 -1.938 0.31
-15.082 17.732 -1.939 0.36000001
-15.15 17.700001 -1.9400001 0.30000001
-15.101 17.530001 -1.926 0.31999999
-15.103 17.422001 -1.918 0.31999999
-15.132 17.344999 -1.915 0.34999999
-15.26 17.381001 -1.925 0.28999999
-15.67 17.736 -1.974 0.22
-15.049 16.924 -1.88 0.44
-15.453 17.325001 -1.933 0.28
-15.14 16.865999 -1.882 0.28999999
-15.857 17.556 -1.973 0.28
-15.06 16.566 -1.857 0.28999999
-14.986 16.379999 -1.839 0.27000001
-15.087 16.386999 -1.846 0.18000001
-14.981 16.219999 -1.8279999 0.56999999
-7.7519999 8.3219995 -0.84399998 0.23999999
-7.7989998 8.3210001 -0.847 0.16
-14.589 15.499 -1.755 0.30000001
-14.651 15.467 -1.757 0.28999999
-14.794 15.521 -1.77 0.28
-14.847 15.479 -1.77 0.28999999
-14.883 15.419 -1.7690001 0.34
-15.009 15.5 -1.7819999 0.40000001
-14.952 15.345 -1.768 0.31999999
-14.925 15.221 -1.758 0.37
-15.004 15.206 -1.762 0.25
-14.929 15.035 -1.7460001 0.36000001
-14.931 14.942 -1.74 0.25
-15.18 15.097 -1.767 0.43000001
-14.936 14.807 -1.732 0.27000001
-15 14.777 -1.734 0.40000001
-15.056 14.74 -1.7359999 0.34
-15.263 14.849 -1.756 0.20999999
-15.198 14.693 -1.742 0.44999999
-15.313 14.712 -1.751 0.31
-15.406 14.708 -1.757 0.41
-15.43 14.685 -1.757 0.25
-15.186 14.361 -1.72 0.28999999
-15.245 14.327 -1.722 0.49000001
-14.262 13.316 -1.592 0.28
-16.007 14.856 -1.806 0.2
-15.723 14.5 -1.765 0.27000001
-15.216 13.943 -1.696 0.34999999
-15.236 13.917 -1.696 0.31999999
-15.389 13.969 -1.709 0.30000001
-15.452 13.938 -1.712 0.27000001
-15.581 13.966 -1.722 0.20999999
-15.915 14.176 -1.758 0.57999998
-16.143 14.288 -1.78 0.2
-15.869 13.957 -1.7410001 0.34
-15.846 13.893 -1.7359999 0.27000001
-15.966 13.91 -1.745 0.28
-15.879 13.746 -1.729 0.36000001
-16.43 14.134 -1.791 0.31999999
-16.264999 13.902 -1.766 0.34999999
-16.542999 14.051 -1.794 0.14
-16.193001 13.71 -1.749 0.47999999
-16.344 13.75 -1.762 0.14
-16.608999 13.884 -1.789 0.28999999
-16.733 13.899 -1.798 0.50999999
-16.298 13.45 -1.7410001 0.18000001
-16.15 13.242 -1.719 0.28
-16.225 13.219 -1.723 0.46000001
