# .PCD v0.7 - Point Cloud Data file format
VERSION 0.7
FIELDS x y z intensity
SIZE 4 4 4 4
TYPE F F F F
COUNT 1 1 1 1
WIDTH 1516
HEIGHT 1
VIEWPOINT 0 0 0 1 0 0 0
POINTS 1516
DATA ascii
-0.83099997 3.2490001 -1.329 0
-0.83999997 3.2409999 -1.327 0
-0.85600001 3.26 -1.336 0
-0.85600001 3.24 -1.3279999 0
-0.87099999 3.2550001 -1.336 0
-0.88200003 3.256 -1.3380001 0
-0.89200002 3.25 -1.336 0
-0.90100002 3.244 -1.334 0
-0.912 3.2420001 -1.335 0
-0.92400002 3.247 -1.3380001 0
-0.92900002 3.247 -1.339 0
-0.94300002 3.256 -1.345 0
-0.954 3.2550001 -1.346 0
-0.96600002 3.2590001 -1.349 0
-0.97299999 3.244 -1.3430001 0
-0.991 3.2650001 -1.354 0
-0.99699998 3.25 -1.349 0
-1.008 3.266 -1.357 0
-1.0190001 3.266 -1.358 0
-1.025 3.2509999 -1.353 0
-1.036 3.247 -1.353 0
-1.053 3.2650001 -1.362 0
-1.0599999 3.2509999 -1.357 0
-1.072 3.253 -1.36 0
-1.0880001 3.2690001 -1.368 0
-1.095 3.2709999 -1.37 0
-1.104 3.266 -1.369 0
-1.1210001 3.279 -1.377 0
-1.125 3.2590001 -1.369 0
-1.136 3.2579999 -1.3710001 0
-1.149 3.2620001 -1.374 0
-1.1569999 3.2509999 -1.3710001 0
-1.164 3.2550001 -1.373 0
-1.1799999 3.2679999 -1.381 0
-1.1900001 3.263 -1.38 0
-1.198 3.2539999 -1.378 0
-1.22 3.2809999 -1.392 0
-1.228 3.27 -1.3890001 0
-1.243 3.2780001 -1.395 0
-1.2539999 3.2920001 -1.402 0
-1.26 3.2780001 -1.397 0
-1.274 3.2820001 -1.401 0
-1.291 3.2950001 -1.409 0
-1.299 3.2839999 -1.406 0
-1.304 3.2679999 -1.4 0
-1.327 3.2950001 -1.414 0
-1.323 3.2709999 -1.404 0
-1.341 3.2850001 -1.413 0
-1.358 3.296 -1.42 0
-1.37 3.2969999 -1.4220001 0
-1.391 3.3180001 -1.434 0
-1.392 3.29 -1.423 0
-1.4069999 3.2969999 -1.429 0
-1.411 3.293 -1.428 0
-1.437 3.3239999 -1.444 0
-1.4400001 3.3010001 -1.436 0
-1.461 3.322 -1.448 0
-1.475 3.3239999 -1.451 0
-1.474 3.296 -1.4400001 0
-1.4960001 3.3150001 -1.451 0
-1.505 3.322 -1.456 0
-1.516 3.3169999 -1.456 0
-1.533 3.3280001 -1.4630001 0
-1.554 3.3440001 -1.473 0
-1.571 3.3529999 -1.479 0
-1.5779999 3.3410001 -1.476 0
-1.5930001 3.3440001 -1.48 0
-1.595 3.335 -1.477 0
-1.6059999 3.332 -1.478 0
-1.6109999 3.3169999 -1.473 0
-1.628 3.325 -1.479 0
-1.646 3.335 -1.4859999 0
-1.6569999 3.3299999 -1.4859999 0
-1.671 3.3329999 -1.49 0
-1.6849999 3.3340001 -1.494 0
-1.698 3.346 -1.501 0
-1.715 3.3540001 -1.507 0
-1.723 3.3429999 -1.505 0
-1.74 3.349 -1.51 0
-1.743 3.3310001 -1.5039999 0
-1.76 3.3369999 -1.5089999 0
-1.765 3.3210001 -1.505 0
-1.781 3.3380001 -1.5140001 0.059999999
-1.79 3.329 -1.513 0.039999999
-1.799 3.322 -1.512 0
-1.816 3.3269999 -1.517 0
-1.826 3.322 -1.517 0
-1.846 3.332 -1.525 0
-1.865 3.342 -1.533 0
-1.858 3.3169999 -1.522 0
-1.8710001 3.316 -1.524 0
-1.888 3.3210001 -1.53 0
-1.897 3.313 -1.529 0
-1.926 3.339 -1.545 0
-1.941 3.3410001 -1.549 0
-1.962 3.352 -1.558 0
-1.9859999 3.381 -1.574 0
-2.0120001 3.4000001 -1.586 0
-2.0780001 3.4349999 -1.614 0
-2.099 3.4460001 -1.623 0
-2.1389999 3.4860001 -1.646 0
-2.207 3.582 -1.697 0
-2.2609999 3.6440001 -1.732 0
-2.2980001 3.677 -1.753 0
-2.3139999 3.678 -1.756 0
-2.3410001 3.694 -1.768 0
-2.3540001 3.6889999 -1.77 0
-2.348 3.654 -1.756 0
-2.335 3.6099999 -1.737 0
-2.2249999 3.4300001 -1.646 0
-2.2049999 3.3770001 -1.622 0
-2.198 3.3440001 -1.608 0
-2.204 3.329 -1.604 0
-2.1989999 3.3 -1.5930001 0
-2.1989999 3.277 -1.585 0
-2.2049999 3.2639999 -1.581 0
-2.214 3.267 -1.585 0
-2.234 3.2739999 -1.592 0
-2.2550001 3.2820001 -1.6 0
-2.2679999 3.279 -1.602 0
-2.2869999 3.2839999 -1.608 0
-2.312 3.2980001 -1.619 0
-2.3050001 3.267 -1.607 0.050000001
-2.3369999 3.3 -1.627 0.14
-2.3559999 3.3050001 -1.633 0.2
-2.369 3.3 -1.635 0.22
-2.3399999 3.24 -1.6059999 0.07
-2.3889999 3.2850001 -1.635 0.16
-2.4030001 3.2820001 -1.637 0
-2.421 3.2850001 -1.642 0
-2.4330001 3.29 -1.647 0.050000001
-2.454 3.2969999 -1.655 0.039999999
-2.4619999 3.286 -1.654 0.039999999
-2.4990001 3.3139999 -1.673 0.14
-2.4760001 3.2409999 -1.642 0.34
-2.5420001 3.3039999 -1.6799999 0.19
-2.5309999 3.2690001 -1.665 0.23
-2.53 3.2579999 -1.661 0
-2.556 3.27 -1.673 0
-0.921 1.142 -0.51599997 0
-0.93900001 1.156 -0.52499998 0
-1.027 1.011 -0.505 0
-3.2869999 2.865 -1.763 0
-3.3 2.858 -1.765 0
-3.306 2.845 -1.7640001 0
-3.319 2.8380001 -1.766 0
-3.3239999 2.8239999 -1.7640001 0
-3.3329999 2.8139999 -1.7640001 0
-3.3399999 2.8110001 -1.765 0
-3.3629999 2.812 -1.773 0
-3.3699999 2.8010001 -1.772 0
-3.3629999 2.777 -1.7640001 0
-3.385 2.777 -1.771 0
-3.388 2.7620001 -1.768 0
-3.3970001 2.7509999 -1.768 0
-3.398 2.743 -1.766 0
-3.53 2.602 -1.774 0
-3.53 2.5680001 -1.765 0
-3.54 2.5580001 -1.766 0
-3.552 2.55 -1.768 0
-3.556 2.536 -1.766 0
-3.5569999 2.5280001 -1.7640001 0
-3.553 2.5090001 -1.758 0
-3.5510001 2.4909999 -1.753 0
-3.5769999 2.4920001 -1.763 0
-3.5840001 2.48 -1.762 0
-3.5940001 2.471 -1.7640001 0
-3.6040001 2.461 -1.7640001 0
-3.5969999 2.448 -1.7589999 0
-3.6270001 2.4519999 -1.771 0
-3.618 2.4289999 -1.762 0
-3.6229999 2.4159999 -1.76 0.029999999
-3.6329999 2.4059999 -1.762 0.029999999
-3.6289999 2.3870001 -1.756 0.029999999
-3.6489999 2.3840001 -1.762 0.039999999
-3.661 2.375 -1.7640001 0.07
-3.6689999 2.372 -1.767 0.039999999
-3.652 2.345 -1.7539999 0.029999999
-3.6700001 2.3399999 -1.76 0.039999999
-3.688 2.336 -1.765 0
-3.6830001 2.316 -1.7589999 0.059999999
-3.6919999 2.306 -1.76 0.039999999
-3.7079999 2.3 -1.7640001 0
-3.701 2.2869999 -1.7589999 0.059999999
-3.7079999 2.276 -1.7589999 0.039999999
-3.723 2.2690001 -1.763 0.07
-3.7290001 2.256 -1.762 0.039999999
-3.7290001 2.2409999 -1.7589999 0.07
-3.7479999 2.2349999 -1.7640001 0.16
-3.7590001 2.2260001 -1.767 0.18000001
-3.7579999 2.2179999 -1.7640001 0.23
-3.7780001 2.2130001 -1.771 0.31999999
-3.767 2.191 -1.762 0.31999999
-3.7850001 2.1860001 -1.768 0.36000001
-3.7950001 2.1760001 -1.7690001 0.31
-3.789 2.1570001 -1.763 0.31999999
-3.8039999 2.1489999 -1.767 0.34
-3.8169999 2.1489999 -1.772 0.31999999
-3.8139999 2.131 -1.767 0.33000001
-3.8239999 2.1210001 -1.768 0.38
-3.845 2.1170001 -1.775 0.34
-3.852 2.105 -1.775 0
-3.855 2.0910001 -1.774 0
-3.803 2.04 -1.744 0
-3.8310001 2.039 -1.7539999 0.050000001
-3.8469999 2.0320001 -1.7589999 0.079999998
-3.8499999 2.0190001 -1.757 0.15000001
-3.858 2.007 -1.758 0.039999999
-3.869 1.998 -1.76 0.07
-3.898 1.997 -1.772 0
-3.8740001 1.977 -1.758 0
-3.8770001 1.9630001 -1.756 0
-3.8829999 1.951 -1.756 0
-3.881 1.9349999 -1.753 0
-3.8970001 1.927 -1.757 0
-3.8929999 1.91 -1.753 0
-3.783 -2.2509999 -1.781 0
-3.7780001 -2.263 -1.7819999 0
-3.77 -2.266 -1.779 0
-3.77 -2.283 -1.783 0
-3.7520001 -2.2880001 -1.778 0
-3.7639999 -2.312 -1.7869999 0
-3.7390001 -2.313 -1.779 0
-3.7379999 -2.3280001 -1.7819999 0.059999999
-3.7360001 -2.3429999 -1.784 0.14
-3.727 -2.346 -1.7819999 0.039999999
-3.7290001 -2.3640001 -1.7869999 0.16
-3.717 -2.372 -1.784 0.18000001
-3.7130001 -2.3859999 -1.786 0.18000001
-3.71 -2.401 -1.788 0.18000001
-3.704 -2.4130001 -1.789 0.16
-3.6960001 -2.425 -1.789 0.18000001
-3.6849999 -2.4260001 -1.785 0.039999999
-3.688 -2.444 -1.791 0.16
-3.6630001 -2.4449999 -1.7819999 0.050000001
-3.6689999 -2.4649999 -1.789 0.17
-3.651 -2.47 -1.783 0.050000001
-3.654 -2.4879999 -1.789 0.16
-3.635 -2.493 -1.783 0.050000001
-3.6359999 -2.5009999 -1.786 0.16
-3.6170001 -2.5050001 -1.78 0.050000001
-3.6229999 -2.526 -1.7869999 0.15000001
-3.6029999 -2.529 -1.781 0.050000001
-3.6059999 -2.5480001 -1.7869999 0.15000001
-3.589 -2.553 -1.7819999 0.050000001
-3.5899999 -2.5710001 -1.7869999 0.16
-3.5699999 -2.573 -1.78 0.050000001
-3.5769999 -2.5869999 -1.7869999 0.16
-3.562 -2.5929999 -1.783 0.18000001
-3.5510001 -2.602 -1.781 0.039999999
-3.5539999 -2.622 -1.7869999 0.18000001
-3.5420001 -2.6300001 -1.785 0.050000001
-3.5409999 -2.6470001 -1.789 0.17
-3.5309999 -2.648 -1.786 0.050000001
-3.5220001 -2.6589999 -1.786 0.15000001
-3.513 -2.6689999 -1.785 0.050000001
-3.507 -2.6819999 -1.7869999 0.16
-3.497 -2.6919999 -1.786 0.050000001
-3.4960001 -2.7090001 -1.79 0.16
-3.477 -2.7119999 -1.784 0.050000001
-3.4719999 -2.7160001 -1.783 0.16
-3.474 -2.7360001 -1.79 0.19
-3.4530001 -2.737 -1.783 0.090000004
-3.4530001 -2.7539999 -1.7869999 0.090000004
-3.4430001 -2.7639999 -1.7869999 0.079999998
-3.444 -2.783 -1.7920001 0.15000001
-3.421 -2.7820001 -1.784 0.050000001
-3.4200001 -2.79 -1.786 0.17
-3.402 -2.793 -1.781 0.050000001
-3.395 -2.8050001 -1.7819999 0.16
-3.3929999 -2.822 -1.786 0.050000001
-3.391 -2.8380001 -1.79 0.16
-3.3770001 -2.8440001 -1.7869999 0.050000001
-3.368 -2.855 -1.7869999 0.16
-3.359 -2.865 -1.7869999 0.19
-3.3529999 -2.8699999 -1.786 0.1
-3.352 -2.8870001 -1.791 0.18000001
-3.335 -2.891 -1.786 0.19
-3.3299999 -2.905 -1.788 0.18000001
-3.319 -2.914 -1.7869999 0.17
-3.309 -2.9230001 -1.7869999 0.090000004
-3.3069999 -2.931 -1.788 0.090000004
-3.2950001 -2.9389999 -1.7869999 0.079999998
-3.2909999 -2.954 -1.79 0.079999998
-3.2750001 -2.9579999 -1.786 0.090000004
-3.273 -2.9749999 -1.79 0.15000001
-3.25 -2.9719999 -1.7819999 0.039999999
-3.2420001 -2.984 -1.783 0
-3.247 -3.0079999 -1.791 0
-3.22 -2.9909999 -1.778 0
-3.2160001 -3.007 -1.781 0
-3.207 -3.0179999 -1.7819999 0
-3.198 -3.0280001 -1.7819999 0
-3.187 -3.0369999 -1.781 0
-3.1789999 -3.0480001 -1.7819999 0
-3.1719999 -3.0610001 -1.783 0
-3.1600001 -3.059 -1.779 0
-3.151 -3.069 -1.779 0
-3.1440001 -3.082 -1.781 0
-3.1289999 -3.086 -1.778 0
-3.1300001 -3.1059999 -1.784 0
-3.112 -3.108 -1.779 0
-3.115 -3.131 -1.7869999 0
-3.105 -3.131 -1.784 0
-3.0940001 -3.1389999 -1.783 0
-3.0840001 -3.1489999 -1.783 0
-3.0739999 -3.1589999 -1.783 0
-3.082 -3.187 -1.794 0
-3.072 -3.197 -1.794 0
-3.046 -3.1889999 -1.784 0
-3.0339999 -3.187 -1.78 0.029999999
-3.027 -3.1989999 -1.7819999 0.029999999
-3.0239999 -3.217 -1.7869999 0.07
-3.0090001 -3.221 -1.783 0.039999999
-3.013 -3.2449999 -1.7920001 0.16
-2.9949999 -3.2460001 -1.7869999 0.050000001
-2.9860001 -3.257 -1.788 0.17
-2.977 -3.2579999 -1.786 0.2
-2.9790001 -3.2809999 -1.794 0.17
-2.9549999 -3.2750001 -1.785 0.090000004
-2.9489999 -3.2880001 -1.7869999 0.079999998
-2.937 -3.296 -1.7869999 0.039999999
-2.9349999 -3.3150001 -1.7920001 0
-2.901 -3.2969999 -1.776 0
-2.905 -3.312 -1.783 0
-2.8659999 -3.2880001 -1.7640001 0
-2.3199999 -3.8080001 -1.806 0
-2.3110001 -3.8199999 -1.808 0
-2.2739999 -3.786 -1.7869999 0.039999999
-2.2550001 -3.7809999 -1.781 0.14
-2.2479999 -3.783 -1.78 0.090000004
-2.2449999 -3.806 -1.788 0.16
-2.223 -3.7950001 -1.779 0.050000001
-2.2149999 -3.809 -1.783 0.18000001
-2.2049999 -3.819 -1.784 0.11
-2.201 -3.8399999 -1.791 0.17
-2.174 -3.8199999 -1.778 0.20999999
-2.178 -3.8410001 -1.7869999 0.2
-2.161 -3.839 -1.783 0.12
-2.1570001 -3.8610001 -1.79 0.18000001
-2.1340001 -3.848 -1.78 0.12
-2.1270001 -3.865 -1.785 0.18000001
-2.109 -3.8599999 -1.779 0.11
-2.0999999 -3.8729999 -1.783 0.2
-2.0940001 -3.875 -1.7819999 0.11
-2.0769999 -3.8729999 -1.778 0.2
-2.0680001 -3.8859999 -1.781 0.11
-2.062 -3.904 -1.7869999 0.20999999
-2.046 -3.904 -1.783 0.11
-2.0369999 -3.9170001 -1.7869999 0.18000001
-2.017 -3.9070001 -1.779 0.12
-2.0209999 -3.9300001 -1.788 0.18000001
-2 -3.9200001 -1.78 0.11
-1.989 -3.9289999 -1.7819999 0.2
-1.975 -3.9300001 -1.779 0.11
-1.97 -3.9530001 -1.7869999 0.18000001
-1.951 -3.9460001 -1.781 0.20999999
-1.9400001 -3.954 -1.7819999 0.18000001
-1.933 -3.9549999 -1.781 0.25
-1.929 -3.9790001 -1.79 0.20999999
-1.909 -3.971 -1.783 0.12
-1.895 -3.9719999 -1.78 0.2
-1.883 -3.9790001 -1.781 0.11
-1.877 -3.9979999 -1.7869999 0.18000001
-1.858 -3.9909999 -1.781 0.12
-1.852 -3.994 -1.781 0.2
-1.836 -3.993 -1.778 0.11
-1.824 -4 -1.779 0.18000001
-1.8150001 -4.0139999 -1.783 0.11
-1.803 -4.02 -1.783 0.20999999
-1.7869999 -4.0190001 -1.779 0.11
-1.775 -4.0250001 -1.779 0.2
-1.77 -4.033 -1.7819999 0.11
-1.756 -4.033 -1.779 0.2
-1.745 -4.0440001 -1.7819999 0.11
-1.734 -4.0539999 -1.784 0.20999999
-1.72 -4.0560002 -1.783 0.2
-1.709 -4.0650001 -1.784 0.23
-1.702 -4.086 -1.791 0.18000001
-1.689 -4.0710001 -1.783 0.25
-1.676 -4.0749998 -1.783 0.23
-1.666 -4.0890002 -1.7869999 0.11
-1.651 -4.0890002 -1.784 0.2
-1.638 -4.0939999 -1.784 0.18000001
-1.63 -4.1090002 -1.789 0.27000001
-1.613 -4.1040001 -1.784 0.18000001
-1.602 -4.0949998 -1.779 0.23999999
-1.6 -4.1290002 -1.7920001 0.19
-1.577 -4.1079998 -1.78 0.23
-1.568 -4.1230001 -1.785 0.18000001
-1.558 -4.1350002 -1.788 0.23
-1.546 -4.1430001 -1.79 0.19
-1.524 -4.1240001 -1.779 0.20999999
-1.524 -4.1440001 -1.7869999 0.19
-1.507 -4.1360002 -1.781 0.23999999
-1.492 -4.1360002 -1.779 0.22
-1.4910001 -4.1750002 -1.794 0.16
-1.466 -4.145 -1.779 0.30000001
-1.455 -4.1570001 -1.7819999 0.22
-1.4400001 -4.1560001 -1.779 0.11
-1.432 -4.1529999 -1.777 0.18000001
-1.42 -4.1609998 -1.779 0.1
-1.4119999 -4.1789999 -1.785 0.18000001
-1.392 -4.165 -1.776 0.11
-1.381 -4.1739998 -1.779 0.19
-1.377 -4.2069998 -1.791 0.23999999
-1.353 -4.178 -1.776 0.12
-1.35 -4.1919999 -1.7819999 0.18000001
-1.337 -4.1960001 -1.7819999 0.23
-1.319 -4.1849999 -1.775 0.1
-1.313 -4.2129998 -1.786 0.16
-1.3 -4.217 -1.786 0.20999999
-1.28 -4.1989999 -1.775 0.16
-1.268 -4.2059999 -1.777 0.25999999
-1.268 -4.2309999 -1.7869999 0.20999999
-1.2460001 -4.2049999 -1.774 0.12
-1.2359999 -4.2210002 -1.779 0.2
-1.223 -4.2249999 -1.779 0.11
-1.2079999 -4.224 -1.777 0.20999999
-1.194 -4.224 -1.775 0.11
-1.1849999 -4.2420001 -1.7819999 0.18000001
-1.1720001 -4.2210002 -1.772 0.23
-1.164 -4.244 -1.78 0.19
-1.148 -4.2379999 -1.776 0.25
-1.133 -4.237 -1.774 0.18000001
-1.122 -4.2470002 -1.777 0.23999999
-1.11 -4.2579999 -1.78 0.18000001
-1.094 -4.2509999 -1.775 0.25
-1.0880001 -4.2540002 -1.776 0.20999999
-1.0779999 -4.27 -1.7819999 0.18000001
-1.0599999 -4.257 -1.775 0.28
-1.049 -4.2680001 -1.778 0.19
-1.034 -4.2659998 -1.775 0.23
-1.022 -4.276 -1.779 0.18000001
-1.008 -4.2740002 -1.776 0.23
-1.001 -4.277 -1.777 0.18000001
-0.98699999 -4.2789998 -1.776 0.13
-0.977 -4.2940001 -1.7819999 0.18000001
-0.95899999 -4.2779999 -1.773 0.23
-0.949 -4.2989998 -1.781 0.2
-0.93400002 -4.2930002 -1.777 0.22
-0.92199999 -4.3010001 -1.779 0.18000001
-0.91299999 -4.2930002 -1.775 0.23
-0.90100002 -4.3049998 -1.779 0.18000001
-0.884 -4.2919998 -1.772 0.23999999
-0.87400001 -4.309 -1.779 0.19
-0.85900003 -4.3039999 -1.775 0.23999999
-0.84500003 -4.3070002 -1.775 0.18000001
-0.83099997 -4.3060002 -1.774 0.23
-0.82499999 -4.309 -1.775 0.18000001
-0.80900002 -4.2989998 -1.7690001 0.23999999
-0.796 -4.3039999 -1.77 0.23
-0.78299999 -4.3099999 -1.772 0.18000001
-0.76899999 -4.3119998 -1.772 0.25999999
-0.75800002 -4.329 -1.778 0.18000001
-0.741 -4.3109999 -1.7690001 0.23999999
-0.73500001 -4.3179998 -1.772 0.22
-0.722 -4.3179998 -1.771 0.2
-0.70700002 -4.3169999 -1.7690001 0.25
-0.69599998 -4.336 -1.776 0.23
-0.68199998 -4.3319998 -1.774 0.19
-0.66799998 -4.3330002 -1.773 0.25999999
-0.65399998 -4.335 -1.773 0.22
-0.64899999 -4.348 -1.779 0.2
-0.63300002 -4.3340001 -1.772 0.25
-0.62 -4.3400002 -1.773 0.19
-0.60600001 -4.336 -1.771 0.23999999
-0.59200001 -4.3379998 -1.771 0.22
-0.57800001 -4.3340001 -1.768 0.19
-0.565 -4.342 -1.771 0.25999999
-0.55900002 -4.348 -1.773 0.19
-0.54299998 -4.335 -1.767 0.25
-0.52999997 -4.3410001 -1.768 0.23
-0.51700002 -4.342 -1.768 0.2
-0.50300002 -4.3439999 -1.768 0.25
-0.49000001 -4.3540001 -1.772 0.23999999
-0.47600001 -4.3540001 -1.772 0.18000001
-0.46900001 -4.3509998 -1.77 0.25999999
-0.456 -4.3559999 -1.772 0.23999999
-0.442 -4.3579998 -1.772 0.18000001
-0.428 -4.3540001 -1.7690001 0.27000001
-0.41499999 -4.3660002 -1.774 0.23
-0.40099999 -4.362 -1.772 0.18000001
-0.38699999 -4.3629999 -1.772 0.27000001
-0.38 -4.3600001 -1.77 0.23999999
-0.36700001 -4.368 -1.773 0.20999999
-0.35299999 -4.3590002 -1.768 0.25
-0.33899999 -4.3629999 -1.77 0.23999999
-0.32600001 -4.3699999 -1.772 0.2
-0.31200001 -4.362 -1.768 0.23999999
-0.29899999 -4.375 -1.774 0.19
-0.29100001 -4.3559999 -1.765 0.23999999
-0.278 -4.375 -1.773 0.23
-0.264 -4.3720002 -1.772 0.2
-0.25 -4.3600001 -1.766 0.25
-0.236 -4.368 -1.7690001 0.23
-0.222 -4.3649998 -1.768 0.18000001
-0.20900001 -4.3730001 -1.771 0.27000001
-0.20299999 -4.3860002 -1.776 0.23
-0.18799999 -4.3740001 -1.771 0.19
-0.17399999 -4.369 -1.768 0.27000001
-0.161 -4.3899999 -1.777 0.23999999
-0.147 -4.381 -1.773 0.23999999
-0.133 -4.3800001 -1.772 0.30000001
-0.12 -4.3899999 -1.776 0.27000001
-0.113 -4.375 -1.77 0.25999999
-0.098999999 -4.375 -1.77 0.19
-0.085000001 -4.3959999 -1.779 0.28
-0.071000002 -4.3740001 -1.7690001 0.23999999
-0.057999998 -4.3829999 -1.773 0.2
-0.044 -4.3870001 -1.775 0.28
-0.029999999 -4.3759999 -1.77 0.23
-0.023 -4.3870001 -1.775 0.19
-0.0099999998 -4.3839998 -1.773 0.27000001
0.0040000002 -4.3800001 -1.772 0.23999999
0.017999999 -4.3860002 -1.774 0.19
0.032000002 -4.3969998 -1.779 0.25999999
0.045000002 -4.3779998 -1.771 0.23999999
0.059 -4.3779998 -1.771 0.17
0.066 -4.3889999 -1.775 0.28999999
0.079999998 -4.3759999 -1.77 0.25
0.093999997 -4.3790002 -1.772 0.19
0.108 -4.388 -1.775 0.27000001
0.121 -4.3660002 -1.766 0.23
0.13500001 -4.3850002 -1.775 0.19
0.149 -4.3870001 -1.775 0.27000001
0.156 -4.3769999 -1.772 0.23999999
0.169 -4.3709998 -1.7690001 0.19
0.183 -4.3759999 -1.772 0.27000001
0.19599999 -4.368 -1.768 0.23999999
0.211 -4.3899999 -1.778 0.2
0.22499999 -4.3850002 -1.776 0.27000001
0.23800001 -4.3769999 -1.773 0.25
0.245 -4.375 -1.772 0.19
0.259 -4.3759999 -1.773 0.27000001
0.27200001 -4.3699999 -1.771 0.23999999
0.28600001 -4.3740001 -1.773 0.18000001
0.30000001 -4.3740001 -1.773 0.25999999
0.31400001 -4.3709998 -1.772 0.23
0.32699999 -4.3699999 -1.772 0.2
0.33399999 -4.369 -1.772 0.25
0.34799999 -4.3639998 -1.771 0.23
0.36300001 -4.3759999 -1.776 0.20999999
0.37599999 -4.368 -1.773 0.25
0.389 -4.3670001 -1.773 0.20999999
0.403 -4.3600001 -1.771 0.12
0.41600001 -4.3579998 -1.771 0.2
0.42300001 -4.3600001 -1.772 0.11
0.43599999 -4.3470001 -1.767 0.19
0.45100001 -4.3639998 -1.775 0.2
0.465 -4.3610001 -1.774 0.18000001
0.477 -4.3429999 -1.767 0.039999999
0.491 -4.3509998 -1.771 0
0.50400001 -4.342 -1.768 0
0.51099998 -4.3410001 -1.768 0
0.52399999 -4.3379998 -1.767 0
0.53600001 -4.323 -1.761 0
0.55199999 -4.3379998 -1.768 0
0.56599998 -4.3340001 -1.768 0
0.57800001 -4.323 -1.7640001 0
0.58899999 -4.303 -1.756 0
0.597 -4.3109999 -1.76 0
0.61000001 -4.3039999 -1.757 0
0.62400001 -4.309 -1.76 0
0.64099997 -4.3260002 -1.768 0
0.653 -4.316 -1.765 0
0.667 -4.3140001 -1.765 0
0.68000001 -4.3119998 -1.765 0
0.68900001 -4.3260002 -1.772 0
0.773 -4.3600001 -1.7920001 0
0.78299999 -4.3390002 -1.784 0
0.79400003 -4.3239999 -1.779 0
0.80800003 -4.3239999 -1.779 0
0.81800002 -4.3049998 -1.772 0
0.83099997 -4.2969999 -1.77 0
0.85000002 -4.323 -1.783 0
0.85699999 -4.2880001 -1.768 0
0.86500001 -4.2919998 -1.771 0.059999999
0.87800002 -4.2859998 -1.7690001 0.039999999
0.89200002 -4.2859998 -1.771 0.15000001
0.90700001 -4.289 -1.773 0.11
0.926 -4.3109999 -1.784 0.17
0.93599999 -4.2919998 -1.777 0.20999999
0.949 -4.289 -1.777 0.1
0.95499998 -4.2859998 -1.776 0.090000004
0.972 -4.2969999 -1.783 0
0.98299998 -4.283 -1.778 0
0.99299997 -4.2639999 -1.771 0
1.002 -4.243 -1.763 0
2.0799999 -3.832 -1.763 0
2.089 -3.8199999 -1.76 0
2.096 -3.819 -1.761 0
2.1110001 -3.8169999 -1.7640001 0
2.1129999 -3.793 -1.755 0
2.128 -3.7909999 -1.757 0
2.1500001 -3.802 -1.766 0
2.161 -3.7950001 -1.766 0
2.1670001 -3.777 -1.76 0
2.175 -3.777 -1.762 0
2.187 -3.77 -1.762 0
2.2090001 -3.78 -1.771 0
2.227 -3.7850001 -1.776 0
2.24 -3.779 -1.777 0
2.2490001 -3.767 -1.775 0
2.2520001 -3.7460001 -1.768 0
2.26 -3.7460001 -1.7690001 0
2.2679999 -3.7320001 -1.766 0
2.279 -3.724 -1.765 0
2.293 -3.721 -1.768 0.059999999
2.302 -3.7090001 -1.765 0.039999999
2.3110001 -3.697 -1.763 0.039999999
2.323 -3.6919999 -1.7640001 0.079999998
2.3329999 -3.694 -1.767 0.16
2.3429999 -3.684 -1.765 0.039999999
2.3540001 -3.6760001 -1.765 0.079999998
2.3789999 -3.6889999 -1.775 0.16
2.3829999 -3.671 -1.77 0.050000001
2.3889999 -3.654 -1.765 0.16
2.388 -3.641 -1.76 0.050000001
2.4089999 -3.6470001 -1.768 0.17
2.4089999 -3.6229999 -1.7589999 0.050000001
2.428 -3.6259999 -1.7640001 0.17
2.4389999 -3.618 -1.7640001 0.050000001
2.457 -3.6199999 -1.7690001 0.16
2.464 -3.6059999 -1.766 0.050000001
2.4779999 -3.6140001 -1.772 0.17
2.4790001 -3.5910001 -1.7640001 0.2
2.493 -3.5880001 -1.767 0.090000004
2.5190001 -3.6010001 -1.778 0.16
2.516 -3.572 -1.767 0.20999999
2.5309999 -3.5699999 -1.77 0.1
2.5550001 -3.5799999 -1.779 0.16
2.5450001 -3.5539999 -1.768 0.050000001
2.556 -3.546 -1.768 0.17
2.5639999 -3.533 -1.765 0.19
2.5810001 -3.5339999 -1.77 0.1
2.602 -3.539 -1.777 0.17
2.6040001 -3.5179999 -1.77 0.050000001
2.6199999 -3.517 -1.774 0.17
2.619 -3.493 -1.765 0.19
2.6289999 -3.494 -1.768 0.090000004
2.6389999 -3.4849999 -1.768 0.18000001
2.645 -3.471 -1.7640001 0.2
2.668 -3.4779999 -1.773 0.1
2.6760001 -3.4649999 -1.771 0.18000001
2.681 -3.45 -1.767 0.20999999
2.6900001 -3.45 -1.7690001 0.1
2.701 -3.441 -1.7690001 0.17
2.7049999 -3.424 -1.7640001 0.050000001
2.7260001 -3.4289999 -1.772 0.17
2.7249999 -3.4059999 -1.7640001 0.2
2.7360001 -3.3970001 -1.7640001 0.1
2.7639999 -3.4100001 -1.775 0.19
2.7520001 -3.3840001 -1.7640001 0.1
2.763 -3.3770001 -1.7640001 0.18000001
2.783 -3.3800001 -1.771 0.2
2.7820001 -3.3570001 -1.763 0.090000004
2.8139999 -3.3729999 -1.777 0.15000001
2.806 -3.342 -1.7640001 0.050000001
2.8169999 -3.335 -1.765 0.17
2.8150001 -3.322 -1.76 0.050000001
2.8429999 -3.332 -1.772 0.18000001
2.8399999 -3.3080001 -1.763 0.18000001
2.8499999 -3.299 -1.763 0.1
2.872 -3.303 -1.77 0.18000001
2.865 -3.2739999 -1.7589999 0.050000001
2.8840001 -3.2750001 -1.7640001 0.17
2.888 -3.2690001 -1.7640001 0.050000001
2.8929999 -3.2550001 -1.76 0.18000001
2.904 -3.247 -1.761 0.050000001
2.928 -3.253 -1.77 0.18000001
2.927 -3.2309999 -1.763 0.2
2.9389999 -3.223 -1.7640001 0.090000004
2.961 -3.2279999 -1.772 0.18000001
2.9489999 -3.204 -1.76 0.050000001
2.964 -3.2 -1.7640001 0.17
2.983 -3.2 -1.7690001 0.19
2.9809999 -3.1789999 -1.762 0.090000004
3.0039999 -3.1830001 -1.77 0.15000001
3.0050001 -3.164 -1.7640001 0.050000001
3.016 -3.1559999 -1.765 0.16
3.0079999 -3.138 -1.757 0.050000001
3.0320001 -3.1429999 -1.766 0.15000001
3.027 -3.118 -1.756 0.050000001
3.0469999 -3.119 -1.763 0.17
3.063 -3.1159999 -1.767 0.18000001
3.0650001 -3.098 -1.762 0.1
3.0829999 -3.096 -1.767 0.18000001
3.082 -3.086 -1.7640001 0.19
3.0829999 -3.0669999 -1.758 0.17
3.098 -3.063 -1.761 0.18000001
3.1029999 -3.049 -1.7589999 0.039999999
3.1210001 -3.0469999 -1.7640001 0.16
3.1289999 -3.036 -1.763 0.18000001
3.141 -3.029 -1.7640001 0.17
3.141 -3.0190001 -1.761 0.17
3.1429999 -3.003 -1.757 0.17
3.1619999 -3.0020001 -1.763 0.18000001
3.1659999 -2.987 -1.76 0.17
3.181 -2.9820001 -1.763 0.18000001
3.1960001 -2.977 -1.766 0.18000001
3.198 -2.96 -1.762 0.17
3.198 -2.95 -1.7589999 0.039999999
3.21 -2.9430001 -1.76 0.15000001
3.2149999 -2.9289999 -1.758 0.050000001
3.2390001 -2.9319999 -1.767 0.16
3.243 -2.9170001 -1.7640001 0.18000001
3.2460001 -2.902 -1.76 0.17
3.2550001 -2.892 -1.76 0.17
3.2650001 -2.892 -1.7640001 0.090000004
3.2690001 -2.8770001 -1.76 0.090000004
3.2850001 -2.872 -1.7640001 0.15000001
3.2839999 -2.8540001 -1.7589999 0.050000001
3.293 -2.8429999 -1.7589999 0.16
3.3010001 -2.832 -1.758 0.19
3.3110001 -2.823 -1.7589999 0.16
3.3069999 -2.8099999 -1.7539999 0.17
3.319 -2.802 -1.756 0.17
3.342 -2.803 -1.7640001 0.17
3.342 -2.786 -1.7589999 0.18000001
3.348 -2.773 -1.757 0.18000001
3.3640001 -2.7679999 -1.761 0.16
3.3640001 -2.76 -1.7589999 0.16
3.368 -2.7460001 -1.756 0.18000001
3.385 -2.7420001 -1.761 0.17
3.382 -2.7219999 -1.755 0.18000001
3.392 -2.7130001 -1.756 0.16
3.401 -2.7019999 -1.756 0.18000001
3.3989999 -2.6830001 -1.75 0.039999999
3.4130001 -2.6860001 -1.756 0.07
3.4260001 -2.6789999 -1.758 0.15000001
3.424 -2.6600001 -1.753 0.039999999
3.4330001 -2.6489999 -1.753 0.07
3.4430001 -2.6389999 -1.753 0.039999999
3.467 -2.641 -1.762 0
3.4630001 -2.6210001 -1.756 0
3.4660001 -2.615 -1.755 0
3.464 -2.596 -1.749 0
3.4779999 -2.589 -1.753 0
3.494 -2.5840001 -1.756 0
3.6919999 -2.322 -1.7640001 0
3.714 -2.319 -1.771 0
3.7079999 -2.3 -1.7640001 0
3.714 -2.2869999 -1.7640001 0
3.724 -2.277 -1.765 0
3.72 -2.2590001 -1.76 0
3.7160001 -2.2490001 -1.756 0
3.753 -2.2550001 -1.771 0
3.7219999 -2.221 -1.752 0.02
3.721 -2.204 -1.748 0.13
3.7309999 -2.194 -1.749 0.039999999
3.7219999 -2.1730001 -1.7410001 0.029999999
3.7349999 -2.165 -1.745 0
3.734 -2.1570001 -1.742 0
3.7460001 -2.148 -1.745 0
3.7479999 -2.1329999 -1.742 0
3.7650001 -2.128 -1.748 0
3.767 -2.1129999 -1.745 0
3.776 -2.102 -1.7460001 0
3.9519999 -1.788 -1.753 0
3.951 -1.772 -1.75 0.02
3.9400001 -1.738 -1.74 0.25
3.944 -1.725 -1.739 0.36000001
3.95 -1.712 -1.739 0.31999999
3.9519999 -1.699 -1.737 0.38999999
3.9560001 -1.693 -1.738 0.37
3.9679999 -1.684 -1.7410001 0.38
3.9649999 -1.668 -1.737 0.34999999
3.973 -1.656 -1.739 0.38999999
3.97 -1.641 -1.735 0.34
3.9790001 -1.6289999 -1.737 0.38999999
3.9849999 -1.618 -1.737 0.30000001
3.9809999 -1.609 -1.734 0.34
3.9960001 -1.6 -1.739 0.38
3.9960001 -1.586 -1.737 0.31
4.0050001 -1.574 -1.738 0.34999999
4.0149999 -1.564 -1.7410001 0.37
4.013 -1.548 -1.737 0.37
4.0159998 -1.535 -1.737 0.36000001
4.0170002 -1.528 -1.7359999 0.34999999
4.02 -1.515 -1.735 0.34
4.0450001 -1.51 -1.745 0.44
4.0500002 -1.497 -1.745 0
4.0250001 -1.474 -1.7309999 0
4.0419998 -1.466 -1.737 0.059999999
4.0409999 -1.451 -1.734 0.14
4.0489998 -1.447 -1.737 0.16
4.0479999 -1.432 -1.734 0.039999999
4.0560002 -1.42 -1.7359999 0.07
4.0619998 -1.408 -1.737 0.079999998
4.0700002 -1.397 -1.738 0.16
4.0799999 -1.386 -1.7410001 0.18000001
4.0799999 -1.372 -1.739 0.18000001
4.0760002 -1.363 -1.7359999 0.16
4.073 -1.348 -1.733 0.039999999
4.0809999 -1.336 -1.734 0.07
4.085 -1.323 -1.734 0.079999998
4.0939999 -1.312 -1.737 0.090000004
4.0999999 -1.3 -1.737 0.090000004
4.0949998 -1.284 -1.734 0.039999999
4.1059999 -1.281 -1.737 0.07
4.1069999 -1.267 -1.7359999 0.079999998
4.1230001 -1.257 -1.7410001 0
4.0929999 -1.235 -1.726 0
4.125 -1.23 -1.739 0
4.1329999 -1.2180001 -1.7410001 0
4.177 -1.217 -1.7589999 0
3.9070001 1.342 -1.72 0.13
3.8989999 1.353 -1.719 0.20999999
3.892 1.364 -1.717 0.18000001
3.891 1.3710001 -1.7180001 0.27000001
3.8889999 1.3839999 -1.719 0.22
3.881 1.395 -1.717 0.16
3.885 1.41 -1.721 0.30000001
3.8859999 1.424 -1.723 0.23
3.868 1.431 -1.717 0.16
3.869 1.439 -1.719 0.31
3.862 1.45 -1.7180001 0.25
3.868 1.466 -1.723 0.25999999
3.848 1.472 -1.715 0.27000001
3.862 1.492 -1.724 0.27000001
3.842 1.498 -1.717 0.22
3.8510001 1.515 -1.723 0.28
3.8369999 1.517 -1.7180001 0.2
3.832 1.529 -1.7180001 0.18000001
3.8340001 1.543 -1.721 0.31
3.8239999 1.553 -1.719 0.25
3.8380001 1.573 -1.728 0.23
3.8239999 1.582 -1.723 0.28
3.8180001 1.5930001 -1.723 0.28
3.826 1.61 -1.729 0.28999999
3.8139999 1.612 -1.724 0.30000001
3.79 1.6160001 -1.715 0.17
3.7980001 1.6339999 -1.722 0.31999999
3.7880001 1.6440001 -1.719 0.25
3.786 1.6569999 -1.721 0.28999999
3.783 1.67 -1.722 0.17
3.7820001 1.684 -1.724 0.30000001
3.776 1.688 -1.723 0.23
3.7850001 1.706 -1.729 0.25
3.766 1.712 -1.723 0.25999999
3.7590001 1.723 -1.722 0.23999999
3.7650001 1.74 -1.728 0.22
3.744 1.745 -1.72 0.11
3.7460001 1.76 -1.723 0
3.7490001 1.7690001 -1.727 0
3.7060001 1.763 -1.7079999 0
3.602 2.059 -1.728 0
3.589 2.0669999 -1.725 0
3.592 2.0840001 -1.73 0.029999999
3.5880001 2.096 -1.7309999 0.07
3.5680001 2.0999999 -1.724 0.079999998
3.5840001 2.1240001 -1.7359999 0.079999998
3.566 2.1289999 -1.73 0.19
3.5450001 2.1240001 -1.721 0.2
3.5580001 2.1470001 -1.7309999 0.19
3.5480001 2.1559999 -1.729 0.38
3.5469999 2.171 -1.732 0.37
3.536 2.1789999 -1.73 0.46000001
3.529 2.1900001 -1.73 0.40000001
3.5190001 2.1989999 -1.728 0.38
3.52 2.2149999 -1.732 0.38
3.5109999 2.2179999 -1.73 0.44999999
3.5 2.2260001 -1.728 0.43000001
3.4960001 2.2390001 -1.729 0.38
3.483 2.2460001 -1.726 0.38
3.3940001 2.2049999 -1.683 0
3.4779999 2.2739999 -1.7309999 0
3.473 2.2780001 -1.73 0
3.473 2.2939999 -1.734 0
3.277 2.5309999 -1.724 0
3.289 2.556 -1.7359999 0
3.2620001 2.5439999 -1.723 0
3.256 2.5550001 -1.723 0.14
3.2550001 2.5710001 -1.728 0.18000001
3.2479999 2.582 -1.728 0.1
3.2409999 2.5940001 -1.729 0.15000001
3.2260001 2.598 -1.725 0.23999999
3.2160001 2.6070001 -1.724 0.23
3.211 2.6110001 -1.723 0.18000001
3.21 2.6270001 -1.728 0.25999999
3.1919999 2.6289999 -1.722 0.16
3.2 2.6530001 -1.732 0.25999999
3.188 2.6589999 -1.729 0.2
3.1789999 2.6689999 -1.729 0.20999999
3.177 2.684 -1.732 0.23
3.161 2.6800001 -1.726 0.050000001
3.1530001 2.6889999 -1.726 0.17
3.154 2.7079999 -1.732 0.1
3.132 2.7060001 -1.723 0.18000001
3.1370001 2.727 -1.732 0.11
3.131 2.74 -1.733 0.18000001
3.118 2.7460001 -1.7309999 0.12
3.1140001 2.7509999 -1.7309999 0.2
3.1029999 2.7579999 -1.729 0.2
3.098 2.7709999 -1.732 0.18000001
3.0910001 2.7820001 -1.732 0.23
3.076 2.7869999 -1.729 0.20999999
3.0699999 2.799 -1.7309999 0.19
3.0639999 2.8110001 -1.732 0.1
3.0610001 2.8169999 -1.733 0.20999999
3.0510001 2.826 -1.732 0.2
3.0369999 2.8299999 -1.729 0.16
3.0239999 2.836 -1.727 0.23999999
3.02 2.8510001 -1.73 0.17
3.0150001 2.8640001 -1.732 0.23
3.016 2.882 -1.738 0.2
3.0039999 2.881 -1.734 0.22
2.9979999 2.8929999 -1.7359999 0.19
2.9860001 2.8989999 -1.734 0.12
2.973 2.905 -1.732 0.20999999
2.961 2.9119999 -1.73 0.11
2.947 2.9159999 -1.727 0.19
2.9530001 2.941 -1.7359999 0.11
2.9460001 2.9430001 -1.735 0.17
2.9330001 2.948 -1.732 0.050000001
2.9319999 2.9649999 -1.737 0.17
2.9170001 2.9690001 -1.734 0.11
2.9030001 2.973 -1.7309999 0.19
2.9059999 2.9949999 -1.739 0.19
2.888 2.9949999 -1.733 0.1
2.8829999 3 -1.733 0.19
2.875 3.01 -1.734 0.050000001
2.858 3.0109999 -1.729 0.17
2.855 3.027 -1.733 0.11
2.846 3.0369999 -1.734 0.18000001
2.8380001 3.0469999 -1.735 0.19
2.826 3.053 -1.733 0.090000004
2.8299999 3.0669999 -1.739 0.090000004
2.813 3.0680001 -1.734 0.2
2.803 3.0769999 -1.734 0.1
2.7909999 3.0829999 -1.732 0.2
2.783 3.0929999 -1.733 0.2
2.77 3.099 -1.732 0.090000004
2.7690001 3.1170001 -1.737 0.18000001
2.757 3.1129999 -1.732 0.11
2.753 3.1289999 -1.7359999 0.090000004
2.7409999 3.135 -1.735 0.2
2.7309999 3.1429999 -1.735 0.11
2.7190001 3.1489999 -1.733 0.19
2.717 3.1670001 -1.739 0.11
2.6949999 3.1619999 -1.7309999 0.079999998
2.6930001 3.1689999 -1.732 0.2
2.6989999 3.197 -1.744 0.11
2.6700001 3.1830001 -1.7309999 0.090000004
2.6659999 3.198 -1.735 0.18000001
2.6559999 3.207 -1.735 0.2
2.641 3.21 -1.732 0.090000004
2.642 3.2309999 -1.739 0.18000001
2.6329999 3.23 -1.7359999 0.20999999
2.6129999 3.2260001 -1.729 0.17
2.6129999 3.247 -1.7359999 0.18000001
2.605 3.2579999 -1.738 0.090000004
2.5929999 3.263 -1.7359999 0.17
2.579 3.267 -1.734 0.20999999
2.5650001 3.2709999 -1.732 0.039999999
2.5510001 3.263 -1.725 0.15000001
2.5439999 3.276 -1.728 0.050000001
2.5380001 3.289 -1.7309999 0.17
2.5309999 3.302 -1.733 0.11
2.529 3.3199999 -1.739 0.18000001
2.5120001 3.319 -1.734 0.20999999
2.493 3.3169999 -1.728 0.19
2.4979999 3.3340001 -1.7359999 0.22
2.483 3.336 -1.732 0.1
2.467 3.336 -1.728 0.18000001
2.464 3.3540001 -1.734 0.2
2.454 3.362 -1.734 0.1
2.444 3.3710001 -1.735 0.16
2.4330001 3.3770001 -1.734 0.12
2.421 3.372 -1.729 0.18000001
2.4189999 3.392 -1.7359999 0.1
2.401 3.3889999 -1.73 0.19
2.3989999 3.408 -1.7359999 0.11
2.3859999 3.4130001 -1.735 0.18000001
2.375 3.4200001 -1.735 0.2
2.369 3.4349999 -1.739 0.2
2.3570001 3.4289999 -1.733 0.22
2.3469999 3.437 -1.734 0.1
2.332 3.4389999 -1.7309999 0.18000001
2.3210001 3.4460001 -1.7309999 0.050000001
2.3099999 3.4530001 -1.7309999 0.18000001
2.3050001 3.4679999 -1.735 0.11
2.283 3.4590001 -1.726 0.18000001
2.2869999 3.477 -1.734 0.050000001
2.273 3.48 -1.732 0.15000001
2.2650001 3.4920001 -1.734 0.11
2.253 3.497 -1.733 0.090000004
2.2460001 3.5109999 -1.7359999 0.16
2.2349999 3.5179999 -1.7359999 0.20999999
2.221 3.52 -1.734 0.090000004
2.2190001 3.5280001 -1.7359999 0.15000001
2.2049999 3.53 -1.734 0.12
2.1889999 3.53 -1.73 0.19
2.1849999 3.549 -1.7359999 0.19
2.171 3.5510001 -1.734 0.17
2.1619999 3.5610001 -1.7359999 0.23
2.151 3.5680001 -1.7359999 0.16
2.145 3.5710001 -1.7359999 0.059999999
2.1300001 3.572 -1.732 0.17
2.1210001 3.5810001 -1.734 0.11
2.112 3.5929999 -1.7359999 0.18000001
2.0969999 3.5929999 -1.733 0.11
2.0840001 3.596 -1.732 0.20999999
2.079 3.612 -1.7359999 0.11
2.0710001 3.6129999 -1.735 0.19
2.062 3.6240001 -1.737 0.11
2.046 3.622 -1.733 0.18000001
2.0369999 3.632 -1.735 0.11
2.023 3.6329999 -1.732 0.19
2.017 3.6489999 -1.737 0.11
1.999 3.645 -1.732 0.2
2 3.6600001 -1.738 0.11
1.985 3.6600001 -1.735 0.2
1.976 3.671 -1.737 0.11
1.9630001 3.674 -1.7359999 0.18000001
1.954 3.6849999 -1.738 0.11
1.943 3.691 -1.738 0.18000001
1.928 3.6930001 -1.7359999 0.22
1.924 3.7119999 -1.742 0.19
1.914 3.7079999 -1.739 0.050000001
1.899 3.7079999 -1.7359999 0.18000001
1.8890001 3.717 -1.737 0.11
1.872 3.711 -1.732 0.2
1.863 3.7219999 -1.734 0.11
1.855 3.7360001 -1.738 0.17
1.845 3.7449999 -1.74 0.22
1.8380001 3.747 -1.739 0.17
1.829 3.757 -1.7410001 0.25
1.812 3.7509999 -1.7359999 0.18000001
1.801 3.7590001 -1.7359999 0.25
1.79 3.766 -1.737 0.23999999
1.777 3.77 -1.7359999 0.11
1.772 3.79 -1.744 0.18000001
1.761 3.7820001 -1.738 0.20999999
1.75 3.79 -1.74 0.18000001
1.7410001 3.8010001 -1.742 0.23999999
1.728 3.8050001 -1.7410001 0.18000001
1.714 3.8050001 -1.739 0.23999999
1.707 3.822 -1.745 0.22
1.688 3.8110001 -1.7359999 0.22
1.687 3.825 -1.742 0.20999999
1.673 3.825 -1.74 0.12
1.661 3.832 -1.7410001 0.19
1.651 3.8429999 -1.743 0.16
1.637 3.8429999 -1.7410001 0.25999999
1.627 3.8510001 -1.742 0.18000001
1.609 3.8440001 -1.7359999 0.25
1.608 3.859 -1.742 0.20999999
1.595 3.8599999 -1.7410001 0.20999999
1.5829999 3.865 -1.7410001 0.090000004
1.566 3.8599999 -1.7359999 0.19
1.5599999 3.8800001 -1.743 0.2
1.55 3.8900001 -1.745 0.18000001
1.535 3.888 -1.742 0.25
1.524 3.8770001 -1.7359999 0.16
1.515 3.8900001 -1.74 0.23
1.505 3.9000001 -1.742 0.22
1.492 3.905 -1.742 0.12
1.48 3.9100001 -1.742 0.2
1.4630001 3.902 -1.7359999 0.16
1.456 3.9189999 -1.742 0.27000001
1.451 3.9260001 -1.745 0.20999999
1.437 3.9260001 -1.742 0.23
1.425 3.9319999 -1.743 0.18000001
1.4119999 3.9330001 -1.7410001 0.23999999
1.402 3.944 -1.745 0.19
1.388 3.9449999 -1.743 0.25
1.377 3.951 -1.744 0.19
1.368 3.948 -1.7410001 0.23
1.3559999 3.9530001 -1.7410001 0.19
1.345 3.96 -1.743 0.23999999
1.326 3.9449999 -1.734 0.16
1.321 3.9719999 -1.745 0.25999999
1.306 3.9690001 -1.7410001 0.20999999
1.294 3.973 -1.7410001 0.2
1.284 3.984 -1.745 0.23
1.28 3.993 -1.748 0.22
1.263 3.9849999 -1.742 0.12
1.253 3.9979999 -1.7460001 0.18000001
1.24 4 -1.745 0.23
1.229 4.0089998 -1.748 0.20999999
1.216 4.0089998 -1.7460001 0.12
1.2029999 4.013 -1.7460001 0.18000001
1.197 4.0170002 -1.747 0.11
1.184 4.0190001 -1.7460001 0.20999999
1.1670001 4.007 -1.739 0.18000001
1.16 4.0310001 -1.749 0.27000001
1.149 4.039 -1.75 0.20999999
1.1339999 4.033 -1.7460001 0.12
1.123 4.046 -1.75 0.18000001
1.115 4.04 -1.747 0.12
1.102 4.0440001 -1.747 0.2
1.09 4.0469999 -1.747 0.2
1.075 4.0450001 -1.745 0.2
1.064 4.052 -1.7460001 0.23999999
1.056 4.0749998 -1.755 0.20999999
1.039 4.0630002 -1.748 0.23
1.034 4.0679998 -1.749 0.18000001
1.021 4.073 -1.75 0.23999999
1.003 4.0549998 -1.7410001 0.22
0.991 4.0609999 -1.742 0.17
0.98500001 4.0890002 -1.7539999 0.25999999
0.97000003 4.0830002 -1.749 0.18000001
0.95599997 4.085 -1.749 0.25
0.95300001 4.0970001 -1.7539999 0.18000001
0.93800002 4.0910001 -1.749 0.25
0.92400002 4.092 -1.749 0.19
0.91299999 4.0999999 -1.751 0.23
0.89899999 4.0999999 -1.749 0.2
0.88499999 4.0970001 -1.747 0.12
0.875 4.1139998 -1.7539999 0.18000001
0.866 4.105 -1.749 0.20999999
0.85399997 4.1090002 -1.749 0.19
0.84200001 4.1149998 -1.751 0.25
0.82599998 4.1040001 -1.745 0.23
0.81400001 4.1129999 -1.748 0.11
0.79799998 4.098 -1.74 0
0.70099998 3.677 -1.548 0
0.65799999 3.487 -1.461 0
0.64300001 3.4690001 -1.452 0
0.61799997 3.3970001 -1.419 0
0.59899998 3.3540001 -1.398 0
0.58700001 3.345 -1.3940001 0
0.574 3.335 -1.388 0
0.56199998 3.329 -1.385 0
0.55400002 3.3139999 -1.377 0
0.54299998 3.3099999 -1.375 0
0.52999997 3.2980001 -1.368 0
0.52399999 3.3280001 -1.381 0
0.50700003 3.286 -1.362 0.02
0.49700001 3.2920001 -1.364 0.12
0.48699999 3.2969999 -1.365 0.17
0.479 3.276 -1.355 0.039999999
0.47 3.286 -1.359 0.16
0.45899999 3.286 -1.359 0.050000001
0.458 3.349 -1.386 0.07
0.46799999 3.497 -1.452 0.14
0.461 3.529 -1.466 0.16
0.45199999 3.549 -1.474 0.039999999
0.44100001 3.5480001 -1.473 0
0.40799999 3.3410001 -1.38 0.029999999
0.38999999 3.2820001 -1.353 0.13
0.38 3.2809999 -1.352 0.090000004
0.37099999 3.293 -1.357 0.17
0.35800001 3.2709999 -1.346 0.20999999
0.347 3.2650001 -1.3430001 0.17
0.33700001 3.2750001 -1.347 0.16
0.33199999 3.27 -1.345 0.17
0.322 3.28 -1.349 0.12
0.31200001 3.2850001 -1.351 0.37
0.30199999 3.286 -1.351 0.17
0.29100001 3.283 -1.349 0.37
0.28099999 3.286 -1.35 0.56999999
0.27200001 3.299 -1.355 0.31
0.26699999 3.3050001 -1.358 0.050000001
0.271 3.47 -1.431 0.12
0.25 3.349 -1.377 0.039999999
0.23999999 3.3610001 -1.381 0.16
0.23 3.369 -1.385 0.19
0.21699999 3.3380001 -1.3710001 0.039999999
0.207 3.3429999 -1.372 0.029999999
0.20299999 3.3559999 -1.378 0.039999999
0.192 3.349 -1.375 0.029999999
0.182 3.362 -1.381 0.07
0.17200001 3.3629999 -1.381 0.12
0.145 3.2639999 -1.336 0.47
0.13600001 3.277 -1.342 0.31
0.13 3.2709999 -1.339 0.43000001
0.121 3.29 -1.347 0.30000001
0.109 3.2579999 -1.3329999 0.61000001
0.1 3.302 -1.352 0.31999999
0.090999998 3.3329999 -1.3660001 0.28999999
0.081 3.352 -1.374 0.13
0.07 3.339 -1.368 0.2
0.064999998 3.3499999 -1.373 0.2
0.054000001 3.325 -1.362 0.14
0.033 3.289 -1.346 0.46000001
0.022 3.296 -1.349 0.52999997
0.012 3.296 -1.349 0.56999999
0.001 3.2479999 -1.3279999 0.70999998
-0.0040000002 3.2690001 -1.337 0.34999999
-0.014 3.2520001 -1.329 0.43000001
-0.024 3.283 -1.3430001 0.28999999
-0.035 3.3469999 -1.372 0.41999999
-0.045000002 3.405 -1.398 0.050000001
-0.057999998 3.632 -1.498 0.07
-0.067000002 3.421 -1.405 0.039999999
-0.075999998 3.286 -1.345 0.16
-0.081 3.279 -1.342 0.2
-0.090999998 3.2820001 -1.3430001 0.36000001
-0.101 3.256 -1.332 0.30000001
-0.112 3.2780001 -1.342 0.2
-0.122 3.2650001 -1.336 0.18000001
-0.132 3.2590001 -1.3329999 0.039999999
-0.142 3.2709999 -1.339 0.18000001
-0.147 3.2650001 -1.337 0.2
-0.15800001 3.2720001 -1.34 0.1
-0.168 3.2620001 -1.336 0
-0.17900001 3.2839999 -1.346 0
-0.192 3.3399999 -1.3710001 0
-0.212 3.5139999 -1.449 0.02
-0.227 3.5940001 -1.485 0
-0.234 3.6059999 -1.49 0
-0.243 3.573 -1.476 0
-0.25099999 3.5209999 -1.4529999 0.029999999
-0.249 3.3180001 -1.363 0.15000001
-0.25600001 3.273 -1.3430001 0.1
-0.266 3.2709999 -1.342 0.19
-0.27700001 3.2809999 -1.347 0.11
-0.28200001 3.2750001 -1.345 0.19
-0.292 3.2739999 -1.345 0.11
-0.30399999 3.289 -1.352 0.18000001
-0.31299999 3.276 -1.346 0.20999999
-0.32499999 3.2869999 -1.352 0.16
-0.33700001 3.312 -1.364 0.14
-0.345 3.28 -1.35 0.19
-0.34999999 3.2809999 -1.351 0.2
-0.361 3.2839999 -1.352 0.16
-0.36899999 3.266 -1.345 0.050000001
-0.38 3.2720001 -1.348 0.18000001
-0.38999999 3.2690001 -1.347 0.050000001
-0.40200001 3.279 -1.352 0.16
-0.412 3.2720001 -1.35 0.050000001
-0.41800001 3.28 -1.354 0.16
-0.428 3.276 -1.352 0.050000001
-0.43900001 3.28 -1.355 0.17
-0.44800001 3.2690001 -1.351 0.050000001
-0.46000001 3.28 -1.3559999 0.17
-0.46900001 3.2739999 -1.354 0.050000001
-0.48100001 3.279 -1.357 0.16
-0.486 3.2820001 -1.359 0.2
-0.49599999 3.2809999 -1.359 0.18000001
-0.50700003 3.279 -1.359 0.18000001
-0.51800001 3.2850001 -1.362 0.18000001
-0.52600002 3.2650001 -1.354 0.039999999
-0.53799999 3.2739999 -1.359 0.16
-0.54900002 3.2780001 -1.3609999 0.2
-0.55500001 3.2820001 -1.364 0.090000004
-0.56599998 3.286 -1.3660001 0.090000004
-0.57700002 3.29 -1.368 0.090000004
-0.588 3.2880001 -1.368 0.090000004
-0.59899998 3.29 -1.37 0.079999998
-0.60900003 3.2880001 -1.37 0.079999998
-0.62 3.2869999 -1.3710001 0.079999998
-0.63200003 3.2950001 -1.375 0.079999998
-0.63599998 3.29 -1.373 0.079999998
-0.64700001 3.293 -1.376 0.079999998
-0.65799999 3.293 -1.377 0.079999998
-0.66900003 3.293 -1.377 0.079999998
-0.67900002 3.2920001 -1.378 0.079999998
-0.69 3.2920001 -1.3789999 0.079999998
-0.70200002 3.2950001 -1.381 0.079999998
-0.70599997 3.2909999 -1.38 0.039999999
-0.71899998 3.299 -1.385 0.079999998
-0.72799999 3.293 -1.383 0.039999999
-0.73799998 3.2869999 -1.381 0.079999998
-0.74800003 3.2869999 -1.382 0.039999999
-0.76300001 3.3039999 -1.391 0.079999998
-0.76999998 3.2869999 -1.385 0.039999999
-0.778 3.2950001 -1.3890001 0.079999998
-0.78799999 3.2939999 -1.39 0.039999999
-0.80199999 3.3039999 -1.395 0.07
-0.81199998 3.3 -1.3940001 0.039999999
-0.82300001 3.3010001 -1.396 0.07
-0.83399999 3.3039999 -1.398 0.039999999
-0.84500003 3.3010001 -1.398 0.07
-0.84899998 3.296 -1.397 0.039999999
-0.86199999 3.3039999 -1.402 0
-0.87199998 3.2980001 -1.4 0
-0.88099998 3.293 -1.399 0
-0.89399999 3.299 -1.403 0
-0.903 3.2909999 -1.401 0
-0.91500002 3.2939999 -1.403 0
-0.92900002 3.3050001 -1.41 0
-0.93300003 3.3 -1.408 0
-0.94300002 3.2950001 -1.4069999 0
-0.958 3.3080001 -1.415 0
-0.96499997 3.293 -1.409 0
-0.97600001 3.293 -1.411 0
-0.991 3.3039999 -1.4170001 0
-0.99800003 3.2920001 -1.413 0
-1.007 3.303 -1.419 0
-1.021 3.312 -1.424 0
-1.038 3.3299999 -1.434 0
-1.04 3.299 -1.421 0
-1.063 3.3369999 -1.441 0
-1.063 3.299 -1.424 0
-1.0829999 3.3269999 -1.439 0
-1.086 3.3169999 -1.4349999 0
-1.094 3.306 -1.432 0
-1.104 3.303 -1.432 0
-1.118 3.3110001 -1.437 0
-1.128 3.306 -1.437 0
-1.142 3.313 -1.442 0
-1.153 3.309 -1.442 0
-1.158 3.309 -1.442 0
-1.17 3.309 -1.444 0
-1.183 3.312 -1.447 0
-1.194 3.312 -1.449 0
-1.204 3.3050001 -1.447 0
-1.219 3.3150001 -1.454 0
-1.226 3.302 -1.45 0
-1.235 3.3110001 -1.455 0
-1.249 3.3150001 -1.459 0
-1.258 3.3080001 -1.457 0
-1.271 3.313 -1.461 0
-1.2869999 3.322 -1.4680001 0
-1.298 3.3199999 -1.4680001 0
-1.3049999 3.3069999 -1.464 0
-1.325 3.3429999 -1.482 0
-1.3279999 3.3199999 -1.473 0
-1.341 3.322 -1.476 0.029999999
-1.3559999 3.3299999 -1.482 0.15000001
-1.37 3.3340001 -1.4859999 0.2
-1.381 3.332 -1.487 0.22
-1.395 3.3340001 -1.49 0.27000001
-1.401 3.335 -1.492 0.22
-1.416 3.3410001 -1.497 0.13
-1.425 3.3329999 -1.495 0.18000001
-1.437 3.332 -1.497 0.050000001
-1.449 3.3310001 -1.498 0.16
-1.467 3.345 -1.507 0.2
-1.475 3.3329999 -1.5039999 0.17
-1.488 3.335 -1.507 0.25
-1.493 3.3310001 -1.507 0.23
-1.511 3.3429999 -1.515 0.23999999
-1.522 3.3399999 -1.515 0.27000001
-1.534 3.339 -1.517 0.28
-1.5470001 3.339 -1.52 0.30000001
-1.5599999 3.3410001 -1.523 0.28
-1.567 3.3280001 -1.5190001 0.30000001
-1.577 3.3369999 -1.524 0.34
-1.582 3.319 -1.518 0.30000001
-1.601 3.3329999 -1.528 0.33000001
-1.6160001 3.3369999 -1.5319999 0.31999999
-1.627 3.3329999 -1.533 0.30000001
-1.641 3.335 -1.536 0.30000001
-1.652 3.3310001 -1.5369999 0.28999999
-1.653 3.3199999 -1.533 0.2
-1.668 3.325 -1.5369999 0.30000001
-1.678 3.3180001 -1.5369999 0.23999999
-1.699 3.3340001 -1.5470001 0
-1.7029999 3.316 -1.541 0
-1.717 3.3169999 -1.544 0
-1.7309999 3.319 -1.548 0
-1.742 3.3280001 -1.554 0
-1.758 3.332 -1.559 0
-1.772 3.3329999 -1.562 0
-1.79 3.342 -1.569 0
-1.819 3.372 -1.587 0
-1.885 3.4690001 -1.6390001 0
-1.949 3.562 -1.689 0.029999999
-2.0150001 3.671 -1.745 0.14
-2.0450001 3.698 -1.762 0.19
-2.0650001 3.7079999 -1.771 0.2
-2.076 3.7 -1.77 0.23
-2.0899999 3.698 -1.772 0.19
-2.1010001 3.6900001 -1.771 0.20999999
-2.1110001 3.6800001 -1.77 0.1
-2.1259999 3.6800001 -1.773 0.090000004
-2.128 3.6700001 -1.77 0.18000001
-2.1429999 3.6700001 -1.773 0.11
-2.1500001 3.655 -1.7690001 0.19
-2.168 3.6589999 -1.775 0.11
-2.1789999 3.651 -1.774 0.17
-2.1889999 3.6429999 -1.773 0.20999999
-2.201 3.6359999 -1.773 0.1
-2.21 3.6389999 -1.776 0.16
-2.2179999 3.625 -1.773 0.050000001
-2.2290001 3.618 -1.773 0.14
-2.244 3.618 -1.776 0.11
-2.2579999 3.6140001 -1.778 0.18000001
-2.2650001 3.5999999 -1.775 0.11
-2.2720001 3.585 -1.771 0.18000001
-2.279 3.585 -1.772 0.11
-2.2880001 3.573 -1.77 0.18000001
-2.306 3.5769999 -1.775 0.11
-2.3139999 3.5650001 -1.773 0.19
-2.3199999 3.55 -1.7690001 0
-2.299 3.494 -1.743 0
-2.2409999 3.381 -1.687 0
-2.2060001 3.3150001 -1.654 0.02
-2.207 3.2939999 -1.646 0.11
-2.217 3.2869999 -1.646 0.25
-2.227 3.2780001 -1.645 0.090000004
-2.2309999 3.2620001 -1.641 0
-2.247 3.2639999 -1.645 0
-2.257 3.257 -1.645 0
-2.24 3.21 -1.624 0
-0.847 1.1569999 -0.52100003 0
-0.87699997 1.184 -0.53899997 0
-0.83899999 1.124 -0.50700003 0
-0.84399998 1.118 -0.50599998 0
-3.0079999 3.023 -1.78 0
-3.03 3.0250001 -1.7869999 0
-3.04 3.017 -1.788 0
-3.0480001 3.006 -1.7869999 0
-3.0769999 3.0150001 -1.799 0
-3.085 3.013 -1.801 0
-3.085 2.994 -1.795 0
-3.105 2.9949999 -1.801 0
-3.1170001 2.9879999 -1.803 0
-3.125 2.977 -1.802 0
-3.323 2.684 -1.783 0
-3.3210001 2.664 -1.776 0
-3.325 2.6500001 -1.774 0
-3.336 2.642 -1.775 0
-3.3410001 2.638 -1.776 0
-3.3469999 2.625 -1.775 0
-3.346 2.608 -1.77 0
-3.365 2.605 -1.775 0
-3.368 2.5910001 -1.773 0.059999999
-3.3789999 2.5829999 -1.775 0.039999999
-3.3929999 2.5769999 -1.778 0.029999999
-3.3900001 2.566 -1.774 0.14
-3.398 2.5550001 -1.774 0.050000001
-3.4000001 2.54 -1.771 0.14
-3.4170001 2.536 -1.775 0.18000001
-3.4189999 2.5209999 -1.772 0.18000001
-3.437 2.5179999 -1.778 0.23999999
-3.428 2.494 -1.768 0.16
-3.45 2.494 -1.776 0.25999999
-3.4530001 2.4879999 -1.775 0.19
-3.457 2.4749999 -1.774 0.23999999
-3.461 2.461 -1.771 0.17
-3.4790001 2.457 -1.777 0.25
-3.467 2.4319999 -1.767 0.16
-3.484 2.428 -1.771 0.27000001
-3.4990001 2.4219999 -1.775 0.2
-3.4949999 2.411 -1.771 0.23
-3.513 2.408 -1.777 0.2
-3.5250001 2.4000001 -1.78 0.23
-3.53 2.3870001 -1.778 0.20999999
-3.527 2.368 -1.772 0.12
-3.543 2.3629999 -1.777 0.18000001
-3.5450001 2.348 -1.774 0.2
-3.55 2.3440001 -1.775 0.1
-3.5650001 2.3369999 -1.779 0.15000001
-3.5550001 2.3150001 -1.77 0.050000001
-3.566 2.306 -1.771 0.16
-3.5799999 2.3 -1.775 0.050000001
-3.586 2.2880001 -1.775 0.16
-3.5899999 2.2739999 -1.773 0.2
-3.598 2.2720001 -1.775 0.16
-3.6040001 2.2590001 -1.775 0.18000001
-3.619 2.253 -1.779 0.16
-3.6199999 2.2379999 -1.775 0.14
-3.6159999 2.2190001 -1.77 0.23999999
-3.6400001 2.2190001 -1.779 0.31999999
-3.6500001 2.2090001 -1.78 0.40000001
-3.652 2.2019999 -1.78 0.34999999
-3.6489999 2.1849999 -1.775 0.41999999
-3.6670001 2.1800001 -1.78 0.44999999
-3.658 2.1589999 -1.772 0.40000001
-3.665 2.148 -1.772 0.43000001
-3.6830001 2.1429999 -1.778 0.38999999
-3.691 2.132 -1.779 0.36000001
-3.5650001 2.0510001 -1.712 0
-3.6960001 2.112 -1.776 0
-3.777 -2.0650001 -1.7970001 0
-3.7720001 -2.0780001 -1.798 0
-3.7690001 -2.0910001 -1.8 0
-3.756 -2.099 -1.7970001 0.029999999
-3.7590001 -2.109 -1.8 0.079999998
-3.7479999 -2.118 -1.7970001 0.090000004
-3.7309999 -2.1240001 -1.793 0.090000004
-3.723 -2.135 -1.7920001 0.19
-3.723 -2.151 -1.795 0.17
-3.7219999 -2.1659999 -1.798 0.27000001
-3.7119999 -2.1760001 -1.7970001 0.22
-3.698 -2.175 -1.791 0.18000001
-3.6930001 -2.188 -1.7920001 0.28999999
-3.6860001 -2.1989999 -1.7920001 0.25
-3.687 -2.2149999 -1.796 0.18000001
-3.6830001 -2.2290001 -1.7970001 0.27000001
-3.665 -2.234 -1.7920001 0.25
-3.6670001 -2.2509999 -1.7970001 0.2
-3.6589999 -2.2539999 -1.794 0.25999999
-3.6500001 -2.2639999 -1.793 0.18000001
-3.648 -2.279 -1.796 0.23999999
-3.6359999 -2.2869999 -1.793 0.23
-3.635 -2.303 -1.7970001 0.19
-3.631 -2.316 -1.798 0.28
-3.622 -2.326 -1.7970001 0.25
-3.605 -2.332 -1.793 0.19
-3.609 -2.3429999 -1.7970001 0.27000001
-3.599 -2.352 -1.795 0.22
-3.6010001 -2.369 -1.8 0.17
-3.589 -2.3770001 -1.7970001 0.28
-3.5829999 -2.3900001 -1.798 0.23999999
-3.569 -2.3970001 -1.795 0.27000001
-3.5680001 -2.405 -1.7970001 0.22
-3.5550001 -2.4119999 -1.793 0.2
-3.5469999 -2.4230001 -1.793 0.31
-3.546 -2.438 -1.7970001 0.25
-3.5420001 -2.4519999 -1.799 0.25999999
-3.5320001 -2.461 -1.7970001 0.27000001
-3.5190001 -2.4690001 -1.795 0.30000001
-3.5250001 -2.4809999 -1.8 0.27000001
-3.506 -2.4849999 -1.794 0.30000001
-3.497 -2.4949999 -1.793 0.28
-3.4949999 -2.51 -1.7970001 0.27000001
-3.4990001 -2.529 -1.803 0.25999999
-3.4779999 -2.5309999 -1.796 0.30000001
-3.47 -2.5420001 -1.796 0.28999999
-3.4660001 -2.5469999 -1.796 0.28
-3.4519999 -2.5539999 -1.793 0.28999999
-3.4449999 -2.566 -1.793 0.28
-3.4330001 -2.573 -1.791 0.2
-3.4360001 -2.5929999 -1.7970001 0.27000001
-3.427 -2.602 -1.7970001 0.25
-3.4189999 -2.6129999 -1.7970001 0.2
-3.402 -2.6170001 -1.7920001 0.050000001
-3.3959999 -2.6210001 -1.791 0.17
-3.398 -2.6400001 -1.7970001 0.20999999
