# .PCD v0.7 - Point Cloud Data file format
VERSION 0.7
FIELDS x y z intensity
SIZE 4 4 4 4
TYPE F F F F
COUNT 1 1 1 1
WIDTH 1389
HEIGHT 1
VIEWPOINT 0 0 0 1 0 0 0
POINTS 1389
DATA ascii
-29.969 14.719 -0.495 0.27000001
-30.033001 14.634 -0.495 0.23999999
-24.693001 11.931 -0.37 0.14
-15.878 7.6300001 -0.164 0.34
-15.887 7.5739999 -0.164 0.38
-15.873 7.506 -0.163 0.43000001
-15.895 7.4549999 -0.163 0.31999999
-15.932 7.4120002 -0.163 0.5
-15.983 7.3740001 -0.164 0.27000001
-16.073 7.355 -0.16599999 0.55000001
-15.858 7.1659999 -0.16 0.44999999
-15.82 7.0890002 -0.15800001 0.36000001
-15.863 7.0479999 -0.15899999 0.43000001
-16.280001 7.1729999 -0.168 0.28
-16.308001 7.1240001 -0.168 0.38
-16.242001 7.0349998 -0.16599999 0.16
-15.552 6.7059999 -0.15000001 0.41999999
-15.507 6.6279998 -0.149 0.31
-15.553 6.5910001 -0.149 0.44999999
-15.487 6.5050001 -0.147 0.34
-15.576 6.4850001 -0.149 0.41999999
-15.615 6.4439998 -0.149 0.20999999
-15.565 6.3660002 -0.148 0.31
-15.638 6.3390002 -0.149 0.18000001
-15.869 6.4029999 -0.154 0.54000002
-15.841 6.3340001 -0.153 0.34
-15.76 6.2449999 -0.15000001 0.37
-15.493 6.0819998 -0.14399999 0.17
-16.695 6.4949999 -0.171 0.47999999
-16.757999 6.46 -0.171 0.22
-15.266 5.8540001 -0.138 0.18000001
-15.303 5.8140001 -0.138 0.55000001
-15.74 5.9239998 -0.148 0.31999999
-15.54 5.7919998 -0.14300001 0.27000001
-15.762 5.8189998 -0.147 0.37
-15.983 5.8439999 -0.152 0.23999999
-15.885 5.7519999 -0.149 0.33000001
-15.471 5.573 -0.14 0.30000001
-15.334 5.4699998 -0.13600001 0.19
-15.428 5.4489999 -0.138 0.19
-16.200001 5.665 -0.155 0.17
-16.112 5.5209999 -0.152 0.19
-47.821999 16.273001 -0.85399997 0.079999998
-47.66 16.135 -0.85000002 0.2
-47.473 15.905 -0.84500003 0.23999999
-47.464001 15.736 -0.84299999 0.11
-47.601002 15.616 -0.84500003 0
-47.686001 15.478 -0.84600002 0
-47.77 15.34 -0.847 0
-47.895 15.214 -0.84899998 0
-47.617001 15.043 -0.84200001 0.12
-41.533001 12.974 -0.70700002 0.090000004
-41.162998 12.717 -0.69800001 0.079999998
-41.148998 12.571 -0.69700003 0.17
-41.062 12.403 -0.69400001 0.12
-41.196999 12.303 -0.69599998 0.16
-41.237 12.174 -0.69599998 0.12
-41.277 12.115 -0.69700003 0.16
-41.417 12.015 -0.699 0
-41.514 11.902 -0.69999999 0
-47.316002 13.409 -0.82599998 0
-47.096001 13.187 -0.81999999 0
-46.603001 12.891 -0.80900002 0
-46.334999 12.66 -0.80199999 0
-46.698002 12.68 -0.81 0.07
-39.868999 10.688 -0.66000003 0.11
-39.807999 10.537 -0.65799999 0.19
-39.842999 10.413 -0.65799999 0.17
-39.967999 10.311 -0.66000003 0
-46.062 11.734 -0.792 0.12
-45.769001 11.582 -0.78500003 0.17
-45.694 11.411 -0.78200001 0.18000001
-45.731998 11.267 -0.78299999 0
-45.845001 11.143 -0.78399998 0
-45.917 11.007 -0.78500003 0
-45.750999 10.816 -0.78100002 0
-45.854 10.688 -0.78200001 0
-45.902 10.623 -0.78299999 0
-45.759998 10.439 -0.77899998 0
-46.046001 10.352 -0.78500003 0.13
-45.436001 10.065 -0.77100003 0
-45.831001 10.002 -0.77899998 0.079999998
-45.827 9.8500004 -0.778 0.090000004
-45.476002 9.625 -0.76999998 0.2
-45.456001 9.5459995 -0.76899999 0.23999999
-45.325001 9.3699999 -0.76499999 0
-45.814999 9.3219995 -0.77499998 0.12
-45.387001 9.0860004 -0.76499999 0
-45.604 8.9799995 -0.76999998 0
-45.514 8.8140001 -0.76700002 0.079999998
-45.449001 8.6540003 -0.76499999 0.090000004
-45.400002 8.5699997 -0.764 0.14
-45.382999 8.4200001 -0.76300001 0.090000004
-45.27 8.2510004 -0.75999999 0.15000001
-45.287998 8.1079998 -0.75999999 0.12
-45.478001 7.9949999 -0.76300001 0.12
-45.549 7.8600001 -0.764 0.23999999
-45.675999 7.7340002 -0.76599997 0.18000001
-45.987 7.7129998 -0.773 0
-47.099998 7.7480001 -0.796 0
-47.879002 7.7220001 -0.81199998 0
-51.151001 8.0869999 -0.88099998 0
-52.004002 8.0550003 -0.898 0
-53.223 8.073 -0.92400002 0
-53.766998 7.9829998 -0.935 0
-54.462002 7.9990001 -0.949 0
-55.912998 8.033 -0.97899997 0
-59.116001 8.3059998 -1.0470001 0
-59.588001 8.1809998 -1.056 0
-76.282997 0.23 -1.3940001 0
-39.583 -0.079999998 -0.625 0
-38.384998 -0.56 -0.60000002 0
-38.393002 -0.68099999 -0.60000002 0
-69.563004 -3.401 -1.255 0
-37.556 -1.966 -0.583 0
-70.429001 -3.8870001 -1.274 0
-70.292999 -4.1009998 -1.271 0
-47.441002 -3 -0.792 0.37
-46.226002 -3.0699999 -0.76599997 0.23999999
-46.259998 -3.2179999 -0.76700002 0.13
-44.712002 -3.253 -0.73500001 0.28999999
-44.707001 -3.3940001 -0.73500001 0.14
-41.166 -3.257 -0.66100001 0.25999999
-41.153 -3.3210001 -0.66100001 0.15000001
-47.726002 -3.9979999 -0.79900002 0.23999999
-45.542 -3.961 -0.75300002 0.1
-39.146 -3.5320001 -0.61900002 0.15000001
-34.883999 -3.2609999 -0.52999997 0
-34.882 -3.3710001 -0.52999997 0
-69.907997 -6.9520001 -1.268 0
-40.821999 -4.1350002 -0.65499997 0.039999999
-40.761002 -4.2579999 -0.65399998 0.16
-39.316002 -4.2329998 -0.62400001 0.28999999
-39.252998 -4.3509998 -0.62300003 0.22
-39.285 -4.48 -0.62400001 0
-72.911003 -8.5240002 -1.334 0
-35.09 -4.283 -0.53600001 0.23
-34.993 -4.3829999 -0.53399998 0.17
-35.119999 -4.5110002 -0.537 0.17
-37.102001 -4.8829999 -0.57999998 0.30000001
-35.667 -4.809 -0.55000001 0.16
-35.761002 -4.9359999 -0.55199999 0
-35.525002 -5.0180001 -0.54699999 0
-72.990997 -10.398 -1.341 0
-72.684998 -10.588 -1.335 0
-72.296997 -10.764 -1.3279999 0
-22.622 -3.677 -0.27500001 0
-68.818001 -11.243 -1.257 0
-22.74 -3.806 -0.278 0
-38.016998 -6.4679999 -0.60399997 0
-22.896999 -3.98 -0.28200001 0
-22.895 -4.0539999 -0.28200001 0
-22.966 -4.1409998 -0.28400001 0
-23.132999 -4.2090001 -0.28799999 0
-23.261 -4.3070002 -0.29100001 0.07
-23.23 -4.3769999 -0.29100001 0.11
-23.153 -4.4380002 -0.289 0.27000001
-20.605 -4.02 -0.235 0.16
-22.629 -4.4860001 -0.27900001 0.20999999
-22.638 -4.5609999 -0.27900001 0.34
-22.599001 -4.5910001 -0.278 0.30000001
-22.565001 -4.658 -0.278 0.30000001
-22.601 -4.7389998 -0.27900001 0.25999999
-22.739 -4.842 -0.28200001 0.34
-22.804001 -4.9310002 -0.28400001 0.34
-22.739 -4.9920001 -0.28299999 0.23
-22.612 -5.039 -0.28099999 0.43000001
-22.649 -5.0840001 -0.28200001 0.38
-22.617001 -5.152 -0.28099999 0.28999999
-22.554001 -5.2119999 -0.28 0.43000001
-22.606001 -5.2989998 -0.28200001 0.30000001
-23.973 -5.697 -0.31200001 0.28
-23.761999 -5.7259998 -0.30700001 0.34
-16.974001 -4.1830001 -0.161 0.18000001
-23.788 -5.9299998 -0.30899999 0.16
-23.929001 -6.0450001 -0.31200001 0.22
-23.997 -6.1420002 -0.31400001 0.31999999
-23.987 -6.2199998 -0.315 0
-19.875999 -5.2259998 -0.226 0
-55.573002 -14.842 -1.001 0
-55.484001 -15.006 -1 0.039999999
-55.539001 -15.208 -1.002 0.15000001
-55.577 -15.406 -1.0039999 0.12
-50.879002 -14.278 -0.903 0.14
-50.832001 -14.437 -0.903 0.28999999
-50.755001 -14.588 -0.90200001 0.25
-50.742001 -14.671 -0.90200001 0
-50.469002 -14.764 -0.898 0
-50.535999 -14.956 -0.89999998 0
-18.084 -5.493 -0.191 0.11
-46.777 -14.326 -0.82099998 0.18000001
-46.709999 -14.386 -0.81999999 0.23
-46.488998 -14.478 -0.81599998 0
-45.936001 -14.465 -0.80500001 0
-45.098999 -14.358 -0.787 0
-44.855999 -14.436 -0.78299999 0
-44.827 -14.582 -0.78299999 0
-44.248001 -14.547 -0.77200001 0.1
-42.935001 -14.192 -0.74299997 0.18000001
-43.130001 -14.406 -0.74800003 0
-42.77 -14.436 -0.741 0.039999999
-23.407 -7.9949999 -0.31400001 0.17
-23.457001 -8.0939999 -0.315 0.28999999
-20.481001 -7.2150002 -0.25 0.5
-20.481001 -7.2509999 -0.25 0.15000001
-17.559999 -6.283 -0.186 0.41
-17.186001 -6.211 -0.178 0.23999999
-17.094999 -6.2389998 -0.176 0.14
-17.079 -6.2940001 -0.177 0.31999999
-17.027 -6.336 -0.176 0.33000001
-17.011 -6.3909998 -0.176 0.37
-16.792999 -6.3390002 -0.171 0.30000001
-16.688999 -6.3600001 -0.169 0.33000001
-16.822001 -6.4710002 -0.17299999 0.25
-16.650999 -6.4650002 -0.169 0.47999999
-16.639999 -6.5209999 -0.17 0.27000001
-16.409 -6.4910002 -0.16500001 0.34
-16.440001 -6.5630002 -0.16599999 0.25999999
-16.594 -6.6539998 -0.17 0.47
-16.606001 -6.7199998 -0.171 0.33000001
-16.396 -6.6950002 -0.16599999 0.30000001
-16.417 -6.7639999 -0.167 0.37
-16.531 -6.8709998 -0.17 0.31999999
-16.461 -6.9029999 -0.169 0.33000001
-16.377001 -6.928 -0.168 0.28
-16.32 -6.9349999 -0.167 0.23999999
-16.239 -6.961 -0.16500001 0.52999997
-16.459999 -7.1160002 -0.171 0.2
-16.479 -7.1859999 -0.17200001 0.44999999
-16.259001 -7.151 -0.167 0.34
-16.222 -7.1960001 -0.167 0.27000001
-16.358 -7.2870002 -0.17 0.40000001
-16.447001 -7.388 -0.17299999 0.34
-16.509001 -7.4780002 -0.175 0.27000001
-16.486 -7.5300002 -0.175 0.49000001
-16.229 -7.4749999 -0.17 0.23
-16.136999 -7.494 -0.168 0.38
-16.131001 -7.553 -0.168 0.36000001
-16.313 -7.6690001 -0.17299999 0.31999999
-16.476999 -7.809 -0.177 0.28
-16.283001 -7.7800002 -0.17299999 0.38999999
-16.292 -7.848 -0.17399999 0.30000001
-16.563 -8.0419998 -0.18099999 0.31
-16.568001 -8.1090002 -0.182 0.30000001
-16.42 -8.1009998 -0.17900001 0.2
-16.702999 -8.2729998 -0.186 0.57999998
-16.642 -8.3070002 -0.185 0.19
-16.288 -8.1949997 -0.177 0.23999999
-16.107 -8.1680002 -0.17399999 0.37
-16.327 -8.3439999 -0.17900001 0.37
-16.521999 -8.5080004 -0.185 0.30000001
-16.469 -8.5139999 -0.184 0.14
-16.146 -8.4119997 -0.177 0.38999999
-16.357 -8.5869999 -0.182 0.16
-16.584999 -8.8400002 -0.189 0.38999999
-16.775999 -9.0089998 -0.19400001 0.2
-18.587 -10.053 -0.23800001 0.12
-16.573 -9.0010004 -0.19 0.41999999
-16.660999 -9.1160002 -0.193 0.28
-17.245001 -9.5059996 -0.208 0.31999999
-17.497 -9.7159996 -0.215 0.19
-17.191999 -9.618 -0.208 0.43000001
-16.841 -9.4910002 -0.2 0.28999999
-16.858 -9.5710001 -0.20100001 0.33000001
-16.796 -9.5710001 -0.2 0.38
-17.086 -9.8059998 -0.208 0
-7.4489999 -4.3860002 0.024 0.36000001
-7.4260001 -4.4039998 0.024 0
-19.958 -11.912 -0.28200001 0
-7.4299998 -4.4380002 0.024 0
-19.827999 -11.919 -0.28 0
-19.749001 -11.957 -0.27900001 0
-19.646999 -11.979 -0.27700001 0
-19.548 -12.003 -0.27599999 0
-19.483 -12.048 -0.27500001 0
-19.448 -12.069 -0.27500001 0
-19.403 -12.126 -0.27500001 0
-19.357 -12.182 -0.27399999 0
-19.316999 -12.241 -0.27399999 0
-19.280001 -12.303 -0.27399999 0
-19.271 -12.383 -0.27500001 0
-19.243999 -12.451 -0.27599999 0
-19.207001 -12.556 -0.27599999 0
-19.249001 -12.67 -0.278 0
-19.306 -12.794 -0.28099999 0
-23.205 -15.582 -0.38100001 0.31999999
-23.148001 -15.649 -0.38100001 0.27000001
-23.167 -15.715 -0.382 0.19
-23.172001 -15.825 -0.38299999 0.38
-23.402 -16.09 -0.38999999 0.2
-23.115 -16 -0.384 0
-23.424999 -16.323 -0.39399999 0
-23.566999 -16.532 -0.39899999 0.1
-23.370001 -16.504 -0.39500001 0
-23.292999 -16.504 -0.39300001 0
-22.802 -16.372999 -0.384 0
-22.778 -16.465 -0.384 0
-22.907 -16.667999 -0.389 0
-21.465 -15.724 -0.35299999 0
-21.356001 -15.747 -0.35100001 0
-20.979 -15.725 -0.345 0
-8.1669998 -6.263 -0.011 0.25999999
-8.1140003 -6.263 -0.0099999998 0.31
-8.0719995 -6.2509999 -0.0089999996 0.34
-8.007 -6.2410002 -0.0080000004 0.30000001
-7.9759998 -6.257 -0.0070000002 0.28999999
-7.9450002 -6.2740002 -0.0070000002 0.30000001
-7.915 -6.29 -0.0070000002 0.38999999
-7.8920002 -6.3119998 -0.0070000002 0.31999999
-7.868 -6.3130002 -0.0060000001 0.37
-7.8509998 -6.3410001 -0.0060000001 0.28999999
-7.8400002 -6.3730001 -0.0070000002 0.40000001
-7.8109999 -6.3899999 -0.0060000001 0.25
-7.8080001 -6.428 -0.0070000002 0.38999999
-7.803 -6.4660001 -0.0070000002 0.31999999
-7.7839999 -6.4910002 -0.0070000002 0.34
-7.7969999 -6.5229998 -0.0080000004 0.34
-7.8039999 -6.5700002 -0.0089999996 0.34999999
-7.7160001 -6.5380001 -0.0070000002 0
-7.7919998 -6.6440001 -0.0099999998 0
-19.41 -17.084999 -0.33700001 0
-19.673 -18.443001 -0.36000001 0
-19.646999 -18.535 -0.361 0
-18.863001 -18.25 -0.345 0.20999999
-18.766001 -18.271999 -0.34400001 0.23999999
-18.709 -18.273001 -0.34299999 0
-18.639999 -18.320999 -0.34299999 0
-6.7509999 -7.0229998 0.001 0.43000001
-6.7179999 -7.033 0.001 0.20999999
-6.7140002 -7.073 0.001 0.28
-6.6409998 -7.04 0.0020000001 0
-6.6469998 -7.0689998 0.0020000001 0
-9.7110004 -10.506 -0.094999999 0.18000001
-9.625 -10.479 -0.093000002 0.18000001
-18.931 -20.702999 -0.38299999 0.14
-18.816999 -20.709999 -0.382 0.090000004
-18.75 -20.701 -0.38100001 0
-18.666 -20.739 -0.38 0
-6.684 -7.5450001 -0.0060000001 0.13
-6.6880002 -7.6459999 -0.0080000004 0.31
-6.6659999 -7.6459999 -0.0080000004 0.16
-6.1620002 -7.1149998 0.0080000004 0.20999999
-6.1389999 -7.1339998 0.0080000004 0
-6.0819998 -7.112 0.0089999996 0.11
-6.0419998 -7.112 0.0089999996 0.20999999
-5.927 -7.0209999 0.012 0
-6.9320002 -8.2840004 -0.021 0.13
-7.2069998 -8.6660004 -0.030999999 0.33000001
-6.743 -8.1619997 -0.017000001 0.34999999
-6.724 -8.191 -0.017000001 0.25
-6.757 -8.283 -0.018999999 0.28999999
-7.0760002 -8.7290001 -0.030999999 0.27000001
-7.2360001 -8.9829998 -0.037 0
-7.0890002 -8.8299999 -0.032000002 0
-18.33 -22.910999 -0.41 0
-18.278 -22.993999 -0.41100001 0
-5.8060002 -7.428 0.0070000002 0.25999999
-5.6560001 -7.2839999 0.012 0.2
-5.586 -7.217 0.014 0
-6.8340001 -8.8780003 -0.029999999 0
-6.7880001 -8.875 -0.028999999 0
-5.4320002 -7.2979999 0.014 0
-5.4070001 -7.3369999 0.014 0.14
-5.3600001 -7.322 0.015 0
-5.4180002 -7.5479999 0.0099999998 0.5
-5.3990002 -7.572 0.0099999998 0.22
-5.3390002 -7.5120001 0.012 0.18000001
-5.256 -7.4460001 0.014 0
-5.2459998 -7.4819999 0.014 0.12
-5.184 -7.4419999 0.015 0.14
-5.1199999 -7.401 0.016000001 0.17
-18.723 -27.306 -0.48899999 0.36000001
-4.941 -7.2649999 0.021 0.30000001
-4.8959999 -7.2470002 0.022 0.14
-5.5650001 -8.2869997 -0.0040000002 0.49000001
-5.5219998 -8.2790003 -0.0040000002 0.22
-5.454 -8.2329998 -0.0020000001 0.16
-5.585 -8.4870005 -0.0080000004 0.34
-5.2940001 -8.1040001 0.0020000001 0.15000001
-5.5359998 -8.5 -0.0080000004 0.22
-5.5830002 -8.6309996 -0.0099999998 0
-5.204 -8.1599998 0.0020000001 0.28
-5.3460002 -8.4390001 -0.0040000002 0.28999999
-5.1430001 -8.177 0.003 0.31
-5.2119999 -8.3149996 -0.001 0.22
-5.2930002 -8.5030003 -0.0049999999 0.25999999
-4.6589999 -7.5430002 0.018999999 0.37
-6.6859999 -10.879 -0.063000001 0.12
-6.6719999 -10.932 -0.063000001 0.43000001
-5.2010002 -8.592 -0.0049999999 0.16
-5.3039999 -8.8240004 -0.011 0
-5.119 -8.5480003 -0.0040000002 0
-19.371 -32.439999 -0.58700001 0.11
-4.5370002 -7.691 0.017999999 0
-18.783001 -32.491001 -0.58200002 0.25
-4.5240002 -7.836 0.015 0.57999998
-4.4219999 -7.744 0.017999999 0.27000001
-4.4320002 -7.8189998 0.017000001 0.14
-18.405001 -32.541 -0.579 0
-18.361 -32.702 -0.58099997 0
-18.311001 -32.854 -0.58399999 0.11
-4.4039998 -8.0019999 0.014 0.16
-4.3699999 -7.9679999 0.015 0.34999999
-4.3340001 -7.9629998 0.015 0.28999999
-4.3080001 -7.9749999 0.015 0.25999999
-4.2690001 -7.9619999 0.016000001 0.14
-4.2459998 -7.98 0.016000001 0.46000001
-4.237 -8.0240002 0.015 0.2
-4.2550001 -8.118 0.013 0
-4.2649999 -8.1680002 0.012 0.1
-18.982 -36.721001 -0.662 0.33000001
-18.843 -36.734001 -0.66100001 0.090000004
-18.708 -36.754002 -0.66000003 0.16
-18.562 -36.752998 -0.65799999 0.20999999
-18.507999 -36.790001 -0.65799999 0
-18.433001 -36.928001 -0.66000003 0
-18.384001 -37.122002 -0.66399997 0
-18.355 -37.356998 -0.66799998 0
-17.552 -36.299999 -0.63999999 0.22
-7.02 -14.671 -0.13600001 0.28
-7.0679998 -14.83 -0.139 0
-6.9120002 -14.623 -0.134 0.090000004
-3.477 -7.4460001 0.033 0.11
-3.4389999 -7.4250002 0.034000002 0.34999999
-3.405 -7.4130001 0.034000002 0.12
-3.368 -7.3930001 0.035 0.16
-3.358 -7.4349999 0.034000002 0.16
-3.3469999 -7.4400001 0.034000002 0.2
-3.3110001 -7.4229999 0.035 0.14
-3.302 -7.4660001 0.034000002 0.16
-3.279 -7.4770002 0.034000002 0.28999999
-3.263 -7.5050001 0.034000002 0.27000001
-3.2509999 -7.5409999 0.033 0.2
-9.6110001 -22.455999 -0.30700001 0.22
-3.2420001 -7.5840001 0.032000002 0.22
-9.5419998 -22.488001 -0.30700001 0.31
-9.427 -22.415001 -0.30500001 0.1
-9.4029999 -22.555 -0.30700001 0.079999998
-7.5619998 -18.476 -0.213 0.31
-7.5050001 -18.419001 -0.212 0.30000001
-7.4390001 -18.424 -0.212 0.34
-7.3709998 -18.422001 -0.211 0.34
-7.3239999 -18.473 -0.212 0.34999999
-7.2659998 -18.495001 -0.212 0.28999999
-7.2270002 -18.569 -0.213 0.50999999
-7.2140002 -18.707001 -0.215 0
-8.658 -22.542999 -0.301 0
-8.5620003 -22.503 -0.30000001 0
-8.4899998 -22.528 -0.30000001 0
-8.415 -22.541 -0.29899999 0.1
-5.2690001 -14.277 -0.114 0.13
-5.2010002 -14.232 -0.113 0.30000001
-5.1479998 -14.226 -0.112 0.34999999
-5.1149998 -14.204 -0.111 0.40000001
-5.066 -14.208 -0.111 0.38999999
-5.0219998 -14.226 -0.111 0.37
-4.9749999 -14.236 -0.111 0.38
-4.9359999 -14.267 -0.111 0.41
-4.8969998 -14.299 -0.112 0.36000001
-4.8569999 -14.33 -0.112 0.41
-4.8439999 -14.364 -0.113 0.33000001
-4.7909999 -14.356 -0.112 0.56
-7.6729999 -23.186001 -0.30700001 0.14
-7.5819998 -23.155001 -0.30599999 0.41999999
-7.4840002 -23.1 -0.30399999 0.25
-7.381 -23.028999 -0.30199999 0.25999999
-7.3200002 -22.964001 -0.30000001 0.25999999
-7.2220001 -22.905001 -0.29800001 0.20999999
-7.1329999 -22.872 -0.29699999 0.31999999
-7.0300002 -22.792999 -0.29499999 0.2
-6.9330001 -22.735001 -0.29300001 0.25
-6.8769999 -22.806 -0.294 0.28
-6.8200002 -22.875999 -0.29499999 0.28
-6.802 -22.950001 -0.29699999 0.28999999
-6.7459998 -23.023001 -0.29800001 0.30000001
-6.6929998 -23.113001 -0.29899999 0.28
-6.6430001 -23.211 -0.301 0.28
-6.5910001 -23.305 -0.303 0.28
-6.5409999 -23.41 -0.30500001 0.25999999
-6.4910002 -23.514999 -0.30599999 0.27000001
-6.461 -23.552 -0.30700001 0.2
-6.4089999 -23.652 -0.30899999 0.30000001
-6.382 -23.847 -0.31299999 0.2
-2.003 -7.6479998 0.039000001 0.30000001
-1.992 -7.7049999 0.037999999 0.25
-1.973 -7.7319999 0.037999999 0.12
-1.924 -7.5900002 0.041000001 0.16
-1.9069999 -7.625 0.039999999 0.18000001
-5.8439999 -23.455 -0.30199999 0.25
-5.8179998 -23.667999 -0.30599999 0.16
-1.829 -7.6160002 0.041000001 0.14
-5.8909998 -24.971001 -0.333 0.38999999
-5.9260001 -25.297001 -0.34 0.25
-5.9299998 -25.674 -0.347 0.22
-5.8870001 -25.856001 -0.35100001 0.15000001
-5.8990002 -26.290001 -0.36000001 0.17
-5.8470001 -26.443001 -0.36300001 0.19
-5.9369998 -27.257 -0.38 0.14
-5.7969999 -26.813999 -0.37 0.17
-7.6199999 -35.752998 -0.56099999 0
-7.4159999 -35.341999 -0.55199999 0.07
-7.3140001 -35.405998 -0.55299997 0.14
-7.4499998 -36.639999 -0.579 0.13
-7.3150001 -36.567001 -0.57700002 0
-7.1700001 -36.438999 -0.574 0
-4.7290001 -24.691999 -0.322 0.20999999
-4.6529999 -24.714001 -0.322 0.2
-4.559 -24.639999 -0.31999999 0.12
-4.4590001 -24.528 -0.31799999 0.15000001
-4.4060001 -24.68 -0.32100001 0.19
-4.3449998 -24.784 -0.32300001 0.2
-4.079 -23.490999 -0.29499999 0.38999999
-3.9860001 -23.393999 -0.292 0.19
-3.8989999 -23.325001 -0.29100001 0.23
-3.822 -23.313999 -0.28999999 0.2
-3.8210001 -23.774 -0.30000001 0.2
-3.7160001 -23.594 -0.296 0.34999999
-3.638 -23.582001 -0.29499999 0.27000001
-3.5940001 -23.544001 -0.294 0.31999999
-3.5380001 -23.672001 -0.29699999 0.28999999
-3.4360001 -23.497 -0.29300001 0.28999999
-3.378 -23.618 -0.29499999 0.19
-3.2780001 -23.447001 -0.29100001 0.17
-3.2190001 -23.562 -0.294 0.14
-2.5190001 -18.698999 -0.191 0.18000001
-2.47 -18.778 -0.192 0.20999999
-1.295 -10.442 -0.016000001 0.43000001
-1.258 -10.414 -0.015 0
-5.23 -43.737 -0.71899998 0
-5.0500002 -43.395 -0.71100003 0
-4.9349999 -42.990002 -0.70200002 0.12
-1.09 -9.9460001 -0.0049999999 0.23
-1.051 -9.8760004 -0.003 0.30000001
-1.018 -9.8669996 -0.003 0.31999999
-0.958 -9.5799999 0.003 0.17
-0.95899999 -9.8990002 -0.003 0.34999999
-0.92799997 -9.908 -0.0040000002 0.2
-0.91500002 -9.9320002 -0.0040000002 0.47999999
-0.80500001 -9.0740004 0.014 0.11
-0.87099999 -10.522 -0.016000001 0
-0.76499999 -9.6429996 0.0020000001 0.07
-3.108 -39.709999 -0.63 0.20999999
-3.059 -39.894001 -0.634 0.30000001
-2.9349999 -39.918999 -0.634 0.11
-2.796 -39.735001 -0.63 0
-0.58999997 -9.5200005 0.0049999999 0.18000001
-0.55400002 -9.4259996 0.0070000002 0.25999999
-0.52399999 -9.4169998 0.0070000002 0.31
-0.50800002 -9.3920002 0.0080000004 0.25999999
-0.47799999 -9.3999996 0.0080000004 0.34999999
-0.449 -9.4090004 0.0080000004 0.28
-0.419 -9.3959999 0.0080000004 0.34999999
-0.38999999 -9.4099998 0.0080000004 0.20999999
-0.36000001 -9.3850002 0.0080000004 0.18000001
-1.222 -34.319 -0.51499999 0.23
-0.33399999 -9.4899998 0.0060000001 0.16
-1.113 -34.290001 -0.514 0.2
-1.002 -34.18 -0.51200002 0.22
-0.89600003 -34.244999 -0.51300001 0.18000001
-0.90499997 -39.148998 -0.616 0
-0.78100002 -39.120998 -0.61500001 0
-0.77899998 -46.011002 -0.75999999 0.029999999
-0.60699999 -39.719002 -0.62800002 0.19
-0.48100001 -39.636002 -0.62599999 0.2
-0.35600001 -39.625999 -0.62599999 0
-0.234 -39.950001 -0.63300002 0
-0.107 -39.589001 -0.625 0.050000001
0.039000001 -9.9139996 -0.003 0
0.184 -35.203999 -0.53299999 0.1
0.156 -12.062 -0.048 0.19
0.493 -33.533001 -0.498 0.16
0.59399998 -33.294998 -0.493 0.13
0.68900001 -32.833 -0.484 0.38999999
0.74000001 -32.793999 -0.48300001 0.27000001
0.84399998 -32.807999 -0.48300001 0.47999999
0.94999999 -32.907001 -0.48500001 0.2
1.049 -32.790001 -0.48300001 0.25
1.155 -32.863998 -0.484 0.16
0.77200001 -19.891001 -0.212 0.11
0.83099997 -19.816 -0.211 0.23999999
0.86199999 -19.791 -0.20999999 0.36000001
0.92299998 -19.77 -0.20999999 0.40000001
0.98299998 -19.735001 -0.20900001 0.38999999
1.046 -19.746 -0.20999999 0.28999999
1.109 -19.754 -0.20999999 0.44
1.1720001 -19.768999 -0.20999999 0.40000001
1.206 -19.809 -0.211 0.52999997
1.273 -19.889 -0.213 0.34999999
1.342 -19.99 -0.215 0.17
1.973 -28.207001 -0.38800001 0.28
2.0599999 -28.183001 -0.38699999 0.38
2.1500001 -28.200001 -0.38800001 0.31
2.2460001 -28.285 -0.38999999 0.41999999
2.539 -31.384001 -0.45500001 0.11
2.655 -31.584 -0.45899999 0.18000001
2.8759999 -32.993 -0.48899999 0
2.951 -32.661999 -0.48300001 0
2.964 -31.688999 -0.46200001 0
3.1800001 -32.889 -0.48800001 0
3.0580001 -31.105 -0.44999999 0.059999999
3.217 -31.700001 -0.463 0.14
3.2360001 -30.916 -0.447 0.34
3.326 -30.834 -0.44499999 0.12
3.3929999 -30.556999 -0.44 0.28999999
3.516 -30.789 -0.44499999 0.18000001
3.0810001 -26.209999 -0.34799999 0.19
3.118 -26.171 -0.34799999 0
0.69700003 -5.527 0.088 0.1
0.70999998 -5.4889998 0.089000002 0.14
0.72799999 -5.4949999 0.089000002 0.19
0.74599999 -5.5 0.089000002 0.23999999
0.76499999 -5.506 0.089000002 0
1.2640001 -8.9130001 0.016000001 0
0.78399998 -5.5190001 0.088 0
0.82300001 -5.6090002 0.086000003 0.090000004
1.314 -8.8629999 0.017000001 0.12
1.337 -8.8269997 0.017999999 0
1.3660001 -8.8310003 0.017999999 0
0.90399998 -5.6630001 0.085000001 0
0.912 -5.5970001 0.086000003 0
0.90700001 -5.5110002 0.088 0
0.912 -5.4310002 0.090000004 0.1
0.92900002 -5.4299998 0.090000004 0.1
0.94599998 -5.4289999 0.090000004 0.18000001
0.96899998 -5.4590001 0.089000002 0
3.25 -18.157 -0.182 0.20999999
3.312 -18.173 -0.182 0.30000001
3.3759999 -18.202999 -0.183 0.34999999
3.4360001 -18.205999 -0.183 0.34
3.49 -18.18 -0.183 0.18000001
6.9790001 -35.875 -0.56099999 0
1.13 -5.5999999 0.085000001 0.090000004
1.136 -5.586 0.086000003 0
1.154 -5.5830002 0.086000003 0
1.171 -5.5770001 0.086000003 0.07
1.1950001 -5.605 0.085000001 0
7.4860001 -34.685001 -0.53899997 0
1.209 -5.5809999 0.085000001 0
7.5440001 -34.426998 -0.53399998 0
9.0760002 -40.525002 -0.66600001 0
1.216 -5.4060001 0.089000002 0
8.0869999 -35.058998 -0.54900002 0
1.245 -5.3759999 0.089000002 0
8.1999998 -35.047001 -0.55000001 0.039999999
8.2959995 -34.960999 -0.54799998 0
8.3870001 -34.855 -0.54699999 0
8.2580004 -33.618999 -0.52100003 0
1.3279999 -5.3870001 0.089000002 0
8.375 -33.639 -0.52200001 0.07
8.5089998 -33.723 -0.52399999 0.20999999
8.5550003 -33.464001 -0.51899999 0.2
8.677 -33.502998 -0.52100003 0
8.7989998 -33.754002 -0.52600002 0
8.8800001 -33.633999 -0.52399999 0
8.9259996 -33.381001 -0.51899999 0
1.498 -5.4489999 0.086999997 0.079999998
1.51 -5.4260001 0.086999997 0.090000004
1.524 -5.4099998 0.086999997 0
1.535 -5.415 0.086999997 0.12
1.548 -5.3969998 0.086999997 0.19
1.564 -5.388 0.086999997 0.19
1.586 -5.401 0.086999997 0.40000001
1.603 -5.3979998 0.086999997 0
1.623 -5.402 0.086999997 0
1.638 -5.3909998 0.086999997 0
1.648 -5.3930001 0.086999997 0
1.65 -5.3390002 0.088 0
1.656 -5.2979999 0.089000002 0.039999999
1.668 -5.2789998 0.089000002 0
1.682 -5.2649999 0.089000002 0
1.702 -5.2709999 0.089000002 0
1.714 -5.2519999 0.089000002 0
1.76 -5.3649998 0.086999997 0
1.77 -5.3390002 0.086999997 0
1.788 -5.3369999 0.086999997 0
1.888 -5.5819998 0.082000002 0
1.952 -5.7140002 0.078000002 0.1
1.969 -5.704 0.079000004 0.23
1.9809999 -5.6810002 0.079000004 0.11
1.999 -5.7020001 0.078000002 0.14
2.003 -5.658 0.079000004 0.13
2 -5.5939999 0.081 0
1.915 -5.2969999 0.086999997 0.079999998
1.915 -5.2459998 0.088 0.18000001
1.9299999 -5.2360001 0.088 0.27000001
1.949 -5.263 0.086999997 0
1.96 -5.2420001 0.088 0
2.007 -5.3169999 0.086000003 0.07
2.0320001 -5.3330002 0.085000001 0.079999998
2.039 -5.302 0.086000003 0.079999998
2.036 -5.243 0.086999997 0.2
2.0420001 -5.211 0.088 0
2.056 -5.2210002 0.086999997 0.12
2.0669999 -5.2010002 0.088 0.17
2.0799999 -5.1869998 0.088 0
12.676 -31.386999 -0.505 0
2.0880001 -5.158 0.088 0
12.848 -31.527 -0.509 0
2.115 -5.1100001 0.089000002 0
2.132 -5.105 0.089000002 0
2.1500001 -5.1020002 0.089000002 0
2.1600001 -5.0809999 0.089000002 0
13.807 -32.277 -0.53100002 0.1
2.2019999 -5.1370001 0.088 0
13.788 -31.952 -0.52499998 0.14
13.864 -31.990999 -0.52600002 0
14.01 -32.051998 -0.528 0
14.077 -31.931 -0.52700001 0
13.734 -30.889 -0.50400001 0.029999999
13.866 -30.924 -0.50599998 0.15000001
12.699 -28.079 -0.44100001 0.17
12.8 -28.066 -0.442 0.38999999
14.076 -30.743 -0.50400001 0.11
13.128 -28.43 -0.45199999 0
14.323 -30.77 -0.50700003 0.11
13.188 -27.865999 -0.44100001 0.17
13.323 -27.926001 -0.44400001 0
18.158001 -37.928001 -0.67699999 0.14
6.598 -13.523 -0.11 0.47999999
6.6139998 -13.45 -0.109 0.31999999
6.6599998 -13.436 -0.109 0.2
6.7379999 -13.487 -0.111 0.34
6.7870002 -13.478 -0.111 0.15000001
6.881 -13.612 -0.115 0
6.7010002 -12.95 -0.101 0.54000002
6.9920001 -13.411 -0.112 0.14
7.0219998 -13.366 -0.111 0.2
7.0440001 -13.305 -0.111 0.44999999
7.0349998 -13.238 -0.109 0.2
7.1269999 -13.311 -0.111 0.56999999
7.303 -13.538 -0.117 0
20.045 -36.974998 -0.67699999 0
20.163 -36.915001 -0.67699999 0
20.292 -36.875999 -0.67699999 0
20.43 -36.852001 -0.67799997 0
20.490999 -36.826 -0.67900002 0
20.603001 -36.754002 -0.67799997 0
20.707001 -36.669998 -0.67799997 0.059999999
9.507 -16.563 -0.19499999 0.27000001
9.5450001 -16.509001 -0.19499999 0.37
9.5649996 -16.483999 -0.19499999 0.34999999
9.6309996 -16.478001 -0.19499999 0.36000001
9.8369999 -16.711 -0.20200001 0
21.476999 -36.283001 -0.67900002 0
18.056999 -30.278999 -0.53399998 0
21.704 -36.145 -0.67900002 0
18.337 -30.313999 -0.53799999 0
21.892 -36.073002 -0.68000001 0
22.021 -36.029999 -0.68000001 0
5.2280002 -8.3970003 -0.0020000001 0.28
5.2290001 -8.3400002 -0.001 0.25999999
5.2490001 -8.3129997 -0.001 0.31999999
5.2449999 -8.2779999 -0 0.30000001
5.256 -8.2379999 0 0.28
5.27 -8.2030001 0.001 0.37
5.2989998 -8.191 0.001 0.28999999
5.3099999 -8.151 0.001 0.33000001
5.3330002 -8.1309996 0.001 0.38
5.3639998 -8.1219997 0.001 0.36000001
5.375 -8.1110001 0.001 0.27000001
5.3990002 -8.092 0.001 0.43000001
5.428 -8.0799999 0.001 0.28
5.4590001 -8.0710001 0.001 0.31
5.4840002 -8.0539999 0.001 0.41999999
5.5250001 -8.0600004 0 0.31
5.5619998 -8.059 -0 0.31
5.5949998 -8.0799999 -0.001 0.38
5.6469998 -8.1020002 -0.0020000001 0.30000001
5.684 -8.1000004 -0.0020000001 0.2
5.7249999 -8.1040001 -0.003 0.18000001
19.941999 -27.966999 -0.51499999 0.16
21.038 -29.311001 -0.551 0.079999998
20.006001 -27.778 -0.51300001 0.15000001
20.136999 -27.777 -0.514 0.25999999
9.6639996 -13.132 -0.13699999 0.28
9.6949997 -13.089 -0.13600001 0.5
9.8879995 -13.262 -0.142 0
21.405001 -28.666 -0.54500002 0.07
20.466999 -27.228001 -0.509 0
21.566999 -28.507 -0.54400003 0.07
21.615 -28.385 -0.54299998 0.14
21.535 -28.096001 -0.537 0.20999999
21.747 -28.188 -0.54100001 0.27000001
21.775999 -28.044001 -0.53899997 0.16
21.426001 -27.503 -0.52600002 0.14
21.535999 -27.466 -0.52700001 0.14
22.441 -28.438 -0.55400002 0.22
22.370001 -28.165001 -0.54900002 0.16
12.053 -14.961 -0.198 0.31999999
12.033 -14.889 -0.19599999 0.22
12.045 -14.808 -0.19499999 0.46000001
12.071 -14.745 -0.19400001 0.34999999
12.116 -14.705 -0.19400001 0.41
12.161 -14.666 -0.19400001 0.38
12.227 -14.652 -0.19499999 0.46000001
12.304 -14.65 -0.19599999 0.37
12.388 -14.703 -0.198 0.38
12.454 -14.688 -0.199 0
21.513 -25.24 -0.49000001 0
21.473 -25.033001 -0.486 0.1
21.455999 -24.855 -0.48300001 0.23
21.407 -24.641001 -0.479 0.11
22.839001 -26.125 -0.523 0.079999998
22.566 -25.731001 -0.51300001 0.2
22.261 -25.222 -0.5 0.19
22.511999 -25.346001 -0.50599998 0.20999999
21.514999 -24.068001 -0.472 0.23
21.559999 -23.966 -0.47099999 0.28
21.621 -23.884001 -0.47 0.23
21.658001 -23.848 -0.47 0.13
18.731001 -20.490999 -0.377 0.2
18.726 -20.357 -0.375 0.36000001
18.754999 -20.259001 -0.37400001 0.34
18.816999 -20.198999 -0.37400001 0.34999999
18.893999 -20.153999 -0.37400001 0.34999999
19.041 -20.184 -0.377 0.50999999
22.011999 -23.266001 -0.46599999 0.23
21.992001 -23.098 -0.46399999 0.23
22.049999 -23.014 -0.463 0.14
23.316 -24.184999 -0.49900001 0.15000001
23.174999 -23.888 -0.493 0.090000004
22.871 -23.426001 -0.48100001 0.17
23.374001 -23.792 -0.49399999 0.20999999
23.386 -23.729 -0.493 0.14
23.448 -23.643 -0.493 0.28
23.43 -23.476999 -0.49000001 0
23.466999 -23.367001 -0.48899999 0
23.367001 -23.121 -0.484 0.12
21.288 -20.929001 -0.421 0.22
21.236 -20.812 -0.41800001 0.14
21.476999 -20.917 -0.42399999 0.15000001
22.764 -22.033001 -0.45899999 0.22
21.485001 -20.663 -0.41999999 0.18000001
21.215 -20.275 -0.41 0.14
9.2880001 -8.8000002 -0.063000001 0.23
9.2810001 -8.7379999 -0.061999999 0.44999999
9.283 -8.7130003 -0.061999999 0.34999999
9.3170004 -8.6899996 -0.061999999 0.33000001
9.3549995 -8.6709995 -0.061999999 0.47999999
9.4029999 -8.6599998 -0.063000001 0.43000001
13.683 -12.539 -0.184 0.15000001
16.896 -15.394 -0.27399999 0.40000001
16.959 -15.354 -0.27500001 0.36000001
16.947001 -15.295 -0.27399999 0.56
17.162001 -15.392 -0.278 0
22.17 -19.768 -0.41800001 0.12
22.224001 -19.691999 -0.41800001 0.12
22.211 -19.556 -0.41499999 0.38999999
22.184 -19.408001 -0.41299999 0.16
22.281 -19.431 -0.41499999 0
22.452 -19.457001 -0.41800001 0.11
22.334 -19.232 -0.41299999 0.25999999
22.254999 -19.042 -0.40900001 0.13
21.614 -18.375999 -0.38999999 0.38999999
21.481001 -18.146 -0.38499999 0.18000001
21.66 -18.181999 -0.38800001 0.15000001
12.371 -10.336 -0.133 0.34
12.388 -10.284 -0.132 0.38
12.435 -10.258 -0.133 0.34999999
12.495 -10.242 -0.134 0.55000001
21.652 -17.658001 -0.38100001 0.34
12.527 -10.104 -0.132 0.34
12.542 -10.051 -0.132 0.43000001
12.59 -10.026 -0.132 0.36000001
12.659 -10.016 -0.133 0.52999997
19.134001 -15.058 -0.30500001 0.17
15.728 -12.292 -0.213 0.28999999
15.716 -12.203 -0.212 0.23999999
15.735 -12.178 -0.212 0.51999998
15.97 -12.28 -0.21699999 0
34.488998 -26.386 -0.70499998 0.11
16.285999 -12.281 -0.223 0.44999999
34.931999 -26.207001 -0.71100003 0.11
30.986 -23.091 -0.60500002 0.16
22.527 -16.723 -0.38299999 0.17
22.514999 -16.605 -0.382 0.27000001
31.188999 -22.863001 -0.60600001 0.23
22.639999 -16.478001 -0.382 0.20999999
22.701 -16.414 -0.382 0.23
22.959999 -16.492001 -0.38800001 0.15000001
22.591 -16.118999 -0.377 0.13
21.870001 -15.552 -0.35800001 0.30000001
21.721001 -15.343 -0.35299999 0.25999999
21.837 -15.322 -0.354 0.23
21.957001 -15.304 -0.35600001 0.31
22.181999 -15.358 -0.361 0.20999999
22.311001 -15.344 -0.36300001 0.19
22.117001 -15.159 -0.35699999 0.34
22.472 -15.299 -0.36500001 0.22
21.952 -14.844 -0.35100001 0.14
22.087 -14.834 -0.35299999 0.30000001
21.809999 -14.45 -0.34299999 0
31.492001 -20.736 -0.58600003 0.059999999
31.483999 -20.66 -0.58499998 0
39.987999 -26.069 -0.796 0
44.540001 -28.841 -0.90799999 0
31.382999 -20.173 -0.57700002 0.090000004
31.516001 -20.118 -0.579 0.090000004
31.612 -20.041 -0.57999998 0.13
31.576 -19.878 -0.57700002 0
31.660999 -19.863001 -0.579 0
31.823 -19.826 -0.58099997 0
31.836 -19.695 -0.57999998 0
31.948999 -19.625999 -0.58099997 0
39.595001 -24.16 -0.76700002 0
14.829 -8.9650002 -0.15800001 0.059999999
24.41 -14.725 -0.39300001 0.1
14.879 -8.8999996 -0.15800001 0.16
14.857 -8.8240004 -0.15700001 0.38999999
14.873 -8.7700005 -0.15700001 0.31
14.892 -8.7180004 -0.15700001 0.43000001
14.912 -8.6669998 -0.15700001 0.34
14.964 -8.6339998 -0.15700001 0.43000001
15.258 -8.7729998 -0.164 0.19
34.123001 -19.514999 -0.61900002 0.090000004
34.249001 -19.444 -0.62099999 0.14
34.549999 -19.472 -0.62599999 0.16
20.67 -11.552 -0.29100001 0.2
20.613001 -11.435 -0.289 0.25999999
20.608999 -11.348 -0.28799999 0.31
20.607 -11.305 -0.28799999 0.40000001
20.638 -11.237 -0.28799999 0.38
20.697001 -11.186 -0.28799999 0.41
20.761 -11.136 -0.289 0.34
21.15 -11.26 -0.29699999 0.19
25.398001 -13.425 -0.39700001 0.19
25.58 -13.47 -0.40099999 0.14
25.25 -13.195 -0.39199999 0
32.409 -16.815001 -0.56 0.12
25.606001 -13.177 -0.39899999 0.11
24.261 -12.387 -0.366 0.15000001
24.504 -12.415 -0.37099999 0.17
24.691999 -12.412 -0.37400001 0.12
25.646 -12.843 -0.396 0.16
25.236 -12.439 -0.38499999 0.19
25.389999 -12.416 -0.38800001 0.079999998
25.455999 -12.35 -0.38800001 0.13
23.878 -11.49 -0.35100001 0.20999999
24.219999 -11.608 -0.35800001 0.25999999
25.542 -12.046 -0.38699999 0.19
23.908001 -11.182 -0.34799999 0.2
25.941 -12.036 -0.39500001 0.18000001
25.788 -11.867 -0.38999999 0.17
24.608999 -11.229 -0.36199999 0.25
24.558001 -11.159 -0.36000001 0.28
25.782 -11.619 -0.38800001 0.14
24.149 -10.79 -0.34999999 0.23
21.628 -9.5799999 -0.29100001 0.47
25.778999 -11.327 -0.38499999 0.20999999
24.25 -10.562 -0.34999999 0.25
25.924999 -11.197 -0.38699999 0.15000001
20.950001 -9.0039997 -0.273 0.16
21.184 -9.026 -0.278 0.16
21.047001 -8.8889999 -0.27399999 0.44999999
21.084 -8.8269997 -0.27399999 0.27000001
21.025999 -8.7250004 -0.27200001 0.19
22.165001 -9.118 -0.29699999 0.30000001
22.288 -9.0869999 -0.30000001 0.28999999
21.472 -8.7139997 -0.28099999 0.27000001
21.865999 -8.7939997 -0.289 0.34
21.669001 -8.6359997 -0.28400001 0.33000001
21.635 -8.5430002 -0.28299999 0.30000001
18.483 -7.2270002 -0.211 0.12
18.584999 -7.1999998 -0.213 0.47999999
18.429001 -7.1059999 -0.20900001 0.20999999
18.424999 -7.0380001 -0.208 0.38
18.518 -7.007 -0.20999999 0.25
18.483999 -6.928 -0.20900001 0.23999999
18.615999 -6.9109998 -0.211 0.52999997
19.09 -7.02 -0.221 0.16
17.611 -6.4109998 -0.18799999 0.33000001
17.728001 -6.4219999 -0.19 0.37
17.952 -6.4400001 -0.19499999 0.22
17.431 -6.1900001 -0.183 0.31
17.464001 -6.1399999 -0.183 0.25
17.443001 -6.072 -0.182 0.5
17.372 -5.9850001 -0.18000001 0.33000001
17.413 -5.9390001 -0.18099999 0.33000001
17.443001 -5.9180002 -0.18099999 0.33000001
17.434999 -5.855 -0.18099999 0.34999999
17.469 -5.8049998 -0.18099999 0.36000001
17.476999 -5.7470002 -0.18099999 0.34999999
17.618999 -5.7319999 -0.183 0.31999999
17.563999 -5.6529999 -0.182 0.31999999
17.573999 -5.5960002 -0.182 0.20999999
17.545 -5.5560002 -0.18099999 0.38
17.652 -5.5289998 -0.183 0.25999999
17.761 -5.5019999 -0.185 0.44999999
17.841 -5.4660001 -0.186 0.23
18.011 -5.4559999 -0.19 0.41
18.164 -5.441 -0.192 0.25999999
18.25 -5.4349999 -0.19400001 0.38
18.41 -5.4200001 -0.197 0.30000001
18.479 -5.3769999 -0.198 0.25
18.684 -5.3740001 -0.20299999 0.41999999
18.917999 -5.3769999 -0.207 0.2
19.052 -5.3509998 -0.20999999 0.5
19.535 -5.421 -0.22 0.22
19.704 -5.4349999 -0.223 0.38999999
20.052 -5.4629998 -0.23100001 0.18000001
20.627001 -5.5510001 -0.243 0.22
20.570999 -5.467 -0.241 0.49000001
21.035 -5.52 -0.25099999 0.23999999
21.17 -5.4850001 -0.25299999 0.38
21.195999 -5.4559999 -0.25400001 0.28999999
21.625999 -5.4949999 -0.26300001 0.20999999
22.028999 -5.5240002 -0.271 0.49000001
22.372 -5.5359998 -0.278 0.22
22.737 -5.5510001 -0.28600001 0.31999999
23.202999 -5.5879998 -0.29499999 0.25
23.552999 -5.5939999 -0.303 0.23999999
24.372999 -5.7490001 -0.31999999 0.37
24.691 -5.743 -0.32600001 0.25999999
24.725 -5.6690001 -0.32699999 0.23999999
24.957001 -5.6399999 -0.331 0.36000001
25.007999 -5.5689998 -0.33199999 0.20999999
25.42 -5.5770001 -0.34099999 0.44999999
34.332001 -7.4289999 -0.53100002 0.12
17.992001 -3.8510001 -0.18099999 0.31
17.995001 -3.793 -0.18000001 0.38
17.989 -3.7320001 -0.18000001 0.34999999
17.993 -3.674 -0.18000001 0.34
18.004 -3.618 -0.18000001 0.40000001
18.004999 -3.559 -0.18000001 0.36000001
17.997 -3.5280001 -0.17900001 0.34999999
18.004 -3.471 -0.17900001 0.41
18.007 -3.4130001 -0.17900001 0.38
18.025999 -3.358 -0.17900001 0.38
18.024 -3.299 -0.17900001 0.38
18.021 -3.24 -0.17900001 0.37
18.025 -3.1819999 -0.17900001 0.38
18.034 -3.154 -0.17900001 0.38
18.040001 -3.0969999 -0.17900001 0.37
18.058001 -3.0420001 -0.17900001 0.34999999
18.061001 -2.984 -0.17900001 0.38999999
18.068001 -2.927 -0.17900001 0.41
18.044001 -2.865 -0.178 0.31
18.028999 -2.8039999 -0.177 0.34
18.032 -2.776 -0.177 0.37
18.046 -2.72 -0.178 0.34999999
18.047001 -2.6619999 -0.177 0.44
18.045 -2.6040001 -0.177 0.31999999
18.108999 -2.5550001 -0.178 0.47999999
18.517 -2.5539999 -0.18700001 0.25999999
19 -2.5910001 -0.197 0.23999999
19.454 -2.5910001 -0.206 0.25
20.072001 -2.6099999 -0.219 0
20.489 -2.599 -0.228 0
22.438 -2.7060001 -0.26899999 0
22.636999 -2.658 -0.273 0
23.403999 -2.7119999 -0.289 0
40.521999 -4.3280001 -0.64899999 0.51999998
40.637001 -4.211 -0.65200001 0.19
40.618999 -4.0799999 -0.65100002 0.20999999
40.657001 -3.9549999 -0.65100002 0.14
40.844002 -3.908 -0.65499997 0.74000001
40.771 -3.7720001 -0.653 0
68.906998 -4.9770002 -1.244 0
68.733002 -4.7470002 -1.24 0
68.529999 -4.5170002 -1.235 0
68.456001 -4.296 -1.233 0
68.323997 -4.072 -1.23 0
68.052002 -3.948 -1.224 0
29.990999 -1.348 -0.42399999 0.51999998
29.966999 -1.252 -0.42399999 0
30.115 -1.164 -0.42699999 0
30.097 -1.1160001 -0.426 0
29.992001 -1.017 -0.42399999 0
29.915001 -0.921 -0.42199999 0
29.91 -0.82599998 -0.42199999 0
30.191999 -0.64499998 -0.428 0
30.127001 -0.59600002 -0.42699999 0
30.159 -0.50199997 -0.42699999 0
30.302 -0.40900001 -0.43000001 0.1
29.979 -0.21600001 -0.42399999 0.34
30.021 -0.122 -0.42399999 0.13
30.011 -0.028000001 -0.42399999 0.28
30.024 0.016000001 -0.57800001 0.5
30.358 0.111 -0.58700001 0
64.543999 0.368 -1.478 0
64.426003 0.56900001 -1.475 0
64.372002 0.77100003 -1.474 0
64.514999 0.97500002 -1.478 0
64.650002 1.181 -1.482 0
64.774002 1.387 -1.485 0
64.864998 1.5930001 -1.487 0
64.952003 1.697 -1.49 0
64.997002 1.902 -1.4910001 0
65.064003 2.109 -1.493 0
65.140999 2.316 -1.495 0
65.171997 2.5220001 -1.4960001 0
65.233002 2.73 -1.498 0
65.290001 2.938 -1.5 0
65.315002 3.0420001 -1.5 0
65.387001 3.2509999 -1.503 0
65.378998 3.457 -1.503 0
65.421997 3.665 -1.5039999 0
65.489998 3.875 -1.506 0
65.499001 4.0830002 -1.507 0.029999999
44.943001 3.006 -0.97000003 0.31999999
45.007 3.152 -0.972 0
65.843002 4.8319998 -1.517 0
65.931 5.046 -1.52 0
31.847 2.6760001 -0.62900001 0.34
31.792999 2.7720001 -0.62800002 0.47999999
31.775999 2.8710001 -0.62699997 0.38999999
31.778999 2.9719999 -0.62800002 0.43000001
31.771 3.072 -0.62800002 0.36000001
31.764 3.1719999 -0.62800002 0.41999999
31.773001 3.2739999 -0.62800002 0.34
31.761999 3.323 -0.62800002 0.41999999
31.768 3.425 -0.62900001 0.34999999
31.767 3.5250001 -0.62900001 0.41
31.763 3.6259999 -0.62900001 0.34
31.752001 3.7260001 -0.62900001 0.41
31.76 3.8280001 -0.62900001 0.34999999
31.75 3.928 -0.63 0.41
31.764999 3.9809999 -0.63 0.34999999
31.750999 4.0799999 -0.63 0.41
31.753 4.1820002 -0.63 0.34999999
31.742001 4.2820001 -0.63099998 0.41999999
31.75 4.3850002 -0.63099998 0.34999999
31.736 4.4840002 -0.63099998 0.40000001
31.767 4.54 -0.63200003 0.30000001
31.740999 4.638 -0.63200003 0.55000001
31.962999 4.7729998 -0.63800001 0
31.657 4.829 -0.63 0
29.674 4.7160001 -0.579 0
29.655001 4.8080001 -0.579 0
29.655001 4.8559999 -0.579 0
30.409 5.0780001 -0.59899998 0
29.917999 5.0929999 -0.58700001 0
29.6 5.6620002 -0.58099997 0
29.666 5.7719998 -0.583 0
29.837999 5.9029999 -0.588 0
29.615999 6.7340002 -0.58700001 0.14
29.625999 6.8340001 -0.588 0.12
31.718 7.4239998 -0.64499998 0.23999999
31.733999 7.533 -0.64600003 0.38
31.753 7.6430001 -0.64700001 0.31999999
26.462 6.4530001 -0.50599998 0.38999999
26.332001 6.553 -0.50300002 0.30000001
27.445 6.9229999 -0.53299999 0.090000004
26.455 6.7600002 -0.50700003 0.11
43.627998 11.313 -0.97100002 0.13
26.141001 6.855 -0.5 0.14
26.289 6.9380002 -0.50400001 0.22
26.677 7.131 -0.51499999 0.14
26.839001 7.2649999 -0.51999998 0.19
26.479 7.3460002 -0.51200002 0.31
26.371 7.4050002 -0.50999999 0.30000001
26.466999 7.5219998 -0.51300001 0.36000001
26.684 7.6290002 -0.51899999 0.31999999
26.666 7.7150002 -0.51899999 0.38999999
26.198 7.6680002 -0.50700003 0.25
25.921 7.6750002 -0.5 0.34999999
26.118999 7.823 -0.50599998 0.18000001
26.069 7.8979998 -0.50599998 0.25
41.187 12.635 -0.91900003 0.18000001
31.150999 9.6029997 -0.64499998 0.27000001
26.287001 8.1899996 -0.51300001 0.20999999
26.382999 8.3109999 -0.51700002 0
41.905998 13.508 -0.94300002 0.20999999
41.855999 13.637 -0.94300002 0.2
41.826 13.772 -0.94400001 0.20999999
41.813999 13.841 -0.94400001 0.19
41.794998 13.981 -0.94499999 0.20999999
41.758999 14.115 -0.94499999 0.2
41.738998 14.254 -0.94499999 0.20999999
41.701 14.388 -0.94599998 0.18000001
22.577 7.8559999 -0.419 0.23
22.487 7.8649998 -0.41600001 0.34999999
22.424 7.9219999 -0.41499999 0.30000001
22.409 7.9959998 -0.41600001 0.36000001
22.408001 8.0749998 -0.41600001 0.30000001
22.761999 8.2840004 -0.42699999 0
38.596001 14.203 -0.86799997 0
42.657001 15.853 -0.98199999 0
42.612999 15.913 -0.98100001 0
37.275002 14.452 -0.838 0.17
37.304001 14.598 -0.83999997 0
70.177002 27.615 -1.762 0
47.012001 18.832001 -1.1160001 0.14
46.952 18.979 -1.1160001 0.14
46.754002 19.07 -1.112 0
46.734001 19.233999 -1.113 0
64.792999 26.915001 -1.625 0
64.581001 26.945999 -1.62 0
64.546997 27.17 -1.622 0
64.329002 27.316999 -1.618 0
64.655998 27.695999 -1.63 0
71.608002 30.944 -1.83 0
71.399002 31.120001 -1.826 0
71.461998 31.415001 -1.831 0
42.014 18.535999 -0.99299997 0.090000004
41.903999 18.645 -0.991 0.090000004
41.437 18.593 -0.98000002 0.14
16.530001 7.5250001 -0.26899999 0.31999999
16.466 7.559 -0.26800001 0.33000001
16.392 7.5869999 -0.266 0.41999999
16.372999 7.6090002 -0.266 0.34999999
16.311001 7.6430001 -0.26499999 0.43000001
16.290001 7.6960001 -0.26499999 0.37
16.25 7.7389998 -0.26499999 0.41999999
16.240999 7.7979999 -0.26499999 0.34999999
16.243999 7.862 -0.266 0.47999999
16.243999 7.9250002 -0.26699999 0.31
16.261999 7.9660001 -0.26699999 0.57999998
16.313999 8.0550003 -0.27000001 0.22
27.665001 13.788 -0.60100001 0.31
27.614 13.871 -0.60100001 0.34
27.733 14.04 -0.60600001 0
68.110001 34.793999 -1.79 0
68.195999 34.973 -1.794 0
67.992996 35.139 -1.791 0
63.867001 33.258999 -1.673 0
63.662998 33.408001 -1.67 0
63.620998 33.640999 -1.6720001 0
55.542999 29.59 -1.436 0
55.439999 29.646999 -1.4349999 0
45.888 24.905001 -1.1569999 0
45.743999 25.014 -1.155 0
44.833 24.882 -1.132 0
38.701 21.634001 -0.95200002 0.07
38.484001 21.591999 -0.94599998 0
38.144001 21.559 -0.93800002 0.07
31.603001 17.988001 -0.74400002 0.13
31.488001 18.054001 -0.74199998 0.2
31.441 18.159 -0.74199998 0.30000001
31.232 18.169001 -0.73799998 0.12
30.778 18.034 -0.72600001 0.27000001
30.688999 18.047001 -0.72399998 0
45.228001 26.802 -1.166 0.12
45.248001 27.006001 -1.169 0.18000001
45.248001 27.200001 -1.1720001 0
45.226002 27.379999 -1.174 0
41.353001 25.479 -1.062 0.19
40.986 25.43 -1.053 0
41.087002 25.673 -1.059 0
58.119999 36.583 -1.586 0
40.696999 25.785999 -1.052 0.050000001
40.624001 25.919001 -1.052 0.079999998
40.782001 26.110001 -1.058 0.090000004
40.632999 26.194 -1.056 0.090000004
40.391998 26.219999 -1.051 0
40.368 26.385 -1.053 0
55.793999 36.729 -1.5369999 0
55.645 36.882 -1.536 0
55.422001 36.986 -1.533 0
55.429001 37.116001 -1.535 0
55.275002 37.264999 -1.534 0
55.039001 37.358002 -1.53 0
54.834999 37.472 -1.527 0
54.584 37.551998 -1.523 0
54.41 37.685001 -1.521 0.039999999
43.686001 30.761999 -1.189 0.64999998
43.575001 30.889 -1.188 0.63
43.601002 31.114 -1.192 0.34999999
43.570999 31.299999 -1.194 0
10.616 7.678 -0.13699999 0
26.084 19.673 -0.64700001 0.25999999
25.990999 19.667 -0.64499998 0.31
25.912001 19.735001 -0.64499998 0.36000001
25.861 19.825001 -0.64499998 0.38999999
26.059 20.108 -0.65399998 0
25.853001 20.077999 -0.64899999 0.090000004
38.830002 30.368999 -1.081 0
39.483002 31.587 -1.114 0
39.220001 31.579 -1.108 0
38.936001 31.552 -1.102 0
38.804001 31.648001 -1.101 0
38.852001 31.889999 -1.1059999 0
39.668999 33.511002 -1.149 0
5.2620001 4.8119998 0.018999999 0
5.1810002 4.7670002 0.021 0
5.1469998 4.7649999 0.022 0
5.1300001 4.7800002 0.022 0
5.1079998 4.789 0.022 0
5.0830002 4.796 0.023 0
5.0809999 4.8239999 0.022 0
5.0539999 4.8140001 0.023 0
25.072001 24.174999 -0.704 0
40.830002 39.639999 -1.279 0
40.519001 39.587002 -1.273 0.059999999
40.244999 39.567001 -1.267 0.14
39.964001 39.537998 -1.261 0.16
16.531 16.488001 -0.40400001 0.31
16.481001 16.542 -0.40400001 0.46000001
29.26 29.582001 -0.88 0.25
29.115 29.621 -0.87800002 0.19
29.033001 29.724001 -0.87900001 0.16
29.009001 29.886999 -0.88099998 0.14
38.306 39.726002 -1.234 0.090000004
38.327999 39.874001 -1.238 0.079999998
38.294998 40.091 -1.2410001 0.079999998
38.252998 40.299 -1.244 0.090000004
38.188999 40.486 -1.247 0
37.873001 40.404999 -1.239 0
37.674 40.445999 -1.237 0
37.480999 40.366001 -1.232 0
37.230999 40.349998 -1.227 0
36.960999 40.310001 -1.221 0
36.709999 40.290001 -1.217 0
36.452999 40.261002 -1.212 0
36.189999 40.223999 -1.206 0
35.938 40.196999 -1.201 0
35.731998 40.091999 -1.196 0
35.467999 40.049 -1.1900001 0.07
35.235001 40.037998 -1.186 0.17
15.412 17.715 -0.40799999 0.23
15.322 17.723 -0.40599999 0.5
15.287 17.796 -0.40700001 0.41
11.528 13.453 -0.257 0.25
11.488 13.492 -0.257 0.31
11.431 13.51 -0.257 0.47999999
11.406 13.567 -0.257 0.43000001
11.398 13.644 -0.259 0.34
11.411 13.748 -0.26100001 0.37
11.389 13.766 -0.26100001 0.18000001
32.478001 39.582001 -1.131 0.11
11.818 14.469 -0.28200001 0.14
11.755 14.485 -0.28200001 0.25
11.69 14.498 -0.28099999 0.46000001
11.626 14.511 -0.28 0.37
11.884 14.978 -0.294 0.31999999
11.811 14.983 -0.29300001 0.31999999
11.324 14.457 -0.27399999 0.20999999
11.186 14.373 -0.27000001 0.41
11.131 14.395 -0.27000001 0.33000001
11.072 14.412 -0.26899999 0.46000001
11.091 14.531 -0.27200001 0.55000001
11.219 14.748 -0.278 0.20999999
11.155 14.759 -0.278 0.27000001
11.127 14.82 -0.27900001 0.34
11.109 14.893 -0.28 0.30000001
11.049 14.91 -0.27900001 0.37
11.072 15.04 -0.28200001 0.1
28.52 38.937 -1.054 0.090000004
28.311001 38.908001 -1.05 0.090000004
28.118999 38.898998 -1.0470001 0.14
10.385 14.531 -0.26100001 0.25
10.304 14.513 -0.259 0.31999999
10.231 14.506 -0.25799999 0.46000001
10.195 14.504 -0.25799999 0.33000001
10.134 14.513 -0.257 0.50999999
10.099 14.561 -0.257 0.31999999
10.04 14.573 -0.257 0.67000002
10.012 14.631 -0.25799999 0.31999999
9.9709997 14.669 -0.25799999 0.47999999
10.091 14.947 -0.266 0.38999999
9.9700003 14.818 -0.26100001 0.23
25.688999 38.515999 -1.003 0.23999999
25.514 38.514 -1 0.19
25.433001 38.653999 -1.002 0.17
25.275999 38.681 -1 0.17
25.084999 38.652 -0.99699998 0.17
24.896 38.626999 -0.99400002 0.17
24.67 38.408001 -0.986 0.1
24.447001 38.326 -0.98100001 0.16
24.208 38.215 -0.97500002 0.17
24.066 38.255001 -0.97399998 0.18000001
23.898001 38.254002 -0.972 0.16
23.718 38.231998 -0.96899998 0.16
23.528999 38.195999 -0.96499997 0
23.403 38.125 -0.96200001 0
23.106001 37.905998 -0.95300001 0.050000001
22.952 37.922001 -0.95099998 0.18000001
22.834 37.995998 -0.95099998 0.11
22.716 38.069 -0.95099998 0.15000001
22.365999 37.751999 -0.94 0.12
22.320999 37.811001 -0.94 0.2
22.059999 37.637001 -0.93300003 0.12
6.8319998 11.706 -0.149 0.17
6.7529998 11.653 -0.146 0.34999999
6.698 11.643 -0.146 0.47
6.6529999 11.65 -0.145 0.34
6.6030002 11.646 -0.14399999 0.46000001
6.5900002 11.665 -0.145 0.36000001
6.539 11.662 -0.14399999 0.70999998
6.513 11.701 -0.14399999 0.34
6.4720001 11.713 -0.14399999 0.47999999
6.4489999 11.76 -0.145 0.41999999
6.4239998 11.801 -0.146 0.43000001
6.3990002 11.844 -0.146 0.46000001
6.533 12.139 -0.155 0.38999999
14.05 26.368999 -0.574 0.18000001
13.972 26.422001 -0.57499999 0.20999999
13.904 26.493999 -0.57599998 0.31
13.82 26.535 -0.57499999 0.20999999
