# .PCD v0.7 - Point Cloud Data file format
VERSION 0.7
FIELDS x y z intensity
SIZE 4 4 4 4
TYPE F F F F
COUNT 1 1 1 1
WIDTH 1403
HEIGHT 1
VIEWPOINT 0 0 0 1 0 0 0
POINTS 1403
DATA ascii
1.735 20.899 0.52700001 0.41
1.67 20.910999 0.52700001 0.20999999
1.618 21.089001 0.52899998 0.37
1.717 23.308001 0.56300002 0.25
1.676 23.254999 0.56199998 0.31999999
1.604 23.271999 0.56300002 0.20999999
1.368 20.836 0.52499998 0.17
1.4630001 23.367001 0.56400001 0.15000001
1.423 23.910999 0.57200003 0
1.352 23.999001 0.57300001 0.12
1.28 24.066999 0.574 0.27000001
1.196 23.891001 0.57200003 0
1.9400001 39.68 0.81199998 0
1.798 39.296001 0.80599999 0
0.866 22.238001 0.546 0.17
0.79500002 22.201 0.546 0.2
0.71399999 21.892 0.54100001 0.52999997
0.64600003 21.912001 0.54100001 0.31
0.61000001 21.861 0.54000002 0.13
0.54400003 21.940001 0.542 0.49000001
0.47299999 21.892 0.54100001 0
0.40400001 21.834999 0.54000002 0.13
0.345 22.437 0.54900002 0.17
0.27200001 22.24 0.546 0.15000001
0.19599999 21.653999 0.537 0.54000002
0.162 21.701 0.53799999 0.18000001
0.086000003 20.163 0.514 0.47
-0.041000001 19.969 0.51099998 0.40000001
-0.105 20.302999 0.51700002 0
-0.27200001 34.997002 0.74000001 0
-0.426 39.275002 0.80500001 0
-0.301 23.433001 0.56400001 0
-0.331 20.471001 0.51899999 0.12
-0.396 20.518 0.51999998 0.27000001
-0.45899999 20.464001 0.51899999 0
-0.53200001 20.791 0.52399999 0
-0.97500002 34.557999 0.73400003 0
-1.089 34.743 0.736 0
-1.1670001 33.807999 0.722 0
-1.265 35.073002 0.74199998 0
-1.373 35.016998 0.741 0
-1.505 35.543999 0.74900001 0
-1.59 34.939999 0.74000001 0
-1.679 34.507 0.73299998 0
-1.682 30.549999 0.67299998 0
-1.728 30.513 0.67299998 0.13
-1.827 30.563999 0.67299998 0.25999999
-1.9220001 30.542 0.67299998 0
-2.1229999 30.659 0.67500001 0.18000001
-2.217 30.618 0.67500001 0.23999999
-2.2620001 29.924999 0.66399997 0.18000001
-2.2909999 29.691999 0.66100001 0.34
-2.3710001 29.509001 0.65799999 0.19
-2.582 30.941 0.68000001 0.27000001
-2.678 30.91 0.68000001 0.34999999
-2.707 30.139 0.66799998 0.16
-2.7880001 29.987 0.66600001 0.36000001
-2.855 29.691 0.66100001 0.11
-2.9230001 29.424999 0.65799999 0.16
-2.947 29.191999 0.65399998 0
-3.033 29.135 0.653 0
-2.5280001 23.518 0.56800002 0
-3.4200001 30.976 0.68199998 0
-2.6760001 23.499001 0.56699997 0
-4.9289999 42.292999 0.85500002 0
-3.7420001 31.191999 0.68599999 0
-3.7909999 31.191 0.68599999 0
-4.4889998 36.014999 0.75999999 0
-4.6420002 36.318001 0.76499999 0
-4.7319999 36.117001 0.76200002 0.13
-4.0970001 30.497999 0.676 0
-4.1999998 30.539 0.67699999 0
-5.131 36.491001 0.76800001 0
-5.8429999 40.653 0.83200002 0
-5.382 37.012001 0.77700001 0
-5.5120001 37.094002 0.778 0
-5.4510002 35.900002 0.75999999 0
-5.6919999 36.710999 0.773 0.039999999
-5.704 36.041 0.76300001 0
-5.823 36.056 0.76300001 0.1
-5.915 35.911999 0.76099998 0
-5.974 35.911999 0.76200002 0.07
-6.2579999 36.909 0.77700001 0
-6.1500001 35.585999 0.75700003 0.07
-6.3080001 35.833 0.76099998 0.079999998
-6.3390002 35.354 0.75400001 0
-6.5619998 35.952 0.764 0
-6.651 35.803001 0.76200002 0
-6.7579999 35.754002 0.76099998 0
-6.783 35.575001 0.759 0
-4.5890002 23.228001 0.56800002 0.27000001
-4.6529999 23.167999 0.56699997 0.25999999
-4.6100001 22.583 0.55800003 0
-7.3379998 35.452 0.75800002 0
-16.379 78.050003 1.421 0
-7.684 36.265999 0.77200001 0.1
-5.0479999 23.417 0.57200003 0.14
-5.1090002 23.344 0.57099998 0.22
-5.0560002 22.756001 0.56199998 0.28
-5.1259999 22.732 0.56199998 0.41
-5.2129998 22.784 0.56300002 0.25999999
-5.3470001 23.039 0.56699997 0
-8.6110001 36.91 0.78399998 0
-8.7519999 36.990002 0.78600001 0
-5.697 23.381001 0.574 0.19
-5.756 23.301001 0.57300001 0.23
-5.8340001 23.304001 0.57300001 0.43000001
-5.882 23.186001 0.57200003 0.27000001
-5.8720002 22.995001 0.56900001 0.38999999
-5.8740001 22.701 0.56400001 0.27000001
-5.9359999 22.648001 0.56400001 0.38999999
-6.0149999 22.658001 0.56400001 0.27000001
-6.0580001 22.535 0.56300002 0.28999999
-6.2129998 22.827 0.56800002 0.44
-6.3119998 22.907 0.56900001 0.18000001
-6.0009999 21.51 0.54699999 0.38999999
-6.0349998 21.5 0.54699999 0.30000001
-6.1030002 21.481001 0.54699999 0.44
-6.2360001 21.693001 0.551 0.28999999
-6.3319998 21.767 0.55299997 0.30000001
-6.3540001 21.59 0.55000001 0.28999999
-6.382 21.434999 0.54799998 0.36000001
-6.4359999 21.371 0.54699999 0.38
-6.4980001 21.455 0.54900002 0.30000001
-6.5560002 21.403999 0.54799998 0.34999999
-6.6220002 21.381001 0.54799998 0.55000001
-6.8379998 21.837 0.55599999 0.15000001
-6.7849998 21.429001 0.55000001 0.36000001
-6.8940001 21.537001 0.55199999 0.40000001
-7.0209999 21.700001 0.55500001 0.28999999
-7.0300002 21.612 0.55299997 0.30000001
-7.1370001 21.708 0.55500001 0.34
-7.2030001 21.68 0.55500001 0.25999999
-7.388 22.007999 0.56099999 0.38999999
-6.4120002 18.891001 0.51099998 0.14
-6.4460001 18.797001 0.50999999 0.20999999
-6.5009999 18.764999 0.50999999 0.37
-6.5570002 18.737 0.50999999 0.34
-6.5679998 18.674 0.509 0.18000001
-6.6869998 18.823 0.51200002 0.15000001
-15.198 42.456001 0.89399999 0
-8.2679996 22.834 0.57700002 0
-15.361 42.076 0.889 0
-15.067 40.868 0.87 0.11
-15.196 40.821999 0.87 0.23
-15.41 41.002998 0.87400001 0
-16.006001 42.389 0.89700001 0
-9.052 23.714001 0.59399998 0
-8.5489998 21.976999 0.56599998 0.23
-8.835 22.504999 0.57499999 0
-23.115999 58.453999 1.164 0
-23.445 58.744999 1.17 0.14
-8.7080002 21.481001 0.56 0.18000001
-23.226 56.891998 1.143 0.19
-8.7080002 21.099001 0.55500001 0.12
-8.7950001 21.118999 0.55599999 0.25
-8.974 21.363001 0.56 0.44999999
-9.059 21.375 0.56099999 0.33000001
-15.659 36.834999 0.81699997 0.30000001
-15.688 36.584999 0.81300002 0.18000001
-15.799 36.527 0.81300002 0.28
-15.979 36.626999 0.81599998 0.23
-16.275 36.987 0.82200003 0.18000001
-13.114 29.538 0.699 0.25999999
-16.896 37.755001 0.83700001 0.22
-13.086 29.105 0.69300002 0.25
-12.88 28.406 0.68199998 0.12
-13.01 28.455 0.68400002 0.43000001
-13.353 28.964001 0.69300002 0.25999999
-13.792 29.673 0.70499998 0.2
-13.804 29.455999 0.70300001 0.28
-13.988 29.608 0.70599997 0.27000001
-14.205 29.823999 0.70999998 0.19
-14.323 29.951 0.713 0.25999999
-16.370001 33.964001 0.78100002 0.31
-14.251 29.325001 0.704 0.23
-14.337 29.267 0.70300001 0.30000001
-14.493 29.353001 0.70599997 0.23999999
-14.532 29.200001 0.704 0
-14.619 29.145 0.704 0.13
-14.549 28.891001 0.69999999 0.12
-16.794001 33.098999 0.77200001 0.14
-16.903999 33.057999 0.773 0
-13.486 25.958 0.653 0
-13.999 26.535999 0.66399997 0.19
-14.143 26.607 0.66600001 0.47999999
-14.152 26.523001 0.66500002 0.18000001
-14.589 27.139 0.676 0.38
-17.927999 33.112 0.78100002 0.19
-15.3 28.039 0.69400001 0.11
-12.837 23.341999 0.61299998 0.28999999
-12.904 23.291 0.61299998 0.34999999
-13.014 23.316 0.61400002 0.28999999
-13.289 23.548 0.61900002 0.5
-13.37 23.518 0.61900002 0.23999999
-12.994 22.688999 0.60500002 0.19
-13.052 22.625999 0.60500002 0.30000001
-13.104 22.552 0.60399997 0.41
-13.188 22.533001 0.60500002 0.27000001
-13.161 22.323999 0.602 0.2
-13.089 22.122999 0.59899998 0.41999999
-13.151 22.069 0.59899998 0.30000001
-13.253 22.083 0.59899998 0.30000001
-15.06 24.921 0.65100002 0.18000001
-15.229 25.024 0.653 0.47
-15.39 25.111 0.65600002 0.23
-14.722 23.766001 0.63300002 0.19
-16.32 26.166 0.67699999 0.12
-14.29 22.746 0.616 0.34
-14.339 22.666 0.616 0.16
-14.397 22.6 0.61500001 0.28999999
-14.697 22.912001 0.62199998 0.28999999
-14.747 22.832001 0.62099999 0.19
-14.793 22.823999 0.62099999 0.50999999
-14.883 22.806 0.62199998 0.2
-14.111 21.473 0.59899998 0.31999999
-14.17 21.415001 0.59799999 0.22
-15.128 22.711 0.62300003 0.34
-14.949 22.290001 0.616 0.27000001
-15.021 22.246 0.616 0.30000001
-15.179 22.405001 0.61900002 0.30000001
-15.217 22.309 0.61900002 0.23
-15.605 22.725 0.62699997 0.31
-15.525 22.457001 0.62300003 0.34
-15.545 22.334999 0.62199998 0.30000001
-15.759 22.490999 0.625 0.41
-15.946 22.607 0.62900001 0.28999999
-15.982 22.507999 0.62800002 0.31999999
-16.037001 22.51 0.62800002 0.31
-16.1 22.450001 0.62800002 0.36000001
-16.275999 22.545 0.63099998 0.25999999
-16.424 22.601 0.63300002 0.23
-16.511 22.57 0.63300002 0.40000001
-16.667999 22.636 0.63499999 0.37
-16.844 22.725 0.63800001 0.28999999
-16.771 22.552 0.63499999 0.30000001
-16.752001 22.379 0.63300002 0.38
-16.791 22.285 0.63200003 0.31
-16.889999 22.27 0.63300002 0.33000001
-16.812 22.023001 0.62900001 0.25999999
-16.863001 21.945999 0.62900001 0.31999999
-16.929001 21.889999 0.62900001 0.27000001
-16.974001 21.806999 0.62800002 0.31999999
-16.908001 21.650999 0.62599999 0.25
-17.504 22.271 0.639 0.30000001
-17.594999 22.243 0.639 0.18000001
-19.642 24.674999 0.68699998 0.13
-17.566999 21.922001 0.63499999 0.47999999
-17.552 21.763 0.63300002 0.25
-18.068001 22.261 0.64399999 0.12
-17.330999 21.282 0.625 0.34999999
-17.462999 21.306999 0.62699997 0.17
-17.517 21.236 0.62599999 0.13
-17.711 21.334999 0.63 0.34
-17.974001 21.514999 0.634 0.2
-20.450001 24.329 0.69099998 0.20999999
-20.941999 24.756001 0.70099998 0
-35.091 41.376999 1.033 0.07
-35.158001 41.194 1.0319999 0.12
-20.912001 24.33 0.69599998 0.14
-21.065001 24.353001 0.69800001 0
-35.348 40.633999 1.027 0
-35.405998 40.443001 1.025 0.11
-21.101999 23.936001 0.69300002 0
-35.532001 40.076 1.022 0.12
-35.534 39.951 1.021 0.16
-35.601002 39.773998 1.02 0.16
-35.66 39.589001 1.018 0.23
-35.722 39.409 1.017 0.25
-35.794998 39.240002 1.016 0.25999999
-35.853001 39.056999 1.0140001 0.27000001
-35.915001 38.877998 1.013 0.27000001
-35.924 38.765999 1.012 0.11
-36.139999 38.752998 1.0140001 0.16
-36.386002 38.771999 1.017 0.16
-36.638 38.796001 1.0190001 0.16
-36.882 38.810001 1.022 0.18000001
-37.122002 38.818001 1.025 0.090000004
-37.369999 38.833 1.028 0
-37.569 38.916 1.031 0.13
-37.828999 38.939999 1.034 0.090000004
-38.096001 38.970001 1.0369999 0.14
-38.202 38.833 1.036 0.2
-38.223999 38.612 1.034 0.30000001
-38.257 38.403999 1.0319999 0.2
-38.269001 38.174 1.03 0.18000001
-38.298 37.964001 1.028 0.12
-38.255001 37.801998 1.026 0.18000001
-38.285 37.595001 1.024 0.12
-38.304001 37.377998 1.022 0.16
-38.338001 37.176998 1.02 0.11
-38.367001 36.972 1.018 0.16
-38.386002 36.757999 1.016 0.12
-38.412998 36.553001 1.0140001 0.18000001
-38.382999 36.41 1.013 0.30000001
-38.41 36.207001 1.011 0.19
-38.431 35.999001 1.0089999 0.17
-38.457001 35.797001 1.007 0.31
-38.48 35.594002 1.005 0.2
-38.497002 35.386002 1.003 0.18000001
-38.523998 35.188 1.001 0.31999999
-38.546001 34.986 1 0.19
-38.519001 34.852001 0.99800003 0.34
-38.532001 34.643002 0.99599999 0.19
-38.566002 34.456001 0.99400002 0.38
-38.583 34.252998 0.99299997 0.22
-38.591 34.043999 0.991 0.18000001
-38.632999 33.866001 0.98900002 0.38999999
-38.646 33.662998 0.98699999 0.23
-38.615002 33.528999 0.986 0.2
-38.650002 33.347 0.98400003 0.41
-38.661999 33.146 0.98199999 0.23
-38.679001 32.951 0.98100001 0.19
-38.723 32.778999 0.97899997 0.40000001
-38.728001 32.575001 0.97799999 0.23999999
-38.747002 32.382999 0.97600001 0.2
-38.740002 32.273998 0.97500002 0.41
-38.752998 32.078999 0.97299999 0.25
-38.757 31.877001 0.97100002 0.19
-38.799 31.708 0.97000003 0.38999999
-38.810001 31.514999 0.96799999 0.25
-38.833 31.330999 0.96700001 0.25
-38.872002 31.160999 0.96600002 0.25
-38.825001 31.024 0.96399999 0.18000001
-38.865002 30.856001 0.963 0.43000001
-38.876999 30.667 0.96100003 0.25
-38.896999 30.485001 0.95999998 0.25
-38.918999 30.305 0.958 0.28
-38.943001 30.127001 0.95700002 0.28
-38.969002 29.952 0.95499998 0.27000001
-38.98 29.767 0.954 0.28
-38.965 29.658001 0.95300001 0.27000001
-38.973 29.472 0.95099998 0.27000001
-39.001999 29.301001 0.94999999 0.27000001
-39.021999 29.124001 0.94800001 0.27000001
-39.046001 28.952 0.94700003 0.27000001
-39.062 28.774 0.94599998 0.27000001
-39.081001 28.599001 0.94400001 0.28
-39.064999 28.493 0.94300002 0.28
-39.077999 28.315001 0.94199997 0.28
-39.096001 28.141001 0.94 0.28
-39.126999 27.976999 0.93900001 0.25999999
-39.143002 27.802999 0.93800002 0.28999999
-39.158001 27.629 0.93699998 0.27000001
-39.181 27.461 0.93599999 0.28999999
-39.150002 27.348 0.93400002 0.28
-39.172001 27.18 0.93300003 0.28999999
-39.188 27.009001 0.93199998 0.28999999
-39.209999 26.843 0.93099999 0.28
-39.226002 26.674 0.92900002 0.28
-39.240002 26.503 0.92799997 0.28999999
-39.262001 26.339001 0.92699999 0.28999999
-39.278 26.171 0.926 0.28999999
-39.245998 26.059999 0.92400002 0.28
-39.271999 25.900999 0.92299998 0.28
-39.283001 25.731001 0.92199999 0.28999999
-39.306999 25.57 0.921 0.27000001
-39.34 25.416 0.92000002 0.23999999
-39.317001 25.226999 0.91799998 0.17
-39.501999 25.171 0.92000002 0.43000001
-39.745998 25.239 0.92400002 0.25
-40.078999 25.274 0.92900002 0.19
-40.389999 25.292999 0.93300003 0.41999999
-40.699001 25.309 0.93699998 0.25
-40.992001 25.313 0.94099998 0.22
-41.297001 25.323 0.94499999 0.1
-41.629002 25.347 0.949 0.14
-41.912998 25.43 0.95300001 0.090000004
-42.254002 25.455999 0.958 0.14
-42.617001 25.493 0.963 0.20999999
-42.962002 25.516001 0.96799999 0.2
-43.304001 25.535999 0.972 0.38
-43.647999 25.554001 0.977 0.22
-43.995998 25.573 0.98199999 0.2
-44.354 25.596001 0.98699999 0.37
-44.667 25.681999 0.99199998 0.2
-45.035 25.707001 0.99699998 0.23999999
-45.401001 25.726999 1.002 0.20999999
-45.780998 25.753 1.007 0.22
-46.153999 25.771999 1.012 0.2
-46.543999 25.799 1.017 0.23
-46.942001 25.827 1.023 0.2
-47.305 25.93 1.028 0.20999999
-47.706001 25.955 1.034 0.18000001
-48.106998 25.979 1.039 0.31
-48.515999 26.003 1.045 0.2
-48.928001 26.025999 1.051 0.18000001
-49.342999 26.049 1.057 0.12
-49.777 26.079 1.063 0.17
-50.207001 26.103001 1.069 0.12
-50.615002 26.215 1.075 0.17
-51.055 26.24 1.081 0.12
-51.511002 26.27 1.087 0.16
-51.993 26.311001 1.094 0.27000001
-52.439999 26.33 1.1 0
-52.789001 26.299 1.105 0
-58.410999 28.988001 1.2 0
-58.445999 28.777 1.199 0
-58.443001 28.547001 1.197 0
-58.388 28.294001 1.1950001 0
-58.105 27.931999 1.188 0
-57.841 27.580999 1.183 0
-57.929001 27.4 1.183 0
-58.055 27.348 1.184 0
-58.212002 27.198999 1.1849999 0
-58.375 27.052 1.186 0
-58.548 26.909 1.188 0
-58.715 26.763 1.189 0
-58.883999 26.617001 1.191 0
-59.050999 26.469 1.192 0
-59.216 26.32 1.194 0
-59.351002 26.268 1.1950001 0
-59.484001 26.104 1.196 0
-62.308998 27.112 1.2410001 0
-62.922001 27.145 1.25 0
-63.528 27.169001 1.2589999 0
-64.207001 27.222 1.2690001 0
-64.882004 27.268 1.278 0
-65.609001 27.452999 1.29 0
-66.443001 27.556999 1.302 0
-67.097 27.582001 1.311 0
-67.369003 27.447001 1.314 0
-67.731003 27.347 1.319 0
-68.144997 27.017 1.323 0
-68.371002 26.983 1.326 0
-69.063004 26.506001 1.3329999 0
-69.292 26.344999 1.335 0
-69.336998 26.113001 1.335 0
-74.431 27.368 1.414 0
-74.950996 26.495001 1.4170001 0
-74.916 17.9 1.3789999 0
-45.271 9.8330002 0.912 0
-45.311001 9.6929998 0.91299999 0
-45.326 9.5469999 0.912 0
-45.321999 9.3979998 0.912 0
-45.310001 9.3210001 0.91100001 0
-45.297001 9.1700001 0.91100001 0
-45.349998 9.033 0.91100001 0
-45.323002 8.8789997 0.91000003 0
-45.386002 8.7440004 0.91100001 0
-45.390999 8.5970001 0.91100001 0
-45.393002 8.4499998 0.91000003 0
-45.386002 8.375 0.91000003 0
-45.41 8.2320004 0.91000003 0
-40.813999 6.013 0.83499998 0.16
-40.823002 5.8829999 0.83499998 0.30000001
-40.842999 5.7550001 0.83499998 0.31
-40.837002 5.6890001 0.83499998 0.34999999
-40.647999 5.5320001 0.83200002 0
-65.461998 1.262 1.204 0
-65.43 1.0549999 1.2029999 0
-58.775002 0.484 1.102 0
-58.639999 0.29800001 1.1 0
-58.639 0.114 1.1 0
-65.972 -2.253 1.212 0.20999999
-65.954002 -2.3559999 1.212 0.23
-65.977997 -2.5639999 1.212 0.28999999
-39.374001 -1.665 0.80699998 0.18000001
-39.348999 -1.7869999 0.80699998 0.15000001
-39.379002 -1.913 0.80699998 0.17
-66.044998 -3.398 1.214 0.2
-66.068001 -3.608 1.214 0.34999999
-66.092003 -3.8169999 1.215 0.19
-66.096001 -3.9219999 1.215 0.33000001
-66.102997 -4.131 1.215 0
-66.110001 -4.3390002 1.216 0
-65.112 -4.48 1.201 0
-64.120003 -4.6139998 1.186 0
-61.417 -4.6149998 1.145 0
-61.148998 -4.7880001 1.141 0.050000001
-58.056 -4.6389999 1.094 0.14
-57.672001 -4.7909999 1.0880001 0.090000004
-57.444 -4.954 1.085 0.14
-57.125 -5.1069999 1.08 0.20999999
-56.818001 -5.2600002 1.076 0
-56.139999 -5.3759999 1.066 0
-55.214001 -5.4619999 1.052 0
-54.536999 -5.4819999 1.0420001 0
-53.783001 -5.5770001 1.03 0
-53.137001 -5.6799998 1.021 0.07
-52.067001 -5.7309999 1.005 0.17
-51.832001 -5.8699999 1.001 0.27000001
-51.875 -6.04 1.002 0.27000001
-51.769001 -6.1929998 1.001 0
-52.077999 -6.4790001 1.006 0
-52.312 -7.9310002 1.013 0.22
-52.344002 -8.1040001 1.013 0
-52.363998 -8.276 1.0140001 0
-57.741001 -9.309 1.097 0
-58.053001 -9.5459995 1.103 0
-58.106998 -9.6490002 1.104 0
-52.842999 -9.1190004 1.023 0
-52.650002 -9.2559996 1.021 0.11
-52.655998 -9.4280005 1.021 0.23
-52.548 -9.5790005 1.02 0
-52.824001 -9.8009996 1.025 0
-52.889 -9.8990002 1.026 0
-52.924999 -10.077 1.027 0
-41.978001 -8.2720003 0.85900003 0.30000001
-42.064999 -8.427 0.86000001 0.18000001
-42.172001 -8.5860004 0.86199999 0.15000001
-42.25 -8.7399998 0.86400002 0.13
-15.929 -3.3900001 0.45500001 0.33000001
-15.875 -3.431 0.45500001 0.31999999
-15.855 -3.4790001 0.45500001 0.41
-15.846 -3.529 0.45500001 0.36000001
-15.85 -3.582 0.45500001 0.28999999
-15.817 -3.6270001 0.45500001 0.36000001
-53.341 -12.256 1.04 0.18000001
-53.373001 -12.44 1.041 0.23
-53.418999 -12.628 1.043 0
-53.498001 -12.824 1.045 0
-53.522999 -13.008 1.046 0
-53.584999 -13.201 1.0470001 0
-53.637001 -13.393 1.049 0
-53.688999 -13.585 1.05 0
-54.007999 -14.118 1.057 0
-36.662998 -10.273 0.787 0.17
-36.541 -10.362 0.78500003 0.19
-36.535 -10.485 0.78600001 0.16
-54.514999 -15.817 1.071 0.18000001
-54.555 -16.014 1.073 0.27000001
-54.608002 -16.216 1.074 0.25999999
-54.666 -16.421 1.076 0.25
-54.740002 -16.535999 1.0779999 0.11
-54.783001 -16.737 1.079 0
-54.805 -16.933001 1.08 0
-54.860001 -17.139 1.082 0
-54.910999 -17.344 1.084 0
-55.226002 -17.825001 1.091 0
-48.104 -16.115999 0.97899997 0
-47.537998 -16.093 0.97100002 0
-46.814999 -16.013 0.95999998 0.07
-46.421001 -16.041 0.95499998 0
-45.851002 -15.926 0.94599998 0
-42.443001 -15.043 0.89300001 0.14
-39.182999 -14.029 0.84100002 0.16
-38.862999 -14.052 0.83600003 0.19
-38.937 -14.217 0.838 0.40000001
-38.987 -14.375 0.83999997 0.20999999
-40 -14.819 0.85699999 0.17
-40.055 -14.982 0.85799998 0.2
-39.970001 -15.094 0.85799998 0.23
-36.532001 -13.929 0.80199999 0.11
-36.604 -14.088 0.80400002 0.27000001
-36.618999 -14.226 0.80500001 0.16
-36.589001 -14.347 0.80599999 0.23999999
-36.644001 -14.502 0.80699998 0.19
-37.582001 -14.94 0.82300001 0.18000001
-36.323002 -14.573 0.80299997 0.40000001
-36.396 -14.735 0.80500001 0.18000001
-36.138 -14.763 0.80199999 0.38
-35.994999 -14.837 0.80000001 0.23999999
-35.966999 -14.958 0.80000001 0.17
-35.977001 -15.095 0.801 0.44
-35.894001 -15.126 0.80000001 0.25
-35.841 -15.237 0.80000001 0.30000001
-9.323 -4.0190001 0.36199999 0.25
-9.2770004 -4.0339999 0.36199999 0.2
-9.2390003 -4.052 0.361 0.20999999
-9.224 -4.0799999 0.361 0.23
-9.1990004 -4.1030002 0.361 0.27000001
-9.1940002 -4.119 0.361 0.36000001
-9.1789999 -4.1469998 0.361 0.25999999
-9.1859999 -4.1849999 0.361 0.34999999
-9.1899996 -4.2210002 0.36199999 0.27000001
-9.198 -4.2600002 0.36199999 0.12
-9.3210001 -4.3520002 0.36399999 0.28
-9.3030005 -4.3790002 0.36399999 0.38
-9.2620001 -4.3779998 0.36399999 0.30000001
-9.2320004 -4.3990002 0.36300001 0.38
-9.007 -4.3270001 0.36000001 0
-36.900002 -17.782 0.83099997 0.059999999
-36.955002 -17.952 0.833 0.17
-36.779999 -18.01 0.83099997 0.18000001
-36.880001 -18.202 0.833 0.18000001
-37.166 -18.489 0.83899999 0
-37.049 -18.504 0.838 0
-27.183001 -13.691 0.671 0
-36.561001 -18.548 0.83099997 0
-36.341 -18.58 0.829 0
-36.119999 -18.611 0.82599998 0
-35.914001 -18.648001 0.82300001 0
-35.694 -18.676001 0.82099998 0
-35.487999 -18.639999 0.81800002 0
-35.278999 -18.672001 0.815 0
-35.054001 -18.694 0.81199998 0
-34.833 -18.716999 0.80900002 0
-34.632999 -18.75 0.80699998 0
-34.396999 -18.761999 0.80400002 0
-34.192001 -18.790001 0.801 0
-34.042 -18.778 0.79900002 0
-33.792 -18.778999 0.796 0
-33.609001 -18.816 0.79400003 0
-33.386002 -18.829 0.79100001 0
-33.195999 -18.860001 0.78899997 0
-32.952999 -18.858999 0.78500003 0
-32.764999 -18.888 0.78299999 0.13
-32.528999 -18.889 0.77999997 0.11
-17.129 -10.069 0.50999999 0.51999998
-17.058001 -10.099 0.509 0.41
-16.99 -10.131 0.509 0.36000001
-16.931 -10.168 0.50800002 0.37
-16.856001 -10.196 0.50700003 0.28999999
-16.802999 -10.236 0.50700003 0.5
-16.92 -10.344 0.509 0
-30.836 -18.959 0.75800002 0
-30.667 -18.988001 0.75599998 0
-30.476999 -19.003 0.75400001 0
-30.318001 -19.037001 0.75199997 0
-30.132999 -19.052999 0.75 0
-29.950001 -19.069 0.74800003 0.12
-29.813999 -19.049 0.74599999 0
-29.618 -19.055 0.74299997 0
-29.434999 -19.068001 0.741 0
-29.290001 -19.105 0.74000001 0
-29.107 -19.117001 0.73699999 0
-28.955 -19.148001 0.736 0
-28.777 -19.16 0.73400003 0
-28.65 -19.141001 0.73199999 0
-28.487 -19.162001 0.73000002 0
-28.326 -19.183001 0.72799999 0
-28.150999 -19.194 0.72600001 0.1
-10.699 -7.4130001 0.40599999 0.44
-10.628 -7.414 0.405 0.25
-10.633 -7.4419999 0.405 0.28
-10.685 -7.5279999 0.40700001 0.18000001
-10.707 -7.5939999 0.40700001 0.41999999
-10.717 -7.652 0.40799999 0.23
-10.712 -7.6989999 0.40799999 0.28999999
-10.719 -7.7550001 0.40900001 0.28999999
-10.722 -7.809 0.40900001 0.16
-10.728 -7.8649998 0.41 0.44999999
-10.737 -7.8969998 0.41 0.22
-10.741 -7.9520001 0.41100001 0.18000001
-10.762 -8.0200005 0.412 0.43000001
-10.777 -8.0839996 0.41299999 0.20999999
-10.779 -8.1379995 0.41299999 0.31
-10.76 -8.177 0.41299999 0.28999999
-10.769 -8.2370005 0.414 0.15000001
-10.816 -8.3000002 0.41499999 0.44999999
-10.795 -8.3380003 0.41499999 0.25
-10.807 -8.401 0.41600001 0.23
-10.835 -8.4779997 0.417 0.28
-10.801 -8.5059996 0.417 0.25999999
-10.812 -8.5699997 0.41800001 0.2
-10.851 -8.6560001 0.419 0.49000001
-10.846 -8.6800003 0.419 0.23
-10.842 -8.7329998 0.419 0.18000001
-10.876 -8.816 0.421 0.41999999
-10.857 -8.8579998 0.421 0.25
-10.868 -8.9239998 0.42199999 0.27000001
-10.865 -8.9779997 0.42199999 0.16
-9.1490002 -7.6139998 0.389 0.38
-9.0419998 -7.573 0.38699999 0.36000001
-9.0299997 -7.5869999 0.38699999 0.34999999
-8.8929996 -7.5209999 0.38499999 0.38999999
-8.8100004 -7.4980001 0.384 0.28
-8.7869997 -7.527 0.384 0.41
-8.401 -7.243 0.37599999 0.28
-8.1940002 -7.1100001 0.373 0.25999999
-8.1990004 -7.1370001 0.373 0.31
-8.1929998 -7.178 0.373 0.36000001
-8.3649998 -7.3730001 0.377 0.27000001
-8.1660004 -7.2449999 0.37400001 0.31999999
-8.0830002 -7.217 0.373 0.28999999
-8.1070004 -7.2839999 0.373 0.33000001
-8.0970001 -7.3210001 0.37400001 0.31999999
-8.0120001 -7.29 0.37200001 0.36000001
-7.9039998 -7.2160001 0.37099999 0.23
-8.026 -7.3730001 0.373 0.28
-7.9629998 -7.3610001 0.373 0.30000001
-7.8109999 -7.2670002 0.37 0.30000001
-7.8070002 -7.309 0.37 0.25
-8.0719995 -7.6030002 0.37599999 0.31999999
-8.04 -7.6209998 0.37599999 0.34
-8.0780001 -7.6810002 0.377 0.34
-8.0710001 -7.723 0.37799999 0.31999999
-8.073 -7.7729998 0.37799999 0.22
-8.0039997 -7.7550001 0.377 0.38
-8.0649996 -7.8639998 0.37900001 0.33000001
-8.0509996 -7.8990002 0.37900001 0.25
-7.9889998 -7.888 0.37799999 0.2
-8.1660004 -8.0869999 0.38299999 0.5
-8.0539999 -8.0270004 0.38100001 0.25
-7.9819999 -8.0050001 0.38 0.14
-8.04 -8.1140003 0.38100001 0.38999999
-8.0629997 -8.1890001 0.38299999 0.25999999
-8.0349998 -8.2110004 0.382 0.28999999
-8.0609999 -8.2889996 0.384 0.31999999
-8.3369999 -8.6260004 0.38999999 0.28
-8.283 -8.5979996 0.389 0.31
-8.2530003 -8.6210003 0.389 0.34999999
-8.2469997 -8.6680002 0.38999999 0.34
-8.2019997 -8.6750002 0.389 0.31999999
-8.165 -8.691 0.389 0.34
-8.151 -8.7309999 0.389 0.31
-8.151 -8.7860003 0.38999999 0.41
-8.1479998 -8.8100004 0.38999999 0.28
-8.1169996 -8.8330002 0.38999999 0.36000001
-8.0609999 -8.8269997 0.38999999 0.40000001
-8.033 -8.8529997 0.38999999 0.30000001
-7.98 -8.8500004 0.389 0.34999999
-7.954 -8.8760004 0.389 0.34
-7.9419999 -8.9189997 0.389 0.30000001
-7.9640002 -8.9720001 0.38999999 0.36000001
-7.9510002 -9.0150003 0.391 0.34
-7.9229999 -9.04 0.391 0.38
-7.9829998 -9.165 0.39300001 0.33000001
-8.0190001 -9.2659998 0.39399999 0.38999999
-8.0600004 -9.3710003 0.396 0.28999999
-8.073 -9.4469995 0.39700001 0.36000001
-8.0500002 -9.4499998 0.39700001 0.38999999
-7.9959998 -9.4460001 0.396 0.37
-7.9590001 -9.4619999 0.396 0.28999999
-8.0810003 -9.6680002 0.39899999 0.52999997
-8.4320002 -10.151 0.40799999 0.17
-8.559 -10.37 0.412 0.41999999
-8.5240002 -10.394 0.412 0.31999999
-8.4829998 -10.376 0.412 0.30000001
-8.4280005 -10.376 0.41100001 0.38
-8.3970003 -10.404 0.41100001 0.41
-8.3669996 -10.434 0.41100001 0.33000001
-8.3629999 -10.496 0.412 0.43000001
-8.3549995 -10.554 0.412 0.38
-8.3299999 -10.591 0.41299999 0.34
-8.3260002 -10.62 0.41299999 0.34999999
-8.3149996 -10.674 0.414 0.37
-8.3070002 -10.733 0.414 0.40000001
-8.3179998 -10.818 0.41499999 0.38999999
-8.7110004 -11.401 0.426 0.38
-8.6899996 -11.447 0.426 0.34
-8.658 -11.479 0.426 0.31999999
-8.6529999 -11.51 0.42699999 0.47
-8.6499996 -11.582 0.428 0.31999999
-8.6289997 -11.63 0.428 0.31999999
-8.5900002 -11.654 0.428 0.38999999
-8.5220003 -11.638 0.42699999 0.37
-8.4729996 -11.648 0.42699999 0.30000001
-8.4899998 -11.748 0.428 0.46000001
-8.5790005 -11.949 0.43099999 0.31
-8.6040001 -12.025 0.433 0.34999999
-8.5579996 -12.04 0.43200001 0.40000001
-8.5159998 -12.06 0.43200001 0.43000001
-8.6169996 -12.285 0.43599999 0.34
-8.6829996 -12.461 0.43900001 0.31999999
-8.6759996 -12.534 0.44 0.36000001
-8.6389999 -12.565 0.44 0.44999999
-8.6020002 -12.554 0.43900001 0.36000001
-8.6560001 -12.718 0.442 0.33000001
-8.7910004 -13.003 0.44600001 0.30000001
-8.7370005 -13.011 0.44600001 0.41999999
-8.6789999 -13.013 0.44600001 0.28999999
-8.6599998 -13.074 0.44600001 0.38
-8.6420002 -13.136 0.447 0.38999999
-8.6599998 -13.208 0.44800001 0.47999999
-8.6059999 -13.215 0.44800001 0.34
-8.9700003 -13.868 0.45899999 0.20999999
-8.9879999 -13.991 0.461 0.43000001
-8.9390001 -14.011 0.461 0.30000001
-8.9110003 -14.065 0.461 0.38999999
-8.8730001 -14.103 0.461 0.44999999
-8.9549999 -14.282 0.46399999 0.34
-8.9589996 -14.388 0.46599999 0.38
-8.9119997 -14.413 0.465 0.37
-8.8360004 -14.392 0.465 0.36000001
-8.7989998 -14.433 0.465 0.38
-8.7659998 -14.481 0.465 0.33000001
-8.7290001 -14.522 0.465 0.44
-8.9799995 -14.992 0.47400001 0.34
-8.9799995 -15.099 0.47499999 0.47
-9.8190002 -16.622 0.50099999 0.20999999
-9.6759996 -16.5 0.49900001 0.30000001
-9.6330004 -16.545 0.49900001 0.44999999
-9.6350002 -16.669001 0.50099999 0.41999999
-9.4189997 -16.415001 0.49599999 0.25
-9.5869999 -16.827999 0.50199997 0.28999999
-9.507 -16.749001 0.50099999 0.38999999
-9.4180002 -16.715 0.5 0.22
-9.2419996 -16.525 0.49599999 0.44999999
-9.2559996 -16.672001 0.498 0.25
-9.2580004 -16.799 0.49900001 0.37
-9.184 -16.790001 0.49900001 0.25999999
-9.165 -16.879999 0.5 0.30000001
-9.1269999 -16.872999 0.5 0.2
-8.8470001 -16.481001 0.49200001 0.55000001
-8.8120003 -16.541 0.493 0.25
-8.9110003 -16.853001 0.498 0.43000001
-9.3439999 -17.802 0.514 0.30000001
-8.8260002 -16.948999 0.498 0.31
-8.7539997 -16.938999 0.498 0.36000001
-9.2869997 -18.037001 0.51599997 0.23999999
-8.6750002 -16.982 0.498 0.25
-8.7220001 -17.207001 0.50099999 0.50999999
-9.1000004 -18.091 0.51599997 0.25
-9.0389996 -18.111 0.51599997 0.23999999
-8.96 -18.094999 0.51499999 0.18000001
-8.9090004 -18.135 0.51499999 0.41999999
-8.8660002 -18.118999 0.51499999 0.22
-8.7860003 -18.1 0.514 0.18000001
-8.7370005 -18.143 0.514 0.41999999
-8.6619997 -18.132999 0.51300001 0.23
-7.3639998 -15.55 0.46900001 0.18000001
-7.3039999 -15.55 0.46900001 0.22
-7.2509999 -15.564 0.46900001 0.44
-7.2189999 -15.559 0.46900001 0.36000001
-7.1609998 -15.561 0.46799999 0.30000001
-7.1020002 -15.562 0.46799999 0.28999999
-7.0450001 -15.568 0.46799999 0.31
-6.987 -15.568 0.46700001 0.34
-6.9349999 -15.584 0.46700001 0.37
-6.9180002 -15.677 0.46799999 0.23
-7.461 -16.976 0.49000001 0.38
-7.3860002 -16.948 0.48899999 0.31
-7.3530002 -17.018999 0.49000001 0.30000001
-7.322 -17.094999 0.491 0.34
-7.2490001 -17.072001 0.49000001 0.2
-7.1830001 -17.066 0.48899999 0.38
-7.1459999 -17.127001 0.49000001 0.51999998
-7.152 -17.292999 0.49200001 0.19
-7.053 -17.132999 0.49000001 0.28999999
-6.9569998 -17.051001 0.48800001 0.38
-6.8769999 -17.007999 0.48699999 0.31
-6.2589998 -15.625 0.46399999 0.27000001
-6.2059999 -15.637 0.46399999 0.38999999
-6.1459999 -15.629 0.463 0.33000001
-6.0929999 -15.637 0.463 0.38999999
-6.0630002 -15.633 0.463 0.36000001
-6.0149999 -15.654 0.463 0.44999999
-5.9580002 -15.654 0.463 0.36000001
-5.9169998 -15.693 0.463 0.27000001
-6.855 -18.343 0.50599998 0.22
-6.7909999 -18.347 0.505 0.28999999
-6.7210002 -18.336 0.505 0.28
-6.6919999 -18.344999 0.505 0.28999999
-6.6269999 -18.347 0.50400001 0.28999999
-6.5650001 -18.355 0.50400001 0.28999999
-6.5 -18.355 0.50400001 0.25999999
-6.434 -18.351999 0.50400001 0.16
-5.257 -15.16 0.45199999 0.38999999
-5.2059999 -15.167 0.45199999 0.38
-5.178 -15.164 0.45100001 0.44999999
-5.125 -15.165 0.45100001 0.36000001
-5.0749998 -15.174 0.45100001 0.37
-5.0240002 -15.18 0.45100001 0.33000001
-4.974 -15.186 0.45100001 0.55000001
-4.9530001 -15.285 0.45199999 0.31999999
-5.8600001 -18.361 0.50099999 0.54000002
-5.8039999 -18.385 0.50099999 0.34
-5.7399998 -18.384001 0.50099999 0.44
-5.6799998 -18.395 0.50099999 0.34
-5.619 -18.400999 0.5 0.44999999
-5.559 -18.413 0.5 0.34
-5.4920001 -18.399 0.5 0.49000001
-5.4569998 -18.389 0.49900001 0.37
-5.809 -19.795 0.52200001 0.40000001
-5.7470002 -19.815001 0.52200001 0.38
-5.6789999 -19.812 0.52100003 0.49000001
-5.6160002 -19.825001 0.52100003 0.38
-5.5479999 -19.826 0.52100003 0.50999999
-5.4879999 -19.849001 0.52100003 0.38999999
-5.4510002 -19.836 0.52100003 0.50999999
-5.3860002 -19.844999 0.52100003 0.38999999
-5.3210001 -19.851 0.51999998 0.50999999
-5.2550001 -19.856001 0.51999998 0.38
-5.1820002 -19.832001 0.51999998 0.64999998
-5.1199999 -19.85 0.51999998 0.31999999
-5.7420001 -22.537001 0.56099999 0.31999999
-5.6739998 -22.566999 0.56199998 0.50999999
-4.6069999 -18.466 0.49700001 0.20999999
-4.553 -18.497 0.49700001 0.25999999
-4.4959998 -18.514999 0.498 0.44
-4.4349999 -18.518 0.49700001 0.41
-4.375 -18.525999 0.49700001 0.41999999
-4.316 -18.534 0.49700001 0.41999999
-4.2579999 -18.547001 0.49700001 0.41
-4.2259998 -18.542 0.49700001 0.41999999
-4.164 -18.542 0.49700001 0.43000001
-4.1069999 -18.559999 0.49700001 0.36000001
-4.0549998 -18.601 0.49700001 0.62
-4.0539999 -18.877001 0.50099999 0.34
-4.0900002 -19.34 0.50800002 0.18000001
-3.46 -16.638 0.46599999 0.30000001
-3.431 -16.627001 0.46599999 0.16
-4.3049998 -21.166 0.53600001 0.27000001
-4.1690001 -20.832001 0.53100002 0.2
-4.441 -22.549999 0.55699998 0.17
-4.4910002 -23.184 0.56699997 0.11
-7.3559999 -38.528999 0.80400002 0.25
-7.2379999 -38.568001 0.80500001 0.31999999
-7.1869998 -38.630001 0.80500001 0.37
-7.0679998 -38.665001 0.80599999 0.22
-6.9530001 -38.726002 0.80599999 0.36000001
-6.8330002 -38.757 0.80599999 0.25
-6.7179999 -38.813999 0.80699998 0.28
-6.5970001 -38.842999 0.80699998 0.34
-6.4790001 -38.884998 0.80699998 0
-8.3889999 -50.796001 0.991 0.090000004
-8.3179998 -51.365002 0.99900001 0.16
-7.7399998 -48.778 0.95899999 0.28999999
-7.5840001 -48.779999 0.95899999 0.14
-6.9699998 -45.789001 0.912 0.28999999
-6.8299999 -45.84 0.91299999 0.43000001
-6.6880002 -45.870998 0.91299999 0.41999999
-6.428 -44.585999 0.89300001 0
-6.1960001 -43.959999 0.88300002 0
-5.678 -41.231998 0.84100002 0.059999999
-5.4660001 -40.639 0.83099997 0.14
-5.2940001 -40.319 0.82599998 0.23999999
-5.1680002 -40.342999 0.82599998 0.30000001
-5.0440001 -40.381001 0.82700002 0.25
-4.9780002 -40.368999 0.82599998 0.34
-4.6069999 -38.358002 0.79500002 0.15000001
-4.4419999 -37.997002 0.79000002 0.23
-4.322 -38.006001 0.79000002 0.27000001
-4.1929998 -37.93 0.78799999 0.18000001
-4.0630002 -37.841999 0.787 0.090000004
-3.9030001 -37.465 0.78100002 0.11
-3.905 -38.057999 0.79000002 0.14
-3.8 -38.215 0.792 0.33000001
-3.523 -36.616001 0.76700002 0
-3.309 -35.571999 0.75099999 0.059999999
-3.164 -35.209999 0.745 0
-3.029 -34.937 0.741 0
-2.892 -34.632999 0.736 0
-2.7679999 -34.445 0.73299998 0
-2.7090001 -34.393002 0.73299998 0
-2.523 -34.824001 0.73900002 0.23
-2.3940001 -34.542999 0.73400003 0.25
-2.2820001 -34.498001 0.73400003 0.36000001
-2.1760001 -34.544998 0.73400003 0.34
-2.069 -34.576 0.73500001 0.36000001
-2.016 -34.611 0.73500001 0.38
-1.908 -34.618999 0.73500001 0.36000001
-1.794 -34.535 0.73400003 0.36000001
-1.681 -34.446999 0.73199999 0.43000001
-1.5470001 -33.901001 0.72399998 0.15000001
-1.423 -33.5 0.71799999 0.27000001
-1.307 -33.228001 0.71399999 0.25
-1.252 -33.153999 0.71200001 0.5
-1.136 -32.846001 0.708 0
-1.034 -32.866001 0.708 0
-0.80900002 -32.161999 0.69700003 0.30000001
-0.704 -31.996 0.69499999 0.25
-0.78299999 -41.130001 0.83399999 0.34
-0.71799999 -41.132999 0.83399999 0.25
-0.43700001 -30.934999 0.67799997 0.31999999
-0.33700001 -30.704 0.67500001 0.23999999
-0.23899999 -30.580999 0.67299998 0.51999998
-0.14300001 -30.556 0.67299998 0
-0.046999998 -30.608 0.67299998 0
0.046999998 -27.452999 0.625 0
0.132 -27.257999 0.62199998 0
0.17399999 -27.146 0.62099999 0
0.97899997 -26.975 0.61799997 0
1.064 -26.974001 0.61799997 0
1.148 -26.968 0.61799997 0
1.192 -26.996 0.61900002 0
1.7180001 -25.313 0.59399998 0.13
1.763 -24.826 0.58600003 0.31
1.7819999 -24.014999 0.574 0.28
1.808 -23.361 0.56400001 0.25999999
1.825 -22.643999 0.55299997 0.28999999
1.8430001 -21.992001 0.54299998 0.28999999
1.859 -21.365 0.53399998 0.27000001
1.842 -20.785999 0.52499998 0.33000001
1.854 -20.188 0.51599997 0.25999999
1.752 -18.414 0.48899999 0.14
1.8099999 -18.415001 0.48899999 0.60000002
1.895 -18.681999 0.493 0.31
1.909 -18.238001 0.48699999 0.31999999
1.924 -17.84 0.48100001 0.31999999
1.9119999 -17.465 0.47499999 0.31999999
1.918 -17.02 0.46799999 0.28999999
1.9579999 -16.891001 0.46599999 0.33000001
2.007 -16.851 0.46599999 0.28999999
2.0569999 -16.823 0.46599999 0.55000001
1.96 -15.607 0.447 0.28
1.967 -15.268 0.442 0.25
1.984 -15.211 0.44100001 0.34999999
2.0250001 -15.155 0.44 0.37
2.0680001 -15.115 0.44 0.31
2.115 -15.109 0.44 0.50999999
2.142 -14.951 0.43700001 0.34
2.1500001 -14.675 0.433 0.30000001
1.5700001 -10.435 0.368 0.25
1.584 -10.419 0.368 0.28
1.614 -10.398 0.368 0.31999999
1.641 -10.355 0.36700001 0.28
1.6720001 -10.34 0.36700001 0.31
1.702 -10.317 0.36700001 0.31
1.729 -10.284 0.366 0.30000001
1.761 -10.273 0.366 0.28999999
1.789 -10.244 0.366 0.28999999
1.798 -10.199 0.36500001 0.28999999
1.827 -10.18 0.36500001 0.28
1.858 -10.166 0.36500001 0.14
1.901 -10.223 0.366 0.44999999
1.941 -10.257 0.366 0.22
1.98 -10.288 0.36700001 0.2
2.0239999 -10.338 0.368 0.36000001
2.0480001 -10.378 0.36899999 0.19
2.089 -10.413 0.36899999 0.38
2.1300001 -10.448 0.37 0.22
2.1730001 -10.492 0.37099999 0.19
2.22 -10.552 0.37200001 0.41
2.2620001 -10.586 0.37200001 0.25
2.3069999 -10.635 0.373 0.23999999
2.3310001 -10.667 0.37400001 0.23
2.368 -10.675 0.37400001 0.31999999
2.404 -10.675 0.37400001 0.34
2.4389999 -10.673 0.37400001 0.28999999
2.477 -10.687 0.375 0.41
2.401 -10.208 0.36700001 0.28
2.4349999 -10.208 0.36700001 0.33000001
2.4560001 -10.226 0.368 0.34999999
2.5910001 -10.648 0.37400001 0.23999999
2.6440001 -10.719 0.37599999 0.27000001
2.684 -10.736 0.37599999 0.37
2.7219999 -10.743 0.37599999 0.38
2.7579999 -10.744 0.37599999 0.33000001
2.7939999 -10.745 0.377 0.38999999
2.8280001 -10.736 0.377 0.38
2.849 -10.749 0.377 0.38
2.885 -10.746 0.377 0.36000001
2.9219999 -10.748 0.377 0.33000001
2.9579999 -10.747 0.377 0.38999999
2.993 -10.745 0.377 0.38
3.0280001 -10.74 0.377 0.38
3.0480001 -10.746 0.37799999 0.37
3.085 -10.746 0.37799999 0.37
3.122 -10.748 0.37799999 0.36000001
3.158 -10.748 0.37799999 0.36000001
3.1949999 -10.748 0.37799999 0.33000001
3.296 -10.964 0.382 0.19
3.2650001 -10.737 0.37799999 0.090000004
2.4679999 -8.0469999 0.336 0.14
2.493 -8.0389996 0.336 0.1
2.523 -8.0459995 0.336 0.14
2.5539999 -8.0579996 0.336 0.090000004
3.437 -10.754 0.37900001 0.36000001
3.474 -10.753 0.38 0.37
3.51 -10.75 0.38 0.37
3.5480001 -10.75 0.38 0.37
3.566 -10.748 0.38 0.36000001
3.608 -10.762 0.38 0.36000001
3.6429999 -10.754 0.38 0.38
3.681 -10.756 0.38100001 0.37
3.72 -10.758 0.38100001 0.36000001
3.757 -10.755 0.38100001 0.38
3.7939999 -10.755 0.38100001 0.37
3.8150001 -10.76 0.38100001 0.38
3.8540001 -10.761 0.382 0.38
3.892 -10.762 0.382 0.37
3.9319999 -10.767 0.382 0.33000001
3.9679999 -10.76 0.382 0.38999999
4.0029998 -10.751 0.382 0.37
4.0419998 -10.752 0.382 0.37
4.0669999 -10.766 0.38299999 0.33000001
4.105 -10.766 0.38299999 0.38999999
4.1409998 -10.757 0.38299999 0.38
4.1789999 -10.755 0.38299999 0.34
4.2199998 -10.761 0.384 0.38999999
4.256 -10.753 0.384 0.38
4.2950001 -10.753 0.384 0.38
4.3200002 -10.766 0.384 0.38
4.362 -10.773 0.38499999 0.37
4.401 -10.772 0.38499999 0.38
4.441 -10.773 0.38499999 0.38
4.474 -10.759 0.38499999 0.38
4.5170002 -10.767 0.38499999 0.34999999
4.5560002 -10.764 0.38600001 0.38999999
4.5819998 -10.779 0.38600001 0.38
4.618 -10.77 0.38600001 0.34999999
4.6589999 -10.772 0.38600001 0.38999999
4.697 -10.766 0.38600001 0.34999999
4.7410002 -10.775 0.38699999 0.36000001
4.7810001 -10.773 0.38699999 0.38999999
4.8200002 -10.771 0.38699999 0.38
4.8629999 -10.776 0.38800001 0.34
4.8889999 -10.788 0.38800001 0.34999999
4.927 -10.782 0.38800001 0.34999999
4.967 -10.779 0.38800001 0.38999999
5.0110002 -10.785 0.389 0.34999999
5.0549998 -10.791 0.389 0.40000001
5.0939999 -10.786 0.389 0.34999999
5.1370001 -10.79 0.389 0.38999999
5.1560001 -10.787 0.38999999 0.38
5.198 -10.787 0.38999999 0.34999999
5.2410002 -10.791 0.38999999 0.34999999
5.283 -10.79 0.38999999 0.36000001
5.3260002 -10.792 0.391 0.36000001
5.3730001 -10.802 0.391 0.34999999
5.4109998 -10.794 0.391 0.40000001
5.4369998 -10.803 0.39199999 0.34999999
5.48 -10.804 0.39199999 0.36000001
5.5190001 -10.796 0.39199999 0.37
5.5630002 -10.8 0.39300001 0.36000001
5.6100001 -10.807 0.39300001 0.38
5.6479998 -10.796 0.39300001 0.36000001
5.6960001 -10.805 0.39399999 0.36000001
5.7179999 -10.807 0.39399999 0.36000001
5.7620001 -10.806 0.39399999 0.36000001
5.8070002 -10.809 0.39399999 0.36000001
5.8509998 -10.81 0.39500001 0.37
5.8930001 -10.806 0.39500001 0.38
5.9400001 -10.812 0.39500001 0.38
5.9840002 -10.811 0.396 0.38
6.0120001 -10.822 0.396 0.37
6.053 -10.816 0.396 0.36000001
6.1009998 -10.821 0.39700001 0.38
6.1409998 -10.814 0.39700001 0.37
6.1849999 -10.812 0.39700001 0.36000001
6.2360001 -10.822 0.398 0.33000001
6.2820001 -10.823 0.398 0.47
6.3179998 -10.807 0.398 0.34
6.3319998 -10.792 0.398 0.36000001
6.355 -10.753 0.398 0.27000001
6.402 -10.755 0.398 0.31999999
6.4569998 -10.771 0.39899999 0.40000001
6.4990001 -10.765 0.39899999 0.38999999
6.546 -10.766 0.39899999 0.38
6.5770001 -10.778 0.40000001 0.38
6.619 -10.771 0.40000001 0.38
6.6690001 -10.778 0.40099999 0.38
6.7140002 -10.774 0.40099999 0.38
6.7610002 -10.774 0.40099999 0.38
6.8080001 -10.773 0.40200001 0.38
6.8559999 -10.774 0.40200001 0.38999999
6.8839998 -10.782 0.40200001 0.38
6.9330001 -10.784 0.403 0.38999999
6.9809999 -10.784 0.403 0.38
7.0339999 -10.79 0.40400001 0.38
7.0780001 -10.785 0.40400001 0.38999999
7.1269999 -10.784 0.40400001 0.38999999
7.1760001 -10.785 0.405 0.38999999
7.223 -10.782 0.405 0.38999999
7.2540002 -10.793 0.40599999 0.38
7.3039999 -10.793 0.40599999 0.38999999
7.3569999 -10.798 0.40599999 0.40000001
7.4000001 -10.788 0.40700001 0.38999999
7.4499998 -10.788 0.40700001 0.40000001
7.5019999 -10.791 0.40799999 0.38
7.5549998 -10.795 0.40799999 0.38
7.5890002 -10.808 0.40900001 0.38999999
7.638 -10.805 0.40900001 0.38999999
7.6859999 -10.801 0.40900001 0.38999999
7.737 -10.801 0.41 0.38
7.7870002 -10.799 0.41 0.36000001
7.8319998 -10.789 0.41100001 0.38
7.8889999 -10.797 0.41100001 0.38
7.927 -10.814 0.412 0.38999999
7.973 -10.805 0.412 0.37
8.0270004 -10.807 0.412 0.38
8.0749998 -10.801 0.41299999 0.38
8.1309996 -10.805 0.41299999 0.38999999
8.1870003 -10.808 0.414 0.38999999
8.2399998 -10.807 0.414 0.38999999
8.2740002 -10.817 0.41499999 0.38
8.3310003 -10.821 0.41499999 0.38999999
8.3809996 -10.815 0.41600001 0.38
8.4320002 -10.811 0.41600001 0.38
8.4899998 -10.816 0.417 0.38
8.5439997 -10.814 0.417 0.38
8.6020002 -10.817 0.41800001 0.38999999
8.6400003 -10.83 0.41800001 0.38
8.691 -10.825 0.419 0.38
8.7460003 -10.824 0.419 0.38
8.8059998 -10.828 0.41999999 0.38
8.8620005 -10.828 0.421 0.38
8.9189997 -10.828 0.421 0.38
8.9700003 -10.82 0.421 0.38
9.0109997 -10.835 0.42199999 0.38999999
9.0649996 -10.831 0.42300001 0.40000001
9.1239996 -10.832 0.42300001 0.40000001
9.1820002 -10.832 0.42399999 0.38999999
9.2469997 -10.84 0.42399999 0.34
9.302 -10.835 0.42500001 0.41
9.3559999 -10.828 0.42500001 0.38999999
9.4160004 -10.829 0.426 0.34
9.4639997 -10.85 0.42699999 0.40000001
9.5209999 -10.846 0.42699999 0.36000001
9.5799999 -10.845 0.428 0.40000001
9.6379995 -10.842 0.428 0.34
9.7040005 -10.847 0.42899999 0.41
9.7629995 -10.845 0.43000001 0.40000001
9.8199997 -10.839 0.43000001 0.38
9.8640003 -10.854 0.43099999 0.36000001
9.9259996 -10.854 0.43099999 0.38
9.993 -10.858 0.43200001 0.41
10.054 -10.856 0.433 0.38
10.116 -10.855 0.433 0.37
10.172 -10.846 0.43399999 0.38
10.241 -10.851 0.435 0.36000001
10.291 -10.87 0.435 0.31999999
10.347 -10.86 0.43599999 0.34999999
10.412 -10.861 0.43700001 0.33000001
10.484 -10.867 0.43700001 0.34999999
10.542 -10.859 0.43799999 0.37
10.608 -10.858 0.43900001 0.40000001
10.68 -10.864 0.43900001 0.38999999
10.723 -10.874 0.44 0.38
10.793 -10.876 0.44100001 0.40000001
10.868 -10.883 0.442 0.40000001
10.926 -10.873 0.442 0.38
10.991 -10.869 0.44299999 0.38999999
11.065 -10.874 0.44400001 0.38
11.129 -10.869 0.44400001 0.38
11.184 -10.887 0.44499999 0.38
11.256 -10.89 0.44600001 0.38
11.321 -10.884 0.447 0.37
11.392 -10.884 0.447 0.38
11.461 -10.881 0.44800001 0.38
11.53 -10.878 0.449 0.38
11.61 -10.884 0.44999999 0.38
11.665 -10.902 0.45100001 0.37
11.732 -10.896 0.45100001 0.36000001
11.806 -10.896 0.45199999 0.38
11.879 -10.894 0.45300001 0.38
11.953 -10.893 0.454 0.34999999
12.03 -10.895 0.45500001 0.36000001
12.108 -10.897 0.456 0.36000001
12.183 -10.895 0.456 0.38
12.237 -10.909 0.45699999 0.37
12.312 -10.906 0.458 0.38
12.395 -10.911 0.45899999 0.38
12.47 -10.908 0.46000001 0.37
12.557 -10.915 0.461 0.36000001
12.634 -10.912 0.46200001 0.36000001
12.696 -10.931 0.463 0.33000001
12.767 -10.923 0.463 0.38
14.005 -11.909 0.48699999 0.37
14.01 -11.838 0.48699999 0.38999999
14.015 -11.767 0.486 0.38999999
14.017 -11.693 0.48500001 0.38999999
14.026 -11.626 0.48500001 0.40000001
14.027 -11.552 0.484 0.44999999
14.02 -11.51 0.484 0.31999999
14.014 -11.432 0.48300001 0.46000001
14.024 -11.366 0.48199999 0.50999999
13.901 -11.194 0.479 0.12
13.978 -11.184 0.47999999 0.36000001
13.983 -11.116 0.479 0.33000001
14.009 -11.065 0.479 0.36000001
14.022 -11.039 0.479 0.36000001
14.073 -11.009 0.47999999 0.36000001
14.125 -10.978 0.47999999 0.41
14.165 -10.937 0.47999999 0.31999999
14.278 -10.954 0.48100001 0.51999998
14.254 -10.864 0.47999999 0.2
14.389 -10.86 0.48199999 0.63999999
14.605 -10.952 0.48500001 0.31
14.709 -10.958 0.48699999 0.34
14.798 -10.952 0.48800001 0.30000001
14.911 -10.964 0.48899999 0.34
14.995 -10.953 0.49000001 0.47
15.274 -11.084 0.495 0
15.569 -11.262 0.5 0
15.77 -11.332 0.50300002 0
15.884 -11.338 0.505 0
15.98 -11.331 0.50599998 0
16.091999 -11.335 0.50700003 0
16.226999 -11.355 0.509 0
16.329 -11.349 0.50999999 0.07
16.396 -11.206 0.50999999 0.51999998
16.513 -11.211 0.51099998 0.56
16.65 -11.227 0.51300001 0.25999999
16.849001 -11.285 0.51599997 0.20999999
16.951 -11.277 0.51700002 0.18000001
17.055 -11.308 0.51899999 0.20999999
17.171 -11.307 0.51999998 0.18000001
17.292 -11.309 0.52200001 0.20999999
17.409 -11.308 0.52399999 0.17
17.514999 -11.299 0.52499998 0.14
17.547001 -11.242 0.52499998 0.25
17.615999 -11.208 0.52499998 0.5
17.676001 -11.207 0.52600002 0.38999999
17.705999 -11.148 0.52600002 0.38999999
17.747999 -11.097 0.52600002 0.38
17.802999 -11.054 0.52600002 0.38999999
17.885 -11.027 0.52700001 0.38999999
17.990999 -11.015 0.52899998 0.30000001
18.509001 -11.253 0.537 0.36000001
18.618 -11.239 0.53899997 0.23
18.731001 -11.268 0.54000002 0.14
18.83 -11.247 0.54100001 0.44999999
18.895 -11.205 0.542 0.55000001
19.184999 -11.296 0.546 0.19
19.296 -11.28 0.54799998 0.20999999
19.426001 -11.275 0.54900002 0.33000001
19.593 -11.29 0.55199999 0.41
19.811001 -11.292 0.55500001 0.41
19.773001 -11.188 0.55299997 0.55000001
20.035 -11.253 0.55699998 0.12
20.229 -11.279 0.56 0.36000001
20.375 -11.277 0.56199998 0.16
20.518999 -11.272 0.56400001 0.36000001
20.577999 -11.263 0.565 0.40000001
20.632999 -11.209 0.565 0.37
20.68 -11.151 0.565 0.34999999
20.773001 -11.117 0.56599998 0.41
20.910999 -11.106 0.56800002 0.31999999
20.917 -11.026 0.56699997 0
21.202999 -11.092 0.57200003 0
21.542999 -11.141 0.57700002 0.22
22.299999 -11.444 0.58899999 0.34
22.487 -11.452 0.59200001 0.19
18.627001 -9.3339996 0.52499998 0.74000001
22.905001 -11.394 0.597 0.34
22.891001 -11.342 0.59600002 0.34999999
22.837999 -11.227 0.59500003 0.28
22.893 -11.165 0.59500003 0.41
23.054001 -11.154 0.597 0.31999999
23.233 -11.151 0.60000002 0.28999999
23.405001 -11.143 0.602 0.25
23.577999 -11.135 0.60399997 0.18000001
24.521 -11.535 0.62 0.51999998
24.487 -11.424 0.61900002 0
25.528 -11.523 0.634 0.33000001
25.65 -11.481 0.63499999 0.30000001
18.702999 -8.2939997 0.51899999 0.31
18.726999 -8.2690001 0.51899999 0.44
26.461 -11.596 0.64700001 0.34999999
26.49 -11.51 0.64700001 0.38
26.485001 -11.409 0.64600003 0.34
26.51 -11.321 0.64600003 0.23999999
26.608 -11.265 0.64700001 0.41
26.728001 -11.217 0.64899999 0.28
26.952 -11.261 0.65200001 0.23999999
27.183001 -11.258 0.65499997 0
29.681 -12.077 0.69499999 0.25
29.691 -11.972 0.69499999 0.28999999
29.690001 -11.863 0.69400001 0.28
29.690001 -11.755 0.69300002 0.25
29.715 -11.711 0.69400001 0.41
29.75 -11.617 0.69400001 0.34999999
29.768 -11.517 0.69300002 0.34999999
29.783001 -11.415 0.69300002 0.31999999
29.799999 -11.314 0.69300002 0.28999999
30.023001 -11.291 0.69599998 0.14
30.084999 -11.207 0.69599998 0.51999998
30.801001 -11.419 0.70700002 0.23
30.788 -11.304 0.70700002 0.19
29.868999 -10.86 0.69099998 0.52999997
30.874001 -11.116 0.70700002 0.14
31.076 -11.079 0.70999998 0.38
31.400999 -11.084 0.71399999 0
68.199997 -23.865 1.307 0
63.18 -21.773001 1.224 0
60.562 -20.657 1.181 0
60.583 -20.452 1.1799999 0
60.523998 -20.219999 1.178 0
60.522999 -20.007999 1.177 0
60.535999 -19.802 1.177 0
60.491001 -19.681999 1.175 0
60.445999 -19.458 1.174 0.07
14.95 -4.6880002 0.44600001 0.27000001
14.896 -4.6199999 0.44499999 0.36000001
14.889 -4.5669999 0.44499999 0.38
14.911 -4.5219998 0.44499999 0.31999999
14.924 -4.4749999 0.44499999 0.43000001
14.955 -4.4590001 0.44499999 0.34999999
15.036 -4.4320002 0.44600001 0.33000001
30.228001 -8.8330002 0.68699998 0
30.084999 -8.6890001 0.68400002 0
60.43 -17.275 1.164 0.07
45.002998 -12.705 0.91900003 0
60.403999 -16.857 1.1619999 0
60.338001 -16.737 1.16 0
60.358002 -16.538 1.16 0.12
60.314999 -16.323 1.158 0
60.312 -16.118999 1.1569999 0
60.567001 -15.983 1.161 0
60.400002 -15.737 1.1569999 0
60.347 -15.52 1.156 0
60.293999 -15.406 1.154 0
36.858002 -9.2840004 0.78600001 0
60.240002 -14.989 1.152 0
37.118 -9.1020002 0.78899997 0.07
60.249001 -14.59 1.151 0.090000004
60.229 -14.385 1.15 0
60.240002 -14.188 1.149 0
60.247002 -14.09 1.149 0
60.280998 -13.898 1.149 0
60.219002 -13.685 1.147 0
60.256001 -13.494 1.147 0.13
60.275002 -13.3 1.147 0.090000004
60.243999 -13.094 1.146 0
60.234001 -12.894 1.145 0
60.245998 -12.798 1.145 0.07
60.229 -12.597 1.1440001 0.079999998
60.249001 -12.403 1.143 0.090000004
60.252998 -12.207 1.143 0.079999998
44.073002 -8.7779999 0.89099997 0
44.687 -8.7539997 0.89999998 0
60.227001 -11.612 1.141 0
60.242001 -11.516 1.141 0
60.254002 -11.323 1.14 0
60.331001 -11.141 1.141 0
60.338001 -10.946 1.141 0
49.344002 -8.7869997 0.97000003 0.12
49.332001 -8.625 0.97000003 0.18000001
51.245998 -8.7119999 0.99800003 0.17
