# .PCD v0.7 - Point Cloud Data file format
VERSION 0.7
FIELDS x y z intensity
SIZE 4 4 4 4
TYPE F F F F
COUNT 1 1 1 1
WIDTH 1391
HEIGHT 1
VIEWPOINT 0 0 0 1 0 0 0
POINTS 1391
DATA ascii
1.755 9.9429998 -1.83 0.050000001
1.722 9.9370003 -1.8279999 0.16
1.694 9.9610004 -1.832 0.050000001
1.659 9.9469995 -1.8279999 0.16
1.632 9.9759998 -1.8329999 0.050000001
1.614 9.967 -1.83 0.16
1.584 9.9809999 -1.832 0.050000001
1.551 9.9729996 -1.83 0.16
1.523 10.001 -1.834 0.050000001
1.49 9.9960003 -1.832 0.15000001
1.462 10.02 -1.836 0.050000001
1.428 10.011 -1.8329999 0.16
1.415 10.03 -1.837 0.19
1.385 10.048 -1.839 0.090000004
1.353 10.051 -1.839 0.15000001
1.322 10.055 -1.839 0.050000001
1.289 10.051 -1.837 0.16
1.2589999 10.069 -1.84 0.19
1.228 10.075 -1.841 0.090000004
1.212 10.079 -1.841 0.15000001
1.182 10.098 -1.844 0.050000001
1.148 10.076 -1.839 0.16
1.1210001 10.121 -1.847 0.2
1.089 10.13 -1.848 0.1
1.057 10.132 -1.848 0.15000001
1.026 10.139 -1.849 0.050000001
0.99299997 10.134 -1.847 0.16
0.97899997 10.155 -1.851 0.2
0.94700003 10.158 -1.851 0
0.88999999 9.8719997 -1.795 0.1
0.79799998 9.1450005 -1.653 0.1
0.76999998 9.1590004 -1.655 0.039999999
0.81900001 10.164 -1.85 0.14
0.78899997 10.184 -1.853 0.050000001
0.77100003 10.159 -1.848 0.16
0.73900002 10.168 -1.849 0.11
0.70700002 10.166 -1.849 0.19
0.676 10.188 -1.852 0.2
0.64499998 10.2 -1.854 0.1
0.61299998 10.2 -1.854 0.15000001
0.59600002 10.187 -1.851 0.050000001
0.56400001 10.185 -1.85 0.17
0.53299999 10.204 -1.854 0.19
0.50099999 10.21 -1.855 0.1
0.46799999 10.196 -1.852 0.16
0.43700001 10.219 -1.8559999 0.20999999
0.40400001 10.198 -1.852 0.1
0.38800001 10.207 -1.853 0.16
0.35699999 10.228 -1.857 0.050000001
0.324 10.223 -1.8559999 0.16
0.292 10.23 -1.857 0.2
0.25999999 10.229 -1.857 0.1
0.228 10.235 -1.858 0.16
0.19599999 10.242 -1.859 0.050000001
0.164 10.229 -1.8559999 0.17
0.148 10.245 -1.859 0.19
0.116 10.243 -1.859 0.1
0.083999999 10.241 -1.858 0.16
0.050999999 10.253 -1.8609999 0.050000001
0.018999999 10.246 -1.859 0.18000001
-0.013 10.267 -1.863 0.11
-0.045000002 10.261 -1.862 0.17
-0.061999999 10.291 -1.868 0.22
-0.093999997 10.275 -1.865 0.16
-0.126 10.292 -1.868 0.23999999
-0.15800001 10.278 -1.8660001 0.16
-0.191 10.303 -1.8710001 0.25
-0.223 10.288 -1.868 0.17
-0.25600001 10.301 -1.8710001 0.23
-0.27200001 10.295 -1.869 0.16
-0.30500001 10.306 -1.872 0.23999999
-0.33700001 10.297 -1.87 0.16
-0.37 10.321 -1.875 0.23999999
-0.40200001 10.316 -1.874 0.17
-0.435 10.325 -1.876 0.23
-0.46700001 10.31 -1.874 0.16
-0.484 10.319 -1.876 0.23
-0.51499999 10.299 -1.872 0.15000001
-0.54900002 10.329 -1.878 0.28
-0.57999998 10.296 -1.872 0.16
-0.61400002 10.324 -1.878 0.25999999
-0.64499998 10.302 -1.874 0.16
-0.68000001 10.337 -1.881 0.27000001
-0.69400001 10.297 -1.874 0.15000001
-0.72899997 10.338 -1.882 0.25999999
-0.75999999 10.31 -1.877 0.15000001
-0.79500002 10.341 -1.883 0.25999999
-0.82700002 10.336 -1.883 0.2
-0.85900003 10.332 -1.883 0.12
-0.88999999 10.307 -1.8789999 0.2
-0.90499997 10.3 -1.877 0.14
-0.94 10.325 -1.883 0.28999999
-0.972 10.31 -1.88 0.23
-1.003 10.297 -1.8789999 0.15000001
-1.04 10.335 -1.887 0.28
-1.069 10.306 -1.882 0.16
-1.1059999 10.34 -1.8890001 0.27000001
-1.12 10.319 -1.885 0.23
-1.15 10.292 -1.88 0.15000001
-1.187 10.327 -1.888 0.28999999
-1.2180001 10.311 -1.886 0.19
-1.253 10.333 -1.891 0.13
-1.283 10.311 -1.887 0.20999999
-1.314 10.292 -1.8839999 0.14
-1.334 10.319 -1.89 0.28999999
-1.3660001 10.315 -1.89 0.25
-1.399 10.316 -1.891 0.25999999
-1.431 10.31 -1.891 0.30000001
-1.46 10.278 -1.885 0.16
-1.4960001 10.3 -1.891 0.28999999
-1.529 10.298 -1.891 0.22
-1.545 10.293 -1.891 0.25
-1.573 10.263 -1.886 0.17
-1.612 10.303 -1.895 0.28999999
-1.643 10.286 -1.892 0.23
-1.676 10.285 -1.893 0.25
-1.704 10.252 -1.888 0.14
-1.7410001 10.28 -1.8940001 0.31
-1.755 10.263 -1.891 0.25
-1.786 10.252 -1.89 0.15000001
-1.824 10.274 -1.896 0.30000001
-1.857 10.272 -1.896 0.2
-1.89 10.27 -1.897 0.12
-1.92 10.256 -1.896 0.18000001
-1.955 10.263 -1.898 0.12
-1.972 10.264 -1.899 0.18000001
-2.007 10.273 -1.902 0.12
-2.0339999 10.24 -1.897 0.18000001
-2.069 10.249 -1.9 0.12
-2.102 10.242 -1.9 0.18000001
-2.1359999 10.247 -1.902 0.12
-2.1689999 10.244 -1.903 0.18000001
-2.188 10.252 -1.905 0.12
-2.2160001 10.228 -1.902 0.18000001
-2.2520001 10.238 -1.905 0.12
-2.2809999 10.216 -1.902 0.18000001
-2.316 10.222 -1.905 0.12
-2.346 10.205 -1.903 0.17
-2.3789999 10.202 -1.904 0.23
-2.3900001 10.177 -1.899 0.16
-2.427 10.19 -1.904 0.23
-2.4579999 10.179 -1.903 0.16
-2.497 10.202 -1.909 0.23999999
-2.52 10.156 -1.901 0.16
-2.5569999 10.167 -1.905 0.050000001
-2.5880001 10.157 -1.905 0.17
-2.609 10.172 -1.909 0.20999999
-2.642 10.167 -1.909 0.1
-2.6689999 10.142 -1.906 0.18000001
-2.7049999 10.148 -1.909 0.11
-2.7390001 10.147 -1.91 0.15000001
-2.767 10.126 -1.908 0.050000001
-2.793 10.096 -1.904 0.16
-2.819 10.126 -1.91 0.2
-2.8499999 10.113 -1.91 0.1
-2.8789999 10.096 -1.908 0.14
-2.9159999 10.106 -1.9119999 0.050000001
-2.9389999 10.067 -1.906 0.15000001
-2.9749999 10.073 -1.909 0.050000001
-3.0050001 10.058 -1.908 0.15000001
-3.027 10.073 -1.9119999 0.050000001
-3.0569999 10.056 -1.91 0.16
-3.089 10.051 -1.911 0.050000001
-3.119 10.035 -1.91 0.15000001
-3.152 10.031 -1.911 0.050000001
-3.1830001 10.019 -1.911 0.16
-3.223 10.035 -1.916 0.050000001
-3.2290001 10 -1.91 0.15000001
-3.2690001 10.014 -1.915 0.050000001
-3.302 10.01 -1.916 0.16
-3.336 10.007 -1.918 0.050000001
-3.362 9.9809999 -1.915 0.16
-3.401 9.9910002 -1.919 0.050000001
-3.4260001 9.9639997 -1.915 0.16
-3.461 9.9619999 -1.9170001 0.050000001
-3.4790001 9.9639997 -1.919 0.15000001
-3.5079999 9.9469995 -1.918 0.050000001
-3.5409999 9.9399996 -1.918 0.15000001
-3.579 9.9469995 -1.9220001 0.050000001
-3.6029999 9.9180002 -1.918 0.15000001
-3.6400001 9.9230003 -1.9220001 0.050000001
-3.6730001 9.915 -1.923 0.14
-3.691 9.915 -1.924 0.050000001
-3.7249999 9.9099998 -1.925 0.15000001
-3.7609999 9.9119997 -1.928 0.050000001
-3.7839999 9.8800001 -1.924 0.15000001
-3.8180001 9.875 -1.925 0.050000001
-3.8499999 9.8669996 -1.926 0.15000001
-3.878 9.8470001 -1.925 0.050000001
-3.8900001 9.8319998 -1.923 0.14
-3.9330001 9.8509998 -1.929 0.050000001
-3.9560001 9.8179998 -1.925 0.14
-3.9949999 9.8260002 -1.929 0.050000001
-4.026 9.8129997 -1.929 0.14
-4.0599999 9.8079996 -1.931 0.050000001
-4.0819998 9.7749996 -1.926 0.14
-4.1100001 9.7969999 -1.933 0.050000001
-4.1399999 9.783 -1.932 0.15000001
-4.1690001 9.7659998 -1.931 0.050000001
-4.1999998 9.7530003 -1.931 0.14
-4.2360001 9.7519999 -1.934 0.050000001
-4.2589998 9.7229996 -1.931 0.14
-4.2979999 9.7270002 -1.934 0.050000001
-4.3150001 9.724 -1.9349999 0.15000001
-4.349 9.7180004 -1.937 0.050000001
-4.375 9.6949997 -1.9349999 0.15000001
-4.4159999 9.7040005 -1.9400001 0.050000001
-4.4369998 9.6709995 -1.936 0.15000001
-4.474 9.6709995 -1.939 0.050000001
-4.5029998 9.6529999 -1.938 0.15000001
-4.5149999 9.6389999 -1.936 0.050000001
-4.5450001 9.625 -1.936 0.15000001
-4.5869999 9.6350002 -1.942 0.050000001
-4.6110001 9.6070004 -1.939 0.15000001
-4.6490002 9.6099997 -1.942 0.18000001
-4.6799998 9.5950003 -1.942 0.18000001
-4.7059999 9.5740004 -1.941 0.18000001
-4.7309999 9.585 -1.9450001 0.18000001
-4.7529998 9.5550003 -1.942 0.17
-4.7880001 9.5500002 -1.944 0.17
-4.816 9.5299997 -1.943 0.17
-4.8499999 9.5240002 -1.9450001 0.17
-4.8800001 9.5080004 -1.9450001 0.17
-4.9109998 9.4949999 -1.9450001 0.17
-4.9250002 9.4849997 -1.9450001 0.039999999
-4.948 9.4569998 -1.942 0.15000001
-4.9889998 9.4630003 -1.947 0.050000001
-5.006 9.4230003 -1.941 0.14
-5.0500002 9.4350004 -1.947 0.050000001
-5.0799999 9.4189997 -1.947 0.14
-5.1090002 9.4029999 -1.947 0.050000001
-5.1230001 9.3929996 -1.947 0.14
-5.1669998 9.4029999 -1.9529999 0.050000001
-5.1849999 9.3660002 -1.948 0.15000001
-5.2210002 9.3610001 -1.951 0.050000001
-5.244 9.3330002 -1.948 0.15000001
-5.2820001 9.3319998 -1.952 0.050000001
-5.3070002 9.3079996 -1.95 0.16
-5.3280001 9.3120003 -1.9529999 0.050000001
-5.349 9.2799997 -1.949 0.16
-5.388 9.2799997 -1.9529999 0.050000001
-5.415 9.2600002 -1.952 0.16
-5.448 9.2489996 -1.954 0.050000001
-5.4689999 9.2189999 -1.951 0.15000001
-5.5110002 9.2229996 -1.956 0.050000001
-5.5149999 9.198 -1.952 0.15000001
-5.5560002 9.1990004 -1.956 0.050000001
-5.5780001 9.1709995 -1.954 0.15000001
-5.619 9.1739998 -1.9579999 0.050000001
-5.6440001 9.1490002 -1.957 0.15000001
-5.6810002 9.1450005 -1.96 0.050000001
-5.698 9.1090002 -1.956 0.15000001
-5.7420001 9.1140003 -1.961 0.050000001
-5.7519999 9.0979996 -1.96 0.15000001
-5.7870002 9.0900002 -1.962 0.050000001
-5.8150001 9.0719995 -1.962 0.16
-5.849 9.0620003 -1.964 0.050000001
-5.8730001 9.0369997 -1.962 0.15000001
-5.9169998 9.0410004 -1.9680001 0.050000001
-5.9349999 9.0080004 -1.964 0.15000001
-5.9549999 9.007 -1.966 0.050000001
-5.973 8.9729996 -1.9630001 0.16
-6.0180001 8.9790001 -1.9680001 0.050000001
-6.033 8.941 -1.964 0.16
-6.0819998 8.9519997 -1.971 0.18000001
-6.1160002 8.941 -1.973 0.090000004
-6.1339998 8.908 -1.969 0.15000001
-6.152 8.9040003 -1.971 0.050000001
-6.1830001 8.8900003 -1.972 0.17
-6.2179999 8.8800001 -1.974 0.11
-6.2459998 8.8599997 -1.974 0.19
-6.29 8.8629999 -1.98 0.11
-6.316 8.842 -1.979 0.17
-6.3540001 8.8360004 -1.983 0.050000001
-6.3639998 8.8199997 -1.9809999 0.16
-6.3969998 8.8079996 -1.983 0.19
-6.428 8.7919998 -1.984 0.1
-6.4590001 8.7770004 -1.985 0.16
-6.4959998 8.7690001 -1.988 0.20999999
-6.5320001 8.7600002 -1.9910001 0.1
-6.5700002 8.7530003 -1.994 0.18000001
-6.5910001 8.7519999 -1.997 0.11
-6.6279998 8.7440004 -2 0.17
-6.6719999 8.7449999 -2.0050001 0.20999999
-6.7090001 8.7360001 -2.0079999 0.1
-6.744 8.7250004 -2.01 0.17
-6.789 8.7270002 -2.016 0.050000001
-6.8239999 8.7139997 -2.0179999 0.18000001
-6.855 8.7250004 -2.0239999 0.11
-6.8920002 8.7159996 -2.027 0.18000001
-6.9239998 8.6999998 -2.0280001 0.11
-6.9559999 8.6850004 -2.03 0.18000001
-6.9970002 8.6800003 -2.0339999 0.11
-7.026 8.6590004 -2.0339999 0.16
-7.0570002 8.6420002 -2.036 0.050000001
-7.0599999 8.618 -2.033 0.16
-7.0970001 8.6079998 -2.036 0.2
-7.125 8.5869999 -2.036 0.18000001
-7.1500001 8.5620003 -2.0350001 0.17
-7.1739998 8.5360003 -2.0339999 0.17
-7.1999998 8.5120001 -2.0339999 0.17
-7.2379999 8.5030003 -2.0369999 0.17
-7.2399998 8.4779997 -2.0339999 0.17
-7.2600002 8.448 -2.0320001 0.090000004
-7.289 8.4280005 -2.033 0.090000004
-7.3169999 8.4069996 -2.033 0.079999998
-7.3429999 8.3839998 -2.033 0.090000004
-7.3720002 8.3640003 -2.0339999 0.079999998
-7.3899999 8.3319998 -2.0320001 0.079999998
-7.401 8.3170004 -2.0309999 0.079999998
-7.4320002 8.3000002 -2.033 0.079999998
-7.4520001 8.2690001 -2.0309999 0.15000001
-7.4790001 8.2469997 -2.0309999 0.039999999
-7.5110002 8.2309999 -2.033 0.07
-7.52 8.1879997 -2.0280001 0.15000001
-7.5500002 8.1689997 -2.029 0.039999999
-7.5609999 8.1560001 -2.029 0.079999998
-7.5869999 8.132 -2.029 0.15000001
-7.6110001 8.1059999 -2.0280001 0.039999999
-7.6389999 8.085 -2.029 0.07
-7.6560001 8.0530005 -2.027 0.039999999
-7.6880002 8.0360003 -2.029 0.07
-7.7150002 8.0129995 -2.029 0.039999999
-7.7459998 7.994 -2.0309999 0.07
-7.7579999 7.9819999 -2.0309999 0.039999999
-7.789 7.9629998 -2.0320001 0.07
-7.7979999 7.9239998 -2.0280001 0.039999999
-7.829 7.9050002 -2.029 0
-7.8579998 7.8839998 -2.0309999 0
-7.8800001 7.8569999 -2.03 0.059999999
-7.888 7.8400002 -2.029 0.039999999
-7.915 7.8179998 -2.029 0.039999999
-7.9289999 7.7820001 -2.026 0.029999999
-7.9569998 7.7610002 -2.0280001 0.039999999
-7.9860001 7.7399998 -2.029 0
-8.0030003 7.7080002 -2.027 0
-8.0310001 7.6869998 -2.0280001 0
-8.0430002 7.6750002 -2.0280001 0
-8.059 7.6409998 -2.026 0
-8.0909996 7.6240001 -2.0280001 0
-8.1129999 7.5960002 -2.027 0
-8.132 7.566 -2.026 0
-8.1759996 7.559 -2.0309999 0
-8.184 7.5190001 -2.027 0
-8.2159996 7.5250001 -2.033 0
-8.2180004 7.4790001 -2.027 0
-8.2629995 7.473 -2.033 0
-8.2620001 7.4250002 -2.026 0
-8.302 7.414 -2.0309999 0
-8.3100004 7.3740001 -2.026 0
-8.3549995 7.3670001 -2.0320001 0
-8.3559999 7.322 -2.026 0
-8.3889999 7.3280001 -2.0320001 0
-8.3950005 7.2859998 -2.0280001 0
-8.401 7.2449999 -2.023 0
-8.4460001 7.2379999 -2.029 0
-8.4639997 7.2080002 -2.0280001 0
-8.4729996 7.1700001 -2.0250001 0
-8.5059996 7.152 -2.027 0
-8.5150003 7.1360002 -2.026 0
-8.5360003 7.1079998 -2.026 0
-8.5530005 7.0770001 -2.0250001 0
-8.5769997 7.052 -2.0250001 0
-8.5760002 7.006 -2.02 0
-8.6120005 6.9899998 -2.023 0
-8.6090002 6.9439998 -2.017 0
-8.6429996 6.948 -2.023 0
-8.6529999 6.9109998 -2.02 0
-8.651 6.8660002 -2.0139999 0
-8.677 6.842 -2.0150001 0
-8.7209997 6.8319998 -2.02 0
-8.717 6.7849998 -2.0139999 0
-8.7539997 6.77 -2.0179999 0
-8.7440004 6.7410002 -2.013 0
-8.7869997 6.73 -2.0179999 0
-8.776 6.677 -2.01 0
-8.8219995 6.6690001 -2.017 0
-8.8100004 6.6160002 -2.0090001 0
-8.8540001 6.6059999 -2.0139999 0
-8.849 6.559 -2.0079999 0
-8.8769999 6.5580001 -2.0120001 0
-8.8929996 6.527 -2.0109999 0
-8.901 6.4899998 -2.0079999 0
-8.934 6.4710002 -2.0109999 0
-8.9510002 6.441 -2.01 0
-8.9549999 6.401 -2.007 0
-8.9860001 6.381 -2.0090001 0
-8.9720001 6.3499999 -2.0039999 0
-9.0190001 6.3410001 -2.01 0
-9.0100002 6.2919998 -2.003 0
-9.0249996 6.2600002 -2.0020001 0
-9.0509996 6.2360001 -2.0039999 0
-9.085 6.2179999 -2.007 0
-9.0790005 6.1719999 -2.0009999 0
-9.0900002 6.1589999 -2.0009999 0
-9.1260004 6.1409998 -2.0050001 0
-9.1339998 6.105 -2.0020001 0
-9.1689997 6.0869999 -2.006 0
-9.1470003 6.0310001 -1.997 0
-9.1990004 6.0240002 -2.0039999 0
-9.21 5.9889998 -2.0020001 0
-9.224 5.9780002 -2.0039999 0
-9.2390003 5.947 -2.003 0
-9.2559996 5.9169998 -2.0020001 0
-9.2530003 5.8740001 -1.998 0
-9.2869997 5.8540001 -2.0009999 0
-9.2950001 5.8189998 -1.999 0
-9.323 5.796 -2.0009999 0
-9.3070002 5.7659998 -1.995 0
-9.3520002 5.7529998 -2.0009999 0
-9.3549995 5.7140002 -1.998 0
-9.3760004 5.6869998 -1.999 0
-9.4040003 5.664 -2.0009999 0
-9.4069996 5.625 -1.998 0
-9.4180002 5.5910001 -1.9960001 0
-9.4300003 5.579 -1.997 0
-9.4370003 5.5430002 -1.994 0
-9.4650002 5.5190001 -1.997 0
-9.4790001 5.487 -1.9960001 0
-9.4790001 5.448 -1.992 0
-9.5030003 5.4219999 -1.994 0
-9.5209999 5.3930001 -1.994 0
-9.5139999 5.369 -1.9910001 0
-9.4989996 5.3210001 -1.983 0
-9.5480003 5.3099999 -1.9910001 0
-9.5270004 5.2589998 -1.982 0
-9.5710001 5.244 -1.988 0
-9.5719995 5.2049999 -1.985 0
-9.5710001 5.1659999 -1.9809999 0
-9.5699997 5.1459999 -1.979 0
-9.5930004 5.1199999 -1.9809999 0
-9.6090002 5.0900002 -1.9809999 0
-9.6219997 5.0580001 -1.98 0
-9.6479998 5.033 -1.982 0
-9.6520004 4.9959998 -1.98 0
-9.6689997 4.967 -1.98 0
-9.6850004 4.9559999 -1.982 0
-9.6850004 4.9180002 -1.979 0
-9.7019997 4.888 -1.979 0
-9.7419996 4.8699999 -1.984 0
-9.7220001 4.822 -1.977 0
-9.7440004 4.7950001 -1.978 0
-9.7650003 4.7670002 -1.979 0
-9.7510004 4.7410002 -1.975 0
-9.7770004 4.7150002 -1.977 0
-9.7860003 4.6820002 -1.976 0.029999999
-9.8009996 4.651 -1.976 0.029999999
-9.8059998 4.6160002 -1.974 0.029999999
-9.823 4.586 -1.974 0.029999999
-9.823 4.5489998 -1.971 0.029999999
-9.8260002 4.5320001 -1.971 0.029999999
-9.8369999 4.4990001 -1.97 0.029999999
-9.8540001 4.4699998 -1.971 0.029999999
-9.8610001 4.4359999 -1.969 0.029999999
-9.8719997 4.4029999 -1.9680001 0.039999999
-9.8579998 4.3600001 -1.9630001 0.12
-9.8699999 4.329 -1.962 0.20999999
-9.8699999 4.3099999 -1.961 0.23
-9.8909998 4.2820001 -1.962 0.2
-9.9130001 4.2550001 -1.964 0.13
-9.9209995 4.2210002 -1.9630001 0.2
-9.9499998 4.197 -1.966 0.050000001
-9.96 4.164 -1.966 0.07
-9.9580002 4.1269999 -1.9630001 0.039999999
-9.9540005 4.1069999 -1.96 0.039999999
-9.9689999 4.0760002 -1.961 0.039999999
-9.9829998 4.046 -1.961 0.07
-9.9849997 4.0100002 -1.959 0.039999999
-9.9989996 3.9790001 -1.959 0.039999999
-10.006 3.9460001 -1.9579999 0.07
-10.03 3.9189999 -1.96 0.039999999
-10.027 3.8989999 -1.9579999 0
-10.035 3.8659999 -1.9579999 0.07
-10.044 3.8329999 -1.957 0.039999999
-10.059 3.803 -1.9579999 0
-10.055 3.7650001 -1.954 0
-10.063 3.7320001 -1.9529999 0.059999999
-10.069 3.6989999 -1.952 0.039999999
-10.08 3.6849999 -1.9529999 0.039999999
-10.092 3.6530001 -1.9529999 0.07
-10.098 3.6199999 -1.952 0.039999999
-10.103 3.586 -1.951 0.07
-10.107 3.552 -1.95 0.039999999
-10.127 3.523 -1.952 0.039999999
-10.131 3.4890001 -1.95 0.039999999
-10.138 3.473 -1.95 0.07
-10.138 3.438 -1.948 0.039999999
-10.143 3.404 -1.947 0.039999999
-10.158 3.3729999 -1.948 0.07
-10.17 3.342 -1.948 0.039999999
-10.173 3.3080001 -1.947 0
-10.168 3.2709999 -1.944 0
-10.183 3.2579999 -1.9450001 0
-10.201 3.2279999 -1.947 0
-10.201 3.1930001 -1.9450001 0
-10.207 3.1600001 -1.944 0
-10.208 3.125 -1.942 0
-10.212 3.0910001 -1.941 0
-10.227 3.0610001 -1.942 0.07
-10.211 3.039 -1.938 0.039999999
-10.229 3.0090001 -1.9400001 0.039999999
-10.236 2.9760001 -1.939 0.029999999
-10.24 2.9419999 -1.938 0.039999999
-10.241 2.908 -1.937 0.07
-10.252 2.8759999 -1.937 0.039999999
-10.252 2.842 -1.9349999 0.039999999
-10.266 2.8110001 -1.936 0.039999999
-10.257 2.7909999 -1.934 0.039999999
-10.264 2.7579999 -1.933 0
-10.277 2.727 -1.934 0
-10.276 2.6919999 -1.932 0
-10.288 2.661 -1.933 0
-10.283 2.625 -1.9299999 0
-10.298 2.612 -1.933 0.07
-10.299 2.5780001 -1.931 0.039999999
-10.307 2.5450001 -1.931 0.039999999
-10.311 2.5120001 -1.9299999 0.039999999
-10.304 2.4760001 -1.927 0.039999999
-10.311 2.444 -1.927 0.039999999
-10.329 2.414 -1.929 0.039999999
-10.344 2.4000001 -1.931 0.039999999
-10.34 2.365 -1.929 0.029999999
-10.34 2.3310001 -1.928 0.07
-10.356 2.3 -1.929 0.039999999
-10.346 2.2639999 -1.926 0
-10.359 2.233 -1.927 0.07
-10.38 2.2030001 -1.9299999 0.039999999
-10.37 2.184 -1.927 0.07
-10.382 2.152 -1.928 0.039999999
-10.4 2.122 -1.931 0.039999999
-10.399 2.0880001 -1.929 0.039999999
-10.408 2.056 -1.929 0.039999999
-10.428 2.0250001 -1.932 0.039999999
-10.432 1.992 -1.932 0
-10.431 1.975 -1.931 0
-10.449 1.9450001 -1.933 0
-10.434 1.908 -1.929 0
-10.451 1.877 -1.931 0
-10.469 1.846 -1.934 0
-10.465 1.812 -1.932 0
-10.465 1.778 -1.931 0
-10.481 1.7640001 -1.933 0
-10.471 1.728 -1.9299999 0
-10.484 1.697 -1.932 0
-10.497 1.665 -1.933 0
-10.502 1.632 -1.933 0
-10.504 1.598 -1.933 0
-10.522 1.567 -1.9349999 0.059999999
-10.499 1.5470001 -1.9299999 0.039999999
-10.504 1.5140001 -1.9299999 0.029999999
-10.524 1.483 -1.933 0.13
-10.517 1.449 -1.931 0.16
-10.504 1.413 -1.928 0.22
-10.515 1.381 -1.929 0.23999999
-10.505 1.346 -1.926 0.2
-10.531 1.3329999 -1.931 0.16
-10.56 1.303 -1.936 0
-10.543 1.267 -1.931 0
-10.545 1.234 -1.931 0
-10.556 1.201 -1.933 0
-10.55 1.1670001 -1.931 0
-10.558 1.1339999 -1.931 0
-10.564 1.118 -1.932 0
-10.561 1.084 -1.931 0
-10.566 1.051 -1.931 0
-10.58 1.0190001 -1.933 0
-10.571 0.98500001 -1.931 0
-10.576 0.95200002 -1.931 0
-10.616 0.92199999 -1.939 0
-10.584 0.90200001 -1.932 0
-10.583 0.86900002 -1.931 0
-10.596 0.83600003 -1.933 0
-10.586 0.80199999 -1.931 0
-10.62 0.77100003 -1.937 0
-10.593 0.736 -1.931 0
-10.588 0.70200002 -1.9299999 0
-10.628 0.68800002 -1.937 0
-10.62 0.65399998 -1.936 0
-10.638 0.62099999 -1.939 0
-10.597 0.58499998 -1.9299999 0
-10.647 0.55500001 -1.9400001 0
-10.618 0.51999998 -1.934 0
-10.61 0.486 -1.932 0
-10.653 0.47099999 -1.9400001 0
-10.604 0.43599999 -1.9299999 0
-10.611 0.40200001 -1.931 0
-10.614 0.36899999 -1.932 0
-10.607 0.336 -1.9299999 0
-10.646 0.303 -1.937 0
-10.651 0.27000001 -1.938 0
-10.608 0.252 -1.9299999 0
-10.626 0.219 -1.933 0
-10.621 0.186 -1.932 0
-10.612 0.152 -1.9299999 0
-10.614 0.119 -1.931 0
-10.616 0.086000003 -1.931 0
-10.603 0.052000001 -1.928 0
-10.605 0.035999998 -1.929 0
-10.619 0.0020000001 -1.931 0
-10.595 -0.030999999 -1.927 0
-10.601 -0.064000003 -1.928 0
-10.608 -0.097999997 -1.929 0
-10.604 -0.131 -1.929 0
-10.606 -0.164 -1.929 0
-10.611 -0.18099999 -1.9299999 0
-10.599 -0.214 -1.928 0
-10.596 -0.24699999 -1.928 0
-10.603 -0.28099999 -1.929 0
-10.59 -0.31400001 -1.927 0
-10.603 -0.34799999 -1.929 0
-10.608 -0.38100001 -1.931 0
-10.586 -0.39700001 -1.926 0
-10.584 -0.43000001 -1.926 0
-10.597 -0.46399999 -1.929 0
-10.589 -0.49700001 -1.928 0
-10.578 -0.52999997 -1.926 0
-10.61 -0.565 -1.933 0
-10.578 -0.597 -1.927 0
-10.576 -0.63 -1.927 0
-10.577 -0.64600003 -1.927 0
-10.567 -0.67900002 -1.926 0
-10.573 -0.713 -1.927 0
-10.6 -0.74800003 -1.933 0
-10.555 -0.778 -1.925 0
-10.566 -0.81300002 -1.927 0
-10.559 -0.829 -1.926 0
-10.587 -0.86400002 -1.932 0
-10.555 -0.89499998 -1.926 0
-10.582 -0.93099999 -1.932 0
-10.557 -0.96200001 -1.928 0
-10.585 -0.99800003 -1.934 0
-10.547 -1.028 -1.927 0
-10.569 -1.0470001 -1.932 0
-10.544 -1.0779999 -1.928 0
-10.548 -1.112 -1.929 0
-10.566 -1.147 -1.933 0
-10.537 -1.178 -1.928 0
-10.555 -1.2130001 -1.933 0
-10.53 -1.244 -1.928 0
-10.559 -1.2640001 -1.934 0
-10.518 -1.293 -1.927 0
-10.545 -1.33 -1.933 0
-10.531 -1.362 -1.931 0
-10.556 -1.399 -1.937 0
-10.509 -1.426 -1.929 0
-10.51 -1.443 -1.929 0
-10.506 -1.476 -1.929 0.029999999
-10.489 -1.507 -1.927 0.029999999
-10.492 -1.541 -1.929 0.029999999
-10.487 -1.574 -1.929 0.029999999
-10.465 -1.605 -1.925 0.029999999
-10.462 -1.638 -1.926 0.029999999
-10.473 -1.656 -1.928 0.029999999
-10.458 -1.688 -1.926 0.029999999
-10.458 -1.722 -1.928 0.029999999
-10.455 -1.755 -1.928 0.039999999
-10.445 -1.7869999 -1.927 0.029999999
-10.438 -1.819 -1.927 0.039999999
-10.438 -1.853 -1.928 0.029999999
-10.435 -1.87 -1.928 0.07
-10.421 -1.901 -1.926 0.039999999
-10.415 -1.934 -1.926 0.039999999
-10.399 -1.964 -1.925 0.039999999
-10.385 -1.9960001 -1.923 0.029999999
-10.389 -2.03 -1.925 0.039999999
-10.38 -2.062 -1.925 0.039999999
-10.381 -2.079 -1.925 0.07
-10.382 -2.1140001 -1.927 0.039999999
-10.379 -2.1470001 -1.928 0.07
-10.372 -2.1800001 -1.928 0.039999999
-10.373 -2.214 -1.929 0.07
-10.364 -2.2460001 -1.929 0.039999999
-10.371 -2.2820001 -1.931 0.07
-10.377 -2.3 -1.933 0.039999999
-10.362 -2.3310001 -1.932 0.07
-10.368 -2.3670001 -1.934 0.16
-10.364 -2.4000001 -1.9349999 0.16
-10.307 -2.421 -1.925 0.039999999
-10.221 -2.434 -1.91 0.039999999
-10.146 -2.45 -1.896 0.039999999
-10.103 -2.4560001 -1.888 0.07
-10.066 -2.4809999 -1.883 0.039999999
-10.064 -2.5139999 -1.8839999 0.07
-10.047 -2.543 -1.882 0.039999999
-10.012 -2.5680001 -1.877 0
-9.9919996 -2.596 -1.874 0
-9.9799995 -2.6259999 -1.874 0
-9.974 -2.642 -1.873 0
-9.9849997 -2.678 -1.877 0
-9.9580002 -2.704 -1.873 0
-9.9700003 -2.7409999 -1.877 0
-9.9289999 -2.7639999 -1.8710001 0
-9.8660002 -2.779 -1.86 0
-9.559 -2.724 -1.8 0
-9.3109999 -2.6689999 -1.751 0
-9.2220001 -2.674 -1.734 0
-9.1429996 -2.6830001 -1.72 0
-9.0089998 -2.674 -1.6950001 0
-8.9989996 -2.701 -1.6950001 0
-8.9680004 -2.723 -1.6900001 0
-8.9099998 -2.7360001 -1.6799999 0
-8.8030005 -2.7179999 -1.659 0
-8.6429996 -2.697 -1.628 0
-8.4750004 -2.674 -1.596 0
-6.8429999 -2.576 -1.291 0
-6.8610001 -2.6070001 -1.2970001 0
-6.8179998 -2.615 -1.289 0
-6.651 -2.5739999 -1.256 0
-6.5770001 -2.569 -1.243 0
-6.5289998 -2.5739999 -1.234 0
-6.4910002 -2.5829999 -1.228 0
-6.46 -2.582 -1.222 0
-6.1279998 -2.6400001 -1.1670001 0
-6.1659999 -2.6789999 -1.177 0
-6.152 -2.6960001 -1.176 0.02
-6.1529999 -2.72 -1.178 0.13
-6.1409998 -2.737 -1.177 0.16
-6.1420002 -2.7490001 -1.178 0.20999999
-6.138 -2.7709999 -1.179 0.12
-6.112 -2.7820001 -1.176 0.090000004
-6.1009998 -2.8010001 -1.175 0.079999998
-6.0640001 -2.806 -1.169 0
-6.0710001 -2.8329999 -1.173 0.11
-6.1040001 -2.8840001 -1.183 0.44999999
-6.112 -2.911 -1.186 0.20999999
-6.1240001 -2.941 -1.191 0.2
-6.1149998 -2.96 -1.191 0.36000001
-6.1110001 -2.9820001 -1.192 0.5
-6.0929999 -2.997 -1.1900001 0
-6.0219998 -2.9849999 -1.177 0
-5.9349999 -3.023 -1.165 0
-5.9159999 -3.0369999 -1.163 0
-5.902 -3.053 -1.1619999 0
-5.9320002 -3.0929999 -1.171 0
-5.9530001 -3.1159999 -1.176 0
-5.9520001 -3.1389999 -1.178 0
-5.9450002 -3.1600001 -1.179 0
-5.9650002 -3.194 -1.186 0
-5.9530001 -3.2119999 -1.1849999 0
-5.8969998 -3.2290001 -1.177 0
-5.868 -3.2249999 -1.1720001 0
-5.8759999 -3.2539999 -1.176 0
-5.8779998 -3.279 -1.179 0
-5.8850002 -3.3069999 -1.183 0
-5.9239998 -3.3540001 -1.194 0
-5.934 -3.3840001 -1.198 0
-5.8839998 -3.3929999 -1.1900001 0
-5.9070001 -3.431 -1.198 0
-5.928 -3.4679999 -1.205 0
-5.8959999 -3.5 -1.2029999 0
-5.8769999 -3.513 -1.201 0
-5.8720002 -3.536 -1.2029999 0
-5.9120002 -3.572 -1.2130001 0
-5.9130001 -3.598 -1.216 0
-5.9250002 -3.631 -1.221 0
-5.849 -3.674 -1.2130001 0
-5.8530002 -3.7019999 -1.216 0
-4.2750001 -2.714 -0.85600001 0
-4.2659998 -2.7279999 -0.85600001 0
-4.2459998 -2.734 -0.85299999 0.11
-4.2410002 -2.7490001 -0.85399997 0.16
-4.2319999 -2.7620001 -0.85399997 0
-4.2150002 -2.77 -0.852 0
-4.2319999 -2.7909999 -0.85699999 0
-4.2329998 -2.8110001 -0.85900003 0
-7.7259998 -5.46 -1.707 0.029999999
-7.678 -5.4629998 -1.7 0.16
-7.6700001 -5.493 -1.702 0.050000001
-7.645 -5.5120001 -1.7 0.15000001
-7.6360002 -5.5240002 -1.7 0.050000001
-7.5999999 -5.5339999 -1.696 0.15000001
-7.5910001 -5.5640001 -1.698 0.18000001
-7.5749998 -5.5890002 -1.698 0.18000001
-7.5489998 -5.6059999 -1.696 0.18000001
-7.5219998 -5.6230001 -1.694 0.090000004
-7.4970002 -5.6409998 -1.692 0.090000004
-7.4860001 -5.651 -1.692 0.090000004
-7.4619999 -5.6700001 -1.6900001 0.090000004
-7.441 -5.691 -1.689 0.090000004
-7.414 -5.7069998 -1.687 0.090000004
-7.3930001 -5.7280002 -1.686 0.090000004
-7.3759999 -5.7519999 -1.687 0.090000004
-7.3720002 -5.7680001 -1.688 0.090000004
-7.3379998 -5.7789998 -1.684 0.090000004
-7.3119998 -5.7950001 -1.682 0.079999998
-7.2880001 -5.8130002 -1.681 0.079999998
-7.2620001 -5.8299999 -1.679 0.079999998
-7.2420001 -5.8520002 -1.678 0
-7.2220001 -5.8730001 -1.678 0
-6.0409999 -4.9229999 -1.3839999 0.050000001
-6.0359998 -4.9510002 -1.387 0
-6.0100002 -4.961 -1.3839999 0
-7.1199999 -5.921 -1.668 0.029999999
-7.1040001 -5.9460001 -1.669 0.079999998
-7.0879998 -5.9699998 -1.67 0.079999998
-7.053 -5.9790001 -1.666 0.079999998
-7.0430002 -6.0089998 -1.668 0.079999998
-7.0310001 -6.0170002 -1.6670001 0.16
-7.0009999 -6.0300002 -1.665 0.16
-6.98 -6.0489998 -1.664 0.16
-6.9580002 -6.0689998 -1.663 0.039999999
-6.9369998 -6.0890002 -1.663 0.079999998
-6.9159999 -6.1100001 -1.6619999 0.16
-6.901 -6.1149998 -1.661 0.039999999
-6.8800001 -6.1360002 -1.66 0.07
-6.8540001 -6.151 -1.658 0.16
-6.8330002 -6.171 -1.658 0.039999999
-6.809 -6.1880002 -1.6569999 0.07
-6.7820001 -6.2030001 -1.655 0.16
-6.7579999 -6.2199998 -1.654 0.039999999
-6.737 -6.2199998 -1.651 0.079999998
-6.7129998 -6.237 -1.65 0.079999998
-6.697 -6.2610002 -1.65 0.079999998
-6.678 -6.283 -1.651 0.079999998
-6.6529999 -6.2989998 -1.649 0.079999998
-6.6399999 -6.3270001 -1.651 0.079999998
-6.6069999 -6.335 -1.648 0.079999998
-6.5900002 -6.3390002 -1.646 0.16
-6.5689998 -6.3579998 -1.646 0.16
-6.552 -6.381 -1.646 0.16
-6.5279999 -6.3979998 -1.645 0.17
-6.506 -6.4169998 -1.645 0.17
-6.4759998 -6.428 -1.642 0.17
-6.4460001 -6.4380002 -1.6390001 0.18000001
-6.4429998 -6.4549999 -1.641 0.17
-6.4130001 -6.4660001 -1.6390001 0.16
-6.3870001 -6.48 -1.637 0.16
-6.375 -6.5089998 -1.6390001 0.17
-6.349 -6.5229998 -1.638 0.039999999
-4.4679999 -4.6079998 -1.118 0.12
-4.4439998 -4.612 -1.1160001 0.28999999
-4.4229999 -4.605 -1.112 0.31999999
-4.3920002 -4.6020002 -1.107 0.27000001
-4.3699999 -4.6069999 -1.105 0.28999999
-4.3509998 -4.6170001 -1.104 0.28
-4.302 -4.5929999 -1.094 0.30000001
-4.2820001 -4.5999999 -1.092 0.28
-4.2690001 -4.6149998 -1.0930001 0.28
-4.2379999 -4.5960002 -1.086 0.28
-4.2119999 -4.5960002 -1.0829999 0.28
-4.204 -4.6170001 -1.084 0.25999999
-4.1659999 -4.6040001 -1.0779999 0.28
-4.1459999 -4.6110001 -1.076 0.28
-4.1110001 -4.5999999 -1.0700001 0.27000001
-4.0809999 -4.5949998 -1.0650001 0.33000001
-4.0599999 -4.5869999 -1.062 0.30000001
-4.0419998 -4.5949998 -1.0599999 0.31
-4.0250001 -4.605 -1.0599999 0.31999999
-3.9909999 -4.5949998 -1.054 0.36000001
-3.9779999 -4.6090002 -1.054 0.28999999
-3.971 -4.631 -1.057 0.33000001
-3.9760001 -4.6659999 -1.062 0.33000001
-3.9909999 -4.6989999 -1.069 0.28999999
-3.987 -4.724 -1.072 0.33000001
-3.9679999 -4.7319999 -1.071 0.18000001
-3.9860001 -4.783 -1.081 0.31
-3.9879999 -4.8169999 -1.086 0.22
-3.97 -4.8270001 -1.086 0.17
-3.9849999 -4.8759999 -1.095 0.27000001
-3.9820001 -4.888 -1.096 0.23999999
-3.9679999 -4.902 -1.097 0.27000001
-3.971 -4.9380002 -1.102 0.27000001
-3.96 -4.9559999 -1.104 0.25999999
-3.9560001 -4.9819999 -1.107 0.25999999
-3.9630001 -5.0240002 -1.114 0.25
-3.9590001 -5.052 -1.118 0.25999999
-3.96 -5.0689998 -1.1210001 0.25999999
-3.96 -5.1030002 -1.126 0.25
-3.9790001 -5.1609998 -1.137 0.27000001
-3.9519999 -5.1599998 -1.1339999 0.18000001
-3.9630001 -5.2080002 -1.143 0.30000001
-5.381 -7.1339998 -1.6059999 0.17
-5.3509998 -7.1399999 -1.603 0.19
-5.349 -7.1609998 -1.6059999 0.12
-5.3150001 -7.1620002 -1.602 0.2
-5.2779999 -7.1589999 -1.598 0.17
-5.2659998 -7.1900001 -1.601 0.28
-5.237 -7.197 -1.599 0.25
-5.1989999 -7.1929998 -1.594 0.27000001
-5.1830001 -7.2189999 -1.596 0.27000001
-5.1630001 -7.2140002 -1.5930001 0.28999999
-5.1300001 -7.2160001 -1.59 0.30000001
-5.0929999 -7.211 -1.585 0.28999999
-5.0619998 -7.2160001 -1.582 0.30000001
-5.0209999 -7.2059999 -1.576 0.28999999
-4.9910002 -7.21 -1.573 0.28999999
-4.9580002 -7.211 -1.5700001 0.28999999
-4.941 -7.211 -1.568 0.28999999
-4.9060001 -7.2069998 -1.563 0.28999999
-4.875 -7.211 -1.561 0.30000001
-4.8379998 -7.2049999 -1.556 0.30000001
-4.8099999 -7.2119999 -1.554 0.30000001
-4.777 -7.21 -1.55 0.30000001
-4.7410002 -7.2059999 -1.546 0.28
-4.7210002 -7.1999998 -1.543 0.31
-4.6890001 -7.1999998 -1.539 0.28999999
-4.658 -7.2010002 -1.536 0.28999999
-4.6259999 -7.2010002 -1.533 0.31
-4.598 -7.2069998 -1.531 0.30000001
-4.5640001 -7.2030001 -1.527 0.30000001
-4.5349998 -7.2080002 -1.524 0.30000001
-4.5180001 -7.2069998 -1.522 0.31
-4.4840002 -7.2020001 -1.518 0.30000001
-4.4450002 -7.1900001 -1.512 0.31
-4.4180002 -7.1950002 -1.51 0.27000001
-4.3850002 -7.1919999 -1.506 0.27000001
-4.3530002 -7.191 -1.503 0.30000001
-4.323 -7.1929998 -1.5 0.30000001
-4.303 -7.184 -1.497 0.28999999
-4.2659998 -7.1739998 -1.492 0.28999999
-4.2399998 -7.1810002 -1.49 0.28999999
-4.2160001 -7.1919999 -1.49 0.30000001
-4.1859999 -7.1919999 -1.487 0.30000001
-4.1550002 -7.191 -1.484 0.30000001
-4.1230001 -7.1869998 -1.48 0.30000001
-4.1020002 -7.177 -1.476 0.30000001
-4.072 -7.1760001 -1.473 0.30000001
-4.0489998 -7.1890001 -1.473 0.31999999
-4.0139999 -7.1789999 -1.4680001 0.28999999
-3.9879999 -7.1849999 -1.466 0.28999999
-3.9549999 -7.178 -1.462 0.34
-3.925 -7.177 -1.459 0.28999999
-3.9159999 -7.1880002 -1.46 0.25999999
-3.8870001 -7.1880002 -1.4579999 0.28999999
-3.8529999 -7.178 -1.4529999 0.28999999
-3.8269999 -7.1849999 -1.452 0.30000001
-3.7969999 -7.1810002 -1.448 0.30000001
-3.7690001 -7.1830001 -1.446 0.31999999
-3.756 -7.1869998 -1.446 0.28999999
-3.7279999 -7.1859999 -1.443 0.27000001
-3.697 -7.1820002 -1.439 0.28999999
-3.665 -7.1750002 -1.4349999 0.28
-3.641 -7.184 -1.4349999 0.31
-3.6110001 -7.1799998 -1.432 0.28
-3.586 -7.1880002 -1.431 0.31999999
-3.572 -7.1880002 -1.4299999 0.30000001
-3.54 -7.178 -1.425 0.28999999
-3.513 -7.1799998 -1.423 0.30000001
-3.484 -7.1789999 -1.42 0.31
-3.4519999 -7.1700001 -1.416 0.28999999
-3.4300001 -7.1810002 -1.416 0.30000001
-3.405 -7.1880002 -1.416 0.33000001
-3.385 -7.1739998 -1.411 0.30000001
-3.3559999 -7.1700001 -1.408 0.28
-3.329 -7.1719999 -1.406 0.30000001
-3.303 -7.1750002 -1.405 0.30000001
-3.2809999 -7.1859999 -1.405 0.31999999
-3.2520001 -7.1820002 -1.402 0.27000001
-3.2279999 -7.1900001 -1.401 0.31999999
-3.2119999 -7.1820002 -1.399 0.30000001
-3.1830001 -7.1799998 -1.396 0.31
-3.1559999 -7.1789999 -1.3940001 0.30000001
-3.1270001 -7.1750002 -1.391 0.30000001
-3.0940001 -7.1589999 -1.386 0.28
-3.079 -7.1869998 -1.3890001 0.31999999
-3.0420001 -7.1620002 -1.382 0.28
-3.0320001 -7.1700001 -1.383 0.31999999
-3.01 -7.1799998 -1.383 0.31
-2.9779999 -7.1680002 -1.378 0.30000001
-2.951 -7.1659999 -1.376 0.27000001
-2.9289999 -7.1750002 -1.376 0.28999999
-2.898 -7.164 -1.372 0.28999999
-2.872 -7.164 -1.37 0.28999999
-2.8599999 -7.1669998 -1.37 0.31
-2.832 -7.1609998 -1.367 0.31
-2.806 -7.1630001 -1.365 0.28999999
-2.7850001 -7.1729999 -1.365 0.28999999
-2.7550001 -7.164 -1.362 0.30000001
-2.727 -7.158 -1.359 0.27000001
-2.7060001 -7.1700001 -1.359 0.31
-2.687 -7.1539998 -1.355 0.28999999
-2.665 -7.1620002 -1.355 0.28999999
-2.6440001 -7.1760001 -1.3559999 0.28999999
-2.6110001 -7.1550002 -1.35 0.28
-2.5840001 -7.1500001 -1.347 0.28999999
-2.5669999 -7.1729999 -1.351 0.30000001
-2.5339999 -7.151 -1.344 0.28999999
-2.5209999 -7.152 -1.344 0.31
-2.4990001 -7.1599998 -1.344 0.31
-2.473 -7.158 -1.342 0.33000001
-2.4430001 -7.1440001 -1.337 0.28999999
-2.4230001 -7.1589999 -1.339 0.31
-2.3940001 -7.1459999 -1.335 0.30000001
-2.3710001 -7.1529999 -1.335 0.28999999
-2.3599999 -7.1570001 -1.335 0.34
-2.3329999 -7.151 -1.332 0.25999999
-2.3110001 -7.158 -1.332 0.28
-2.286 -7.1599998 -1.331 0.30000001
-2.26 -7.1539998 -1.3279999 0.28999999
-2.234 -7.1500001 -1.326 0.30000001
-2.21 -7.1529999 -1.325 0.28
-2.198 -7.1529999 -1.324 0.28999999
-2.1730001 -7.1500001 -1.322 0.28999999
-2.1489999 -7.1529999 -1.322 0.30000001
-2.1229999 -7.1490002 -1.319 0.30000001
-2.098 -7.1459999 -1.317 0.30000001
-2.0739999 -7.1469998 -1.316 0.30000001
-2.0539999 -7.1609998 -1.318 0.30000001
-2.0350001 -7.1399999 -1.313 0.31
-2.0109999 -7.138 -1.311 0.31
-1.989 -7.1459999 -1.312 0.31999999
-1.96 -7.1300001 -1.307 0.30000001
-1.938 -7.138 -1.308 0.30000001
-1.9170001 -7.1479998 -1.308 0.34
-1.89 -7.1370001 -1.3049999 0.33000001
-1.875 -7.1240001 -1.302 0.28999999
-1.854 -7.1339998 -1.303 0.34
-1.831 -7.1399999 -1.303 0.31999999
-1.806 -7.1360002 -1.301 0.31
-1.784 -7.1440001 -1.301 0.30000001
-1.7589999 -7.1360002 -1.298 0.30000001
-1.745 -7.1290002 -1.2970001 0.30000001
-1.721 -7.1290002 -1.295 0.28999999
-1.699 -7.1360002 -1.296 0.30000001
-1.674 -7.1300001 -1.294 0.28999999
-1.651 -7.1290002 -1.2920001 0.30000001
-1.63 -7.1440001 -1.294 0.28999999
-1.6059999 -7.1420002 -1.293 0.31999999
-1.5829999 -7.1430001 -1.2920001 0.31
-1.5700001 -7.1389999 -1.291 0.31
-1.544 -7.1230001 -1.2869999 0.28999999
-1.522 -7.132 -1.2869999 0.30000001
-1.499 -7.1350002 -1.2869999 0.28999999
-1.477 -7.1409998 -1.2869999 0.30000001
-1.452 -7.1300001 -1.284 0.28999999
-1.428 -7.1290002 -1.283 0.30000001
-1.414 -7.1160002 -1.28 0.30000001
-1.391 -7.119 -1.28 0.28999999
-1.369 -7.1269999 -1.281 0.31999999
-1.346 -7.1230001 -1.279 0.28999999
-1.324 -7.1329999 -1.28 0.30000001
-1.302 -7.1350002 -1.28 0.30000001
-1.277 -7.1279998 -1.278 0.30000001
-1.268 -7.1409998 -1.28 0.30000001
-1.242 -7.1279998 -1.276 0.28999999
-1.219 -7.1279998 -1.276 0.30000001
-1.197 -7.1339998 -1.276 0.30000001
-1.174 -7.1339998 -1.275 0.28999999
-1.149 -7.1220002 -1.272 0.28
-1.138 -7.1220002 -1.272 0.28999999
-1.1160001 -7.1290002 -1.273 0.31999999
-1.09 -7.105 -1.267 0.20999999
-1.0700001 -7.1259999 -1.271 0.07
-0.671 -4.5019999 -0.75700003 0.18000001
-0.65700001 -4.5019999 -0.75599998 0.27000001
-0.64300001 -4.5100002 -0.75800002 0.28999999
-0.634 -4.4970002 -0.755 0.28
-0.62 -4.493 -0.75400001 0.27000001
-0.60799998 -4.513 -0.75700003 0.23999999
-0.58999997 -4.487 -0.75199997 0.15000001
-0.57599998 -4.4910002 -0.75199997 0.31999999
-0.56199998 -4.4910002 -0.75199997 0.25
-0.54799998 -4.494 -0.75199997 0.27000001
-0.54100001 -4.4949999 -0.75199997 0.25999999
-0.52700001 -4.4990001 -0.75300002 0.27000001
-0.51200002 -4.493 -0.75099999 0.27000001
-0.49900001 -4.5019999 -0.75300002 0.25999999
-0.48500001 -4.5079999 -0.75300002 0.27000001
-0.47 -4.5009999 -0.75199997 0.27000001
-0.45500001 -4.4949999 -0.75 0.27000001
-0.44800001 -4.5 -0.75099999 0.27000001
-0.43399999 -4.4970002 -0.75 0.27000001
-0.421 -4.5120001 -0.75300002 0.23999999
-0.405 -4.4860001 -0.74800003 0.15000001
-0.39199999 -4.5110002 -0.75199997 0.31
-0.37599999 -4.4850001 -0.74699998 0.23
-0.36300001 -4.5029998 -0.75 0.25999999
-0.35499999 -4.494 -0.74800003 0.27000001
-0.34200001 -4.507 -0.75099999 0.27000001
-0.32800001 -4.506 -0.75 0.28
-0.31400001 -4.5050001 -0.75 0.28
-0.29899999 -4.494 -0.74800003 0.28
-0.28400001 -4.493 -0.74699998 0.28999999
-0.271 -4.5040002 -0.74900001 0.28999999
-0.264 -4.5079999 -0.75 0.28999999
-0.249 -4.493 -0.74699998 0.28
-0.235 -4.4899998 -0.74599999 0.28
-0.221 -4.4970002 -0.74699998 0.28
-0.207 -4.4920001 -0.74599999 0.27000001
-0.193 -4.5 -0.74800003 0.27000001
-0.17900001 -4.5100002 -0.75 0.27000001
-0.171 -4.4970002 -0.74699998 0.25999999
-0.15700001 -4.4899998 -0.745 0.27000001
-0.14300001 -4.5040002 -0.74800003 0.27000001
-0.12899999 -4.5 -0.74699998 0.27000001
-0.115 -4.4910002 -0.745 0.25999999
-0.101 -4.4889998 -0.745 0.16
-0.086000003 -4.4879999 -0.745 0.28999999
-0.079000004 -4.4899998 -0.745 0.23
-0.064999998 -4.5 -0.74699998 0.25
-0.050999999 -4.4920001 -0.745 0.27000001
-0.037 -4.4980001 -0.74599999 0.27000001
-0.023 -4.5040002 -0.74800003 0.25999999
-0.0089999996 -4.4980001 -0.74599999 0.27000001
0.0049999999 -4.4920001 -0.745 0.27000001
0.012 -4.5040002 -0.74800003 0.27000001
0.026000001 -4.4920001 -0.745 0.27000001
0.039999999 -4.4879999 -0.745 0.28
0.055 -4.4959998 -0.74599999 0.27000001
0.068999998 -4.4840002 -0.74400002 0.27000001
0.082999997 -4.494 -0.74599999 0.27000001
0.090000004 -4.4990001 -0.74699998 0.27000001
0.104 -4.4970002 -0.74599999 0.27000001
0.118 -4.4970002 -0.74599999 0.27000001
0.133 -4.5019999 -0.74800003 0.27000001
0.146 -4.4879999 -0.745 0.27000001
0.16 -4.4819999 -0.74400002 0.27000001
0.175 -4.5029998 -0.74800003 0.25
0.18799999 -4.4790001 -0.74299997 0.14
0.19599999 -4.494 -0.74599999 0.31
0.20999999 -4.493 -0.74599999 0.22
0.22400001 -4.4910002 -0.74599999 0.25999999
0.23800001 -4.4860001 -0.745 0.28
0.252 -4.4910002 -0.74599999 0.27000001
0.26699999 -4.4899998 -0.74599999 0.27000001
0.28 -4.4860001 -0.74599999 0.28
0.28799999 -4.493 -0.74699998 0.28
0.30199999 -4.4920001 -0.74699998 0.27000001
0.31600001 -4.493 -0.74800003 0.27000001
0.331 -4.494 -0.74800003 0.28
0.345 -4.4970002 -0.74900001 0.27000001
0.35800001 -4.48 -0.74599999 0.28
0.36500001 -4.48 -0.74599999 0.27000001
0.38 -4.4879999 -0.74800003 0.27000001
0.39300001 -4.4790001 -0.74599999 0.27000001
0.40799999 -4.4819999 -0.74699998 0.28
0.42199999 -4.4819999 -0.74699998 0.27000001
0.435 -4.4749999 -0.74599999 0.27000001
0.45100001 -4.4879999 -0.74900001 0.27000001
0.45899999 -4.493 -0.75 0.27000001
0.47299999 -4.493 -0.75 0.25
0.48300001 -4.46 -0.74400002 0.14
0.49900001 -4.473 -0.74699998 0.30000001
0.514 -4.4749999 -0.74800003 0.23999999
0.52899998 -4.4850001 -0.75 0.27000001
0.54100001 -4.4699998 -0.74699998 0.28
0.54900002 -4.4770002 -0.74900001 0.28999999
0.56300002 -4.467 -0.74699998 0.28999999
0.57800001 -4.4770002 -0.75 0.28999999
0.59299999 -4.4829998 -0.75099999 0.28999999
0.60699999 -4.4770002 -0.75 0.28
0.62099999 -4.4749999 -0.75 0.28
0.63499999 -4.4770002 -0.75099999 0.27000001
0.64300001 -4.48 -0.75199997 0.27000001
0.65700001 -4.4780002 -0.75199997 0.27000001
0.67199999 -4.48 -0.75300002 0.27000001
0.685 -4.4699998 -0.75099999 0.27000001
0.69999999 -4.473 -0.75199997 0.27000001
0.713 -4.4650002 -0.75099999 0.27000001
0.73000002 -4.4809999 -0.75400001 0.27000001
0.736 -4.4759998 -0.75400001 0.27000001
0.75199997 -4.4829998 -0.75599998 0.25999999
0.76700002 -4.4840002 -0.75599998 0.23999999
0.77899998 -4.4720001 -0.75400001 0.15000001
0.79400003 -4.474 -0.755 0.31999999
0.81 -4.4850001 -0.75800002 0.23999999
0.824 -4.48 -0.75800002 0.27000001
0.82999998 -4.4749999 -0.75700003 0.28
0.84399998 -4.4699998 -0.75599998 0.28999999
0.86000001 -4.4770002 -0.75800002 0.28999999
0.87699997 -4.4899998 -0.76099998 0.28999999
0.88700002 -4.4660001 -0.75700003 0.28
0.90399998 -4.4770002 -0.75999999 0.28
0.921 -4.4889998 -0.76300001 0.25999999
0.926 -4.4780002 -0.76099998 0.28999999
0.94099998 -4.4809999 -0.76200002 0.28999999
0.95899999 -4.493 -0.76499999 0.25999999
0.97100002 -4.4809999 -0.76300001 0.28999999
0.98400003 -4.4759998 -0.76300001 0.28
0.99800003 -4.473 -0.76300001 0.25999999
1.013 -4.4710002 -0.76300001 0.25999999
1.023 -4.4809999 -0.76499999 0.28999999
1.036 -4.474 -0.76499999 0.28999999
1.052 -4.4790001 -0.76599997 0.28999999
1.0700001 -4.4920001 -0.76999998 0.27000001
1.085 -4.493 -0.76999998 0.27000001
1.099 -4.4879999 -0.76999998 0.28
1.107 -4.4920001 -0.77100003 0.28
1.118 -4.4770002 -0.76899999 0.28999999
1.132 -4.4710002 -0.76899999 0.28999999
1.149 -4.4809999 -0.77100003 0.27000001
1.166 -4.4889998 -0.773 0.23999999
1.183 -4.493 -0.77499998 0.27000001
1.196 -4.487 -0.77499998 0.27000001
1.205 -4.493 -0.77600002 0.28
1.22 -4.493 -0.77700001 0.28999999
1.2359999 -4.493 -0.778 0.28
1.251 -4.4920001 -0.778 0.28
1.263 -4.4809999 -0.77700001 0.30000001
1.278 -4.4809999 -0.778 0.28999999
1.293 -4.48 -0.778 0.28999999
1.302 -4.4860001 -0.77999997 0.27000001
1.317 -4.4840002 -0.77999997 0.25999999
1.334 -4.4889998 -0.78200001 0.27000001
1.353 -4.5 -0.78500003 0.28
1.363 -4.4840002 -0.78299999 0.28999999
1.3789999 -4.4840002 -0.78399998 0.28999999
1.398 -4.4959998 -0.787 0.28999999
1.403 -4.4860001 -0.78600001 0.27000001
1.419 -4.4879999 -0.787 0.28
1.437 -4.4959998 -0.78899997 0.28
1.451 -4.4920001 -0.78899997 0.27000001
1.464 -4.4829998 -0.78899997 0.28999999
1.4809999 -4.4879999 -0.79100001 0.31
1.495 -4.4829998 -0.79100001 0.28
1.502 -4.4790001 -0.79000002 0.25999999
1.523 -4.4949999 -0.79400003 0.25999999
1.534 -4.4829998 -0.79299998 0.27000001
1.552 -4.4889998 -0.79500002 0.28
1.572 -4.4990001 -0.79799998 0.28999999
1.584 -4.4879999 -0.79699999 0.28
1.598 -4.4829998 -0.79699999 0.28999999
1.6109999 -4.4970002 -0.80000001 0.28999999
1.627 -4.4980001 -0.80199999 0.28999999
1.641 -4.493 -0.80199999 0.28
1.6619999 -4.506 -0.80500001 0.28999999
1.674 -4.4949999 -0.80400002 0.28999999
1.6849999 -4.4829998 -0.80299997 0.28999999
1.705 -4.4899998 -0.80500001 0.28999999
1.716 -4.4980001 -0.80800003 0.28
1.724 -4.4780002 -0.80500001 0.28
1.7460001 -4.493 -0.80900002 0.28
1.755 -4.473 -0.80599999 0.28999999
1.775 -4.4840002 -0.80900002 0.28999999
1.791 -4.4819999 -0.81 0.30000001
1.803 -4.4710002 -0.80900002 0.28
1.817 -4.4860001 -0.81300002 0.27000001
1.836 -4.4910002 -0.815 0.28999999
1.845 -4.474 -0.81300002 0.30000001
1.864 -4.4790001 -0.815 0.28999999
1.8789999 -4.4749999 -0.815 0.27000001
1.904 -4.4949999 -0.82099998 0.25
1.904 -4.4580002 -0.81400001 0.15000001
1.925 -4.4879999 -0.82099998 0.31
1.948 -4.5009999 -0.82499999 0.25
1.951 -4.4699998 -0.81999999 0.15000001
1.975 -4.4850001 -0.824 0.28999999
1.993 -4.4879999 -0.82599998 0.23999999
1.997 -4.46 -0.82200003 0.16
2.017 -4.4860001 -0.82800001 0.28
2.0350001 -4.487 -0.829 0.25
2.0439999 -4.4689999 -0.82700002 0.25999999
2.062 -4.4720001 -0.829 0.27000001
2.0840001 -4.4829998 -0.833 0.27000001
2.095 -4.4689999 -0.83099997 0.28
2.1159999 -4.4770002 -0.83399999 0.28
2.128 -4.4840002 -0.83700001 0.25
2.1470001 -4.4860001 -0.838 0.27000001
2.161 -4.48 -0.838 0.28999999
2.1849999 -4.494 -0.84299999 0.25999999
2.194 -4.4770002 -0.84100002 0.28999999
2.2119999 -4.4770002 -0.84200001 0.28999999
2.2260001 -4.4699998 -0.84200001 0.28999999
2.2520001 -4.487 -0.84799999 0.25999999
2.256 -4.4770002 -0.84600002 0.30000001
2.267 -4.4640002 -0.84500003 0.28999999
2.2869999 -4.4689999 -0.84799999 0.27000001
2.309 -4.4759998 -0.85100001 0.25
2.3340001 -4.4899998 -0.85500002 0.28999999
2.348 -4.4819999 -0.85500002 0.28999999
2.3610001 -4.4910002 -0.85799998 0.30000001
2.3740001 -4.4819999 -0.85699999 0.28999999
2.3959999 -4.4879999 -0.861 0.30000001
2.4159999 -4.4910002 -0.86299998 0.28999999
2.431 -4.4850001 -0.86299998 0.28999999
2.4430001 -4.474 -0.86199999 0.30000001
2.464 -4.48 -0.86500001 0.28999999
2.4719999 -4.4759998 -0.86500001 0.30000001
2.493 -4.4819999 -0.86900002 0.30000001
2.5139999 -4.4860001 -0.87099999 0.30000001
2.5280001 -4.4780002 -0.87099999 0.30000001
2.55 -4.4840002 -0.87400001 0.30000001
2.566 -4.4790001 -0.875 0.28999999
2.575 -4.4619999 -0.87300003 0.31
2.595 -4.48 -0.87800002 0.27000001
2.6170001 -4.4860001 -0.88099998 0.28
2.631 -4.4780002 -0.88099998 0.31
2.6500001 -4.4780002 -0.88300002 0.31
2.6670001 -4.474 -0.884 0.28
2.688 -4.4759998 -0.88599998 0.31
2.714 -4.4879999 -0.89099997 0.31
2.7179999 -4.4780002 -0.88999999 0.28
2.7309999 -4.4679999 -0.889 0.28999999
2.7579999 -4.4809999 -0.89399999 0.31999999
2.7750001 -4.4759998 -0.89499998 0.28
2.8010001 -4.487 -0.89999998 0.31
2.816 -4.48 -0.89999998 0.31
2.8310001 -4.473 -0.89999998 0.28999999
2.849 -4.4850001 -0.90399998 0.31999999
2.8659999 -4.4809999 -0.90499997 0.30000001
2.882 -4.473 -0.90600002 0.31999999
2.901 -4.4720001 -0.90799999 0.27000001
2.921 -4.473 -0.91000003 0.28
2.9460001 -4.48 -0.91399997 0.30000001
2.9590001 -4.4689999 -0.91299999 0.30000001
2.9749999 -4.4780002 -0.91600001 0.30000001
2.9979999 -4.4809999 -0.91900003 0.28999999
3.0179999 -4.48 -0.921 0.28999999
3.036 -4.4770002 -0.92299998 0.28999999
3.0569999 -4.4770002 -0.92500001 0.28999999
3.082 -4.4840002 -0.92900002 0.30000001
3.0880001 -4.4770002 -0.92900002 0.30000001
3.1129999 -4.4840002 -0.93199998 0.28999999
3.125 -4.4710002 -0.93199998 0.28999999
3.1500001 -4.4770002 -0.935 0.30000001
3.1760001 -4.4829998 -0.93900001 0.31
3.198 -4.4840002 -0.94199997 0.33000001
3.2130001 -4.4749999 -0.94199997 0.25999999
3.2279999 -4.4819999 -0.94499999 0.30000001
3.2479999 -4.4790001 -0.94700003 0.30000001
3.2690001 -4.4790001 -0.949 0.30000001
3.2920001 -4.4790001 -0.95200002 0.31
3.3069999 -4.4699998 -0.95200002 0.30000001
3.3280001 -4.4699998 -0.954 0.31
3.3540001 -4.4749999 -0.958 0.31
3.3640001 -4.474 -0.95899999 0.30000001
3.382 -4.4679999 -0.96100003 0.31
3.4159999 -4.4840002 -0.96700001 0.31
3.4260001 -4.467 -0.96499997 0.30000001
3.45 -4.4699998 -0.96899998 0.31999999
3.4790001 -4.4780002 -0.97299999 0.30000001
3.4960001 -4.4699998 -0.97399998 0.34
3.51 -4.474 -0.97600001 0.27000001
3.5350001 -4.4770002 -0.98000002 0.30000001
3.549 -4.4650002 -0.98000002 0.30000001
3.5769999 -4.4710002 -0.98400003 0.30000001
3.602 -4.473 -0.98799998 0.28999999
3.618 -4.4650002 -0.98799998 0.28999999
3.645 -4.4689999 -0.99199998 0.28999999
3.6630001 -4.4770002 -0.995 0.30000001
3.687 -4.4770002 -0.99900001 0.33000001
3.7149999 -4.4819999 -1.003 0.30000001
3.7249999 -4.4660001 -1.002 0.16
3.7550001 -4.4720001 -1.006 0.31
3.7809999 -4.4759998 -1.01 0.25
3.8039999 -4.474 -1.013 0.15000001
3.823 -4.4809999 -1.016 0.28999999
3.832 -4.4640002 -1.0140001 0.23
3.8510001 -4.4569998 -1.016 0.16
3.875 -4.4569998 -1.0190001 0.30000001
3.9000001 -4.4569998 -1.022 0.25
3.931 -4.4629998 -1.027 0.25999999
3.95 -4.4569998 -1.029 0.25999999
3.9619999 -4.4569998 -1.03 0.16
4.0009999 -4.4720001 -1.0369999 0.30000001
4.0120001 -4.4559999 -1.0369999 0.25
4.0320001 -4.4489999 -1.038 0.16
4.0749998 -4.4689999 -1.046 0.30000001
4.0890002 -4.4559999 -1.046 0.25
4.1149998 -4.4559999 -1.05 0.25999999
4.138 -4.467 -1.054 0.25999999
4.1529999 -4.4549999 -1.0549999 0.27000001
4.1890001 -4.4650002 -1.061 0.25999999
4.204 -4.4530001 -1.061 0.16
4.2329998 -4.4549999 -1.0650001 0.30000001
4.2589998 -4.4549999 -1.069 0.25
4.2800002 -4.4619999 -1.073 0.15000001
4.309 -4.4640002 -1.077 0.30000001
4.329 -4.4559999 -1.0779999 0.23999999
4.3509998 -4.4510002 -1.081 0.16
4.381 -4.454 -1.085 0.28999999
4.4120002 -4.4569998 -1.09 0.25
4.4369998 -4.454 -1.0930001 0.25
4.4390001 -4.4419999 -1.091 0.15000001
4.4809999 -4.4549999 -1.099 0.28999999
4.5100002 -4.4559999 -1.103 0.23
4.527 -4.4450002 -1.104 0.17
4.566 -4.4549999 -1.1109999 0.28
4.5879998 -4.4489999 -1.113 0.23
4.6079998 -4.4400001 -1.114 0.15000001
4.6389999 -4.4559999 -1.1210001 0.28999999
4.665 -4.4520001 -1.124 0.23999999
4.6900001 -4.448 -1.127 0.25999999
4.724 -4.4520001 -1.132 0.27000001
4.7470002 -4.4450002 -1.135 0.25999999
4.7750001 -4.4439998 -1.138 0.27000001
4.8140001 -4.4510002 -1.145 0.25999999
4.835 -4.4569998 -1.149 0.27000001
4.862 -4.4530001 -1.152 0.28
4.8940001 -4.454 -1.1569999 0.25999999
4.921 -4.4499998 -1.16 0.28
4.961 -4.4580002 -1.1670001 0.27000001
4.993 -4.4580002 -1.171 0.28999999
5.02 -4.454 -1.175 0.28999999
5.0310001 -4.4499998 -1.176 0.28999999
5.0749998 -4.46 -1.184 0.28
5.1079998 -4.461 -1.189 0.28
5.1399999 -4.46 -1.193 0.28999999
5.1669998 -4.4559999 -1.197 0.28999999
5.2010002 -4.4559999 -1.202 0.28999999
5.2270002 -4.4499998 -1.205 0.28999999
