# .PCD v0.7 - Point Cloud Data file format
VERSION 0.7
FIELDS x y z intensity
SIZE 4 4 4 4
TYPE F F F F
COUNT 1 1 1 1
WIDTH 1440
HEIGHT 1
VIEWPOINT 0 0 0 1 0 0 0
POINTS 1440
DATA ascii
4.4130001 1.193 -1.666 0.23
4.3940001 1.2029999 -1.66 0.27000001
4.3870001 1.216 -1.659 0.16
4.3850002 1.223 -1.659 0.30000001
4.3829999 1.237 -1.659 0.25
4.3899999 1.2539999 -1.664 0.28
4.3839998 1.267 -1.663 0.27000001
4.3769999 1.28 -1.6619999 0.28999999
4.3740001 1.294 -1.6619999 0.28999999
4.3699999 1.308 -1.6619999 0.28
4.3740001 1.316 -1.664 0.16
4.369 1.33 -1.664 0.28999999
4.3629999 1.3430001 -1.664 0.23999999
4.3410001 1.351 -1.656 0.2
4.3499999 1.369 -1.6619999 0.27000001
4.3470001 1.383 -1.6619999 0.25
4.3540001 1.393 -1.666 0.28999999
4.349 1.4069999 -1.666 0.25
4.3200002 1.4119999 -1.656 0.18000001
4.3189998 1.427 -1.6569999 0.28999999
4.3340001 1.447 -1.665 0.25
4.3239999 1.459 -1.663 0.25999999
4.3210001 1.473 -1.664 0.25999999
4.3169999 1.479 -1.663 0.28999999
4.3130002 1.493 -1.663 0.25999999
4.3239999 1.512 -1.67 0.27000001
4.3080001 1.522 -1.665 0.22
4.3070002 1.536 -1.6670001 0.25999999
4.2849998 1.543 -1.659 0.25
4.283 1.558 -1.661 0.27000001
4.2950001 1.5700001 -1.6670001 0.28
4.2729998 1.577 -1.659 0.25999999
4.276 1.594 -1.663 0.28999999
4.2709999 1.607 -1.663 0.25999999
4.2729998 1.623 -1.666 0.28
4.256 1.632 -1.661 0.27000001
4.2579999 1.648 -1.664 0.27000001
4.2620001 1.658 -1.6670001 0.25
4.2550001 1.67 -1.666 0.28999999
4.2449999 1.681 -1.664 0.27000001
4.243 1.696 -1.665 0.27000001
4.2290001 1.706 -1.6619999 0.27000001
4.237 1.725 -1.6670001 0.28
4.2210002 1.734 -1.663 0.27000001
4.2290001 1.745 -1.6670001 0.28
4.2290001 1.76 -1.67 0.25
4.197 1.763 -1.659 0.20999999
4.2189999 1.788 -1.67 0.27000001
4.1950002 1.793 -1.6619999 0.23
4.1960001 1.809 -1.665 0.28999999
4.1950002 1.816 -1.666 0.25999999
4.1869998 1.829 -1.665 0.28999999
4.1799998 1.841 -1.664 0.27000001
4.191 1.862 -1.6720001 0.27000001
4.1750002 1.87 -1.6670001 0.30000001
4.171 1.8839999 -1.668 0.28999999
4.158 1.8940001 -1.665 0.28
4.1599998 1.903 -1.6670001 0.27000001
4.158 1.918 -1.669 0.28999999
4.145 1.928 -1.666 0.27000001
4.1490002 1.9450001 -1.67 0.27000001
4.1459999 1.96 -1.6720001 0.25
4.1370001 1.971 -1.67 0.30000001
4.1350002 1.987 -1.6720001 0.25
4.1339998 1.994 -1.673 0.31999999
4.1139998 2.0009999 -1.6670001 0.28999999
4.118 2.0179999 -1.6720001 0.28
4.112 2.0309999 -1.6720001 0.25
4.0949998 2.039 -1.6670001 0.16
4.0900002 2.053 -1.668 0.31
4.0819998 2.0650001 -1.6670001 0.23
4.1009998 2.082 -1.677 0.25999999
4.1009998 2.099 -1.6799999 0.30000001
4.0890002 2.109 -1.678 0.28999999
4.0770001 2.119 -1.675 0.28
4.0640001 2.1289999 -1.6720001 0.28
4.059 2.142 -1.673 0.31999999
4.052 2.155 -1.673 0.28
4.0539999 2.164 -1.675 0.28999999
4.0450001 2.1760001 -1.675 0.28999999
4.0320001 2.1849999 -1.6720001 0.28999999
4.0250001 2.198 -1.6720001 0.23999999
4.0310001 2.217 -1.678 0.27000001
4.0310001 2.234 -1.6799999 0.31
4.0110002 2.2309999 -1.673 0.31
4.0149999 2.25 -1.678 0.25
3.9990001 2.257 -1.674 0.31
4.0009999 2.2750001 -1.678 0.25
3.9990001 2.2909999 -1.6799999 0.28999999
3.9960001 2.306 -1.683 0.28999999
3.983 2.3150001 -1.6799999 0.28999999
3.9760001 2.319 -1.678 0.27000001
3.9749999 2.335 -1.681 0.28999999
3.9679999 2.348 -1.681 0.30000001
3.96 2.3599999 -1.681 0.28999999
3.954 2.3740001 -1.682 0.30000001
3.95 2.388 -1.683 0.30000001
3.9400001 2.3900001 -1.6799999 0.28999999
3.9360001 2.405 -1.682 0.27000001
3.9230001 2.414 -1.6799999 0.30000001
3.914 2.425 -1.679 0.25999999
3.9159999 2.444 -1.683 0.27000001
3.9070001 2.4549999 -1.683 0.31999999
3.8970001 2.4660001 -1.682 0.23
3.8840001 2.4660001 -1.678 0.31999999
3.8900001 2.487 -1.684 0.25999999
3.8870001 2.503 -1.686 0.30000001
3.882 2.517 -1.688 0.30000001
3.8640001 2.5220001 -1.683 0.28999999
3.8629999 2.539 -1.686 0.30000001
3.8510001 2.5480001 -1.684 0.27000001
3.855 2.5599999 -1.688 0.31
3.8299999 2.5599999 -1.6799999 0.33000001
3.832 2.5799999 -1.6849999 0.25999999
3.823 2.5899999 -1.684 0.28999999
3.813 2.6010001 -1.683 0.30000001
3.8169999 2.622 -1.689 0.25
3.7980001 2.6259999 -1.684 0.28
3.803 2.6389999 -1.688 0.31
3.793 2.6500001 -1.688 0.27000001
3.786 2.6630001 -1.688 0.31999999
3.783 2.678 -1.691 0.30000001
3.773 2.6889999 -1.6900001 0.30000001
3.7550001 2.694 -1.686 0.28999999
3.7509999 2.7090001 -1.688 0.25
3.7620001 2.7260001 -1.6950001 0.31999999
3.7460001 2.7320001 -1.691 0.30000001
3.74 2.7460001 -1.693 0.31
3.7290001 2.756 -1.691 0.30000001
3.711 2.7609999 -1.687 0.31
3.704 2.773 -1.688 0.27000001
3.701 2.789 -1.691 0.28
3.701 2.799 -1.693 0.31
3.6860001 2.806 -1.6900001 0.30000001
3.6789999 2.8180001 -1.691 0.28999999
3.664 2.825 -1.688 0.30000001
3.6670001 2.846 -1.694 0.27000001
3.6570001 2.8559999 -1.693 0.27000001
3.661 2.869 -1.697 0.30000001
3.6400001 2.8710001 -1.691 0.28999999
3.6340001 2.885 -1.693 0.28999999
3.6370001 2.9059999 -1.699 0.31
3.6010001 2.8959999 -1.686 0.31999999
3.602 2.9159999 -1.691 0.27000001
3.608 2.9389999 -1.698 0.31
3.5999999 2.9419999 -1.696 0.30000001
3.5840001 2.947 -1.693 0.28999999
3.5669999 2.9530001 -1.689 0.31
3.5639999 2.9690001 -1.692 0.23999999
3.5610001 2.9860001 -1.696 0.28999999
3.5550001 2.9990001 -1.697 0.20999999
3.552 3.017 -1.701 0.41
3.543 3.0190001 -1.699 0.30000001
3.54 3.0350001 -1.702 0.31
3.53 3.046 -1.702 0.31999999
3.527 3.063 -1.705 0.34
3.5250001 3.0799999 -1.709 0.31999999
3.507 3.0840001 -1.704 0.31
3.493 3.0910001 -1.702 0.28999999
3.4979999 3.105 -1.707 0.34999999
3.484 3.1129999 -1.705 0.30000001
3.48 3.128 -1.7079999 0.34
3.4660001 3.1359999 -1.706 0.23
3.457 3.148 -1.707 0.34999999
3.4430001 3.155 -1.704 0.28999999
3.4430001 3.174 -1.71 0.34999999
3.431 3.174 -1.706 0.33000001
3.4260001 3.1889999 -1.709 0.30000001
3.408 3.1919999 -1.704 0.34
3.3940001 3.1989999 -1.702 0.31999999
3.3929999 3.2190001 -1.707 0.31
3.378 3.224 -1.704 0.28
3.3740001 3.2420001 -1.7079999 0.36000001
3.348 3.2260001 -1.696 0.25
3.3499999 3.2479999 -1.7029999 0.28
3.325 3.244 -1.6950001 0.43000001
3.319 3.2590001 -1.697 0.33000001
3.29 3.2509999 -1.687 0.28999999
3.2720001 3.253 -1.683 0.38999999
3.302 3.2939999 -1.702 0.34
3.2920001 3.3039999 -1.702 0.20999999
3.267 3.3 -1.694 0.31999999
3.253 3.306 -1.692 0.44999999
3.24 3.3139999 -1.691 0.41
3.2149999 3.309 -1.683 0.37
3.2130001 3.3269999 -1.687 0.47999999
3.2249999 3.3510001 -1.697 0.31999999
3.2190001 3.365 -1.699 0.36000001
3.207 3.3740001 -1.699 0.34
3.204 3.392 -1.7029999 0.36000001
3.1819999 3.3900001 -1.696 0.38999999
3.1789999 3.408 -1.701 0.34
3.1700001 3.421 -1.702 0.31999999
3.145 3.404 -1.691 0.38999999
3.1400001 3.421 -1.694 0.49000001
3.086 3.382 -1.669 0.31999999
2.4189999 2.6589999 -1.285 0.31
2.4130001 2.6700001 -1.286 0.27000001
2.4070001 2.6800001 -1.288 0.49000001
2.4059999 2.6960001 -1.2920001 0.86000001
2.345 2.635 -1.2589999 0.99000001
2.3380001 2.6440001 -1.2589999 0.99000001
2.329 2.6500001 -1.2589999 0.99000001
2.3210001 2.6589999 -1.2589999 0.99000001
2.3139999 2.6670001 -1.26 0.99000001
2.4519999 2.8469999 -1.348 0.69999999
2.993 3.506 -1.681 0.33000001
3.013 3.5409999 -1.696 0.31
3.0090001 3.559 -1.701 0.31
2.994 3.5639999 -1.699 0.23
2.987 3.5780001 -1.701 0.27000001
2.9719999 3.5829999 -1.699 0.36000001
2.9630001 3.595 -1.7 0.41999999
2.957 3.612 -1.704 0.38999999
2.9519999 3.6159999 -1.704 0.31999999
2.934 3.618 -1.7 0.30000001
2.928 3.6329999 -1.7029999 0.33000001
2.9200001 3.6470001 -1.705 0.28
2.9130001 3.6619999 -1.7079999 0.34
2.9000001 3.6700001 -1.707 0.31999999
2.891 3.6700001 -1.705 0.31
2.882 3.6819999 -1.707 0.30000001
2.8659999 3.6849999 -1.704 0.31999999
2.8599999 3.701 -1.707 0.30000001
2.845 3.7060001 -1.705 0.38999999
2.8269999 3.707 -1.702 0.28
2.8 3.6949999 -1.691 0.31999999
2.802 3.7219999 -1.7 0.31
2.79 3.7190001 -1.696 0.46000001
2.7739999 3.7219999 -1.694 0.38999999
2.7820001 3.757 -1.707 0.34
2.7639999 3.757 -1.702 0.30000001
2.7539999 3.7690001 -1.704 0.23999999
2.747 3.783 -1.707 0.41999999
2.7309999 3.786 -1.704 0.34
2.7290001 3.796 -1.707 0.31999999
2.721 3.8110001 -1.71 0.38999999
2.707 3.816 -1.7079999 0.27000001
2.6930001 3.822 -1.707 0.37
2.688 3.839 -1.711 0.30000001
2.6719999 3.8429999 -1.709 0.30000001
2.6589999 3.8369999 -1.704 0.34999999
2.6489999 3.848 -1.705 0.30000001
2.6429999 3.8659999 -1.71 0.31
2.625 3.865 -1.705 0.28
2.6159999 3.878 -1.707 0.40000001
2.598 3.878 -1.704 0.30000001
2.592 3.8959999 -1.7079999 0.31
2.5869999 3.901 -1.709 0.31999999
2.5739999 3.908 -1.7079999 0.34
2.5610001 3.914 -1.707 0.28999999
2.553 3.9300001 -1.711 0.34999999
2.533 3.925 -1.705 0.25999999
2.5220001 3.9349999 -1.706 0.36000001
2.5139999 3.951 -1.71 0.31999999
2.507 3.9530001 -1.709 0.31999999
2.497 3.9660001 -1.711 0.34
2.474 3.9560001 -1.7029999 0.30000001
2.4690001 3.9749999 -1.7079999 0.31999999
2.4519999 3.9760001 -1.705 0.33000001
2.4360001 3.9779999 -1.702 0.31
2.4319999 4 -1.709 0.31
2.424 4 -1.707 0.33000001
2.4030001 3.993 -1.701 0.25999999
2.3959999 4.0110002 -1.705 0.20999999
2.382 4.0170002 -1.704 0.5
2.3670001 4.0190001 -1.702 0.31
2.3559999 4.0300002 -1.704 0.31
2.3469999 4.0440001 -1.707 0.30000001
2.345 4.0549998 -1.71 0.34
2.3269999 4.053 -1.706 0.31
2.3139999 4.0599999 -1.706 0.31
2.303 4.0710001 -1.707 0.28999999
2.2909999 4.0780001 -1.707 0.36000001
2.2780001 4.085 -1.707 0.31999999
2.2679999 4.0970001 -1.71 0.31999999
2.256 4.0910001 -1.705 0.30000001
2.243 4.098 -1.705 0.31
2.2309999 4.1069999 -1.706 0.31999999
2.217 4.112 -1.705 0.28999999
2.21 4.131 -1.71 0.34999999
2.1930001 4.1290002 -1.707 0.34
2.1760001 4.1279998 -1.7029999 0.33000001
2.1730001 4.1399999 -1.707 0.33000001
2.1600001 4.1459999 -1.707 0.31999999
2.148 4.1550002 -1.707 0.34999999
2.1340001 4.1599998 -1.707 0.27000001
2.119 4.1620002 -1.704 0.41
2.1099999 4.177 -1.7079999 0.37
2.0929999 4.1750002 -1.704 0.30000001
2.0880001 4.1810002 -1.706 0.27000001
2.073 4.1849999 -1.704 0.31999999
2.063 4.198 -1.707 0.31999999
2.0469999 4.1989999 -1.705 0.36000001
2.0369999 4.2119999 -1.7079999 0.31999999
2.0220001 4.2140002 -1.706 0.31999999
2.0109999 4.2249999 -1.7079999 0.30000001
2.0050001 4.23 -1.709 0.31999999
1.994 4.2410002 -1.711 0.34
1.979 4.244 -1.71 0.31999999
1.972 4.2639999 -1.715 0.34
1.954 4.2600002 -1.711 0.31999999
1.9400001 4.2639999 -1.71 0.31
1.927 4.2719998 -1.711 0.31
1.92 4.2729998 -1.71 0.31
1.915 4.2979999 -1.7180001 0.30000001
1.893 4.2849998 -1.71 0.30000001
1.878 4.2880001 -1.709 0.31999999
1.87 4.3070002 -1.715 0.31
1.8559999 4.3119998 -1.714 0.34999999
1.849 4.3140001 -1.714 0.28
1.835 4.3189998 -1.7130001 0.30000001
1.825 4.3330002 -1.717 0.31999999
1.811 4.3390002 -1.717 0.31
1.793 4.3340001 -1.712 0.34999999
1.781 4.3429999 -1.714 0.31999999
1.7690001 4.3520002 -1.715 0.31999999
1.762 4.355 -1.715 0.31999999
1.747 4.3569999 -1.714 0.30000001
1.735 4.368 -1.716 0.34999999
1.719 4.3660002 -1.7130001 0.30000001
1.711 4.3850002 -1.719 0.31999999
1.696 4.3889999 -1.7180001 0.33000001
1.678 4.3839998 -1.714 0.31999999
1.675 4.3969998 -1.7180001 0.36000001
1.66 4.3969998 -1.716 0.30000001
1.65 4.4130001 -1.72 0.34
1.638 4.4229999 -1.723 0.34
1.622 4.4229999 -1.72 0.34
1.609 4.4299998 -1.721 0.34
1.596 4.4380002 -1.723 0.34999999
1.528 4.29 -1.659 0
0.898 2.527 -0.92900002 0
0.884 2.51 -0.921 0
0.87300003 2.5039999 -0.917 0.029999999
0.87599999 2.5409999 -0.93099999 0
0.852 2.4960001 -0.91100001 0
0.847 2.4920001 -0.90899998 0
0.85000002 2.53 -0.92400002 0
1.457 4.4910002 -1.725 0.14
1.444 4.4980001 -1.726 0.31999999
1.424 4.4850001 -1.7180001 0.31
1.411 4.4910002 -1.719 0.34999999
1.408 4.507 -1.725 0.30000001
1.387 4.4899998 -1.716 0.31999999
1.373 4.493 -1.715 0.33000001
1.362 4.5100002 -1.72 0.33000001
1.344 4.5 -1.715 0.31
1.332 4.5110002 -1.7180001 0.31999999
1.318 4.5170002 -1.7180001 0.34
1.311 4.5190001 -1.7180001 0.31999999
1.294 4.5139999 -1.715 0.28999999
1.284 4.5310001 -1.72 0.31999999
1.27 4.5359998 -1.72 0.34999999
1.253 4.5310001 -1.717 0.28999999
1.242 4.5479999 -1.722 0.31
1.225 4.5409999 -1.7180001 0.36000001
1.217 4.5380001 -1.715 0.28999999
1.205 4.552 -1.72 0.31999999
1.1900001 4.5539999 -1.719 0.33000001
1.173 4.5469999 -1.715 0.31
1.165 4.5739999 -1.724 0.36000001
1.143 4.5489998 -1.712 0.28999999
1.133 4.5669999 -1.7180001 0.31999999
1.127 4.5760002 -1.721 0.36000001
1.108 4.559 -1.7130001 0.31999999
1.096 4.5739999 -1.7180001 0.30000001
1.086 4.5939999 -1.724 0.33000001
1.0700001 4.592 -1.722 0.34
1.052 4.5770001 -1.715 0.30000001
1.04 4.5949998 -1.72 0.34999999
1.028 4.5739999 -1.712 0.25
1.0190001 4.6009998 -1.721 0.34999999
1.0039999 4.6009998 -1.72 0.31999999
0.98900002 4.6040001 -1.72 0.31999999
0.97399998 4.6030002 -1.7180001 0.31
0.95999998 4.6100001 -1.72 0.30000001
0.94499999 4.6059999 -1.717 0.31999999
0.93800002 4.6129999 -1.719 0.31999999
0.92400002 4.6160002 -1.719 0.31
0.90899998 4.6149998 -1.7180001 0.28
0.89600003 4.6290002 -1.722 0.36000001
0.88200003 4.631 -1.722 0.34
0.86400002 4.619 -1.716 0.31999999
0.85399997 4.6420002 -1.724 0.31
0.84399998 4.6329999 -1.72 0.31999999
0.82499999 4.6079998 -1.709 0.36000001
0.81099999 4.6160002 -1.711 0.27000001
0.80199999 4.651 -1.724 0.33000001
0.787 4.6479998 -1.722 0.34
0.77100003 4.6420002 -1.7180001 0.36000001
0.75099999 4.6090002 -1.704 0.25
0.72299999 4.4780002 -1.652 0.34999999
0.72500002 4.5830002 -1.693 0.36000001
0.72100002 4.6550002 -1.72 0.19
0.70499998 4.6479998 -1.717 0.46000001
0.68800002 4.638 -1.712 0.20999999
0.67299998 4.6339998 -1.71 0.46000001
0.64499998 4.5370002 -1.67 0.19
0.65200001 4.6469998 -1.7130001 0.62
0.63800001 4.651 -1.714 0.36000001
0.62099999 4.638 -1.7079999 0.41
0.60799998 4.6529999 -1.7130001 0.34
0.59200001 4.6399999 -1.707 0.38999999
0.57800001 4.6469998 -1.71 0.36000001
0.55599999 4.5879998 -1.686 0.61000001
0.54000002 4.5029998 -1.652 0.37
0.50400001 4.3140001 -1.577 0.38
0.491 4.3200002 -1.579 0.33000001
0.47999999 4.3470001 -1.589 0.47999999
0.47400001 4.4190001 -1.6160001 0.28999999
0.45699999 4.3959999 -1.607 0.33000001
0.458 4.5500002 -1.6670001 0.34
0.44400001 4.4749999 -1.637 0.25999999
0.40200001 4.1719999 -1.518 0.46000001
0.391 4.1929998 -1.526 0.25999999
0.40400001 4.5100002 -1.649 0.47
0.391 4.5209999 -1.653 0.22
0.368 4.4089999 -1.608 0.49000001
0.361 4.5040002 -1.646 0.28
0.36000001 4.5830002 -1.676 0.41
0.34 4.5149999 -1.649 0.34999999
0.32800001 4.5440001 -1.66 0.31999999
0.303 4.3779998 -1.595 0.37
0.278 4.1890001 -1.52 0.19
0.264 4.1680002 -1.512 0.28
0.25 4.1570001 -1.507 0.30000001
0.244 4.178 -1.515 0.25
0.244 4.4380002 -1.6160001 0.13
0.236 4.5650001 -1.666 0.28999999
0.223 4.6069999 -1.682 0.46000001
0.20200001 4.4439998 -1.618 0.41
0.186 4.3860002 -1.595 0.30000001
0.171 4.335 -1.575 0.38
0.17 4.5250001 -1.649 0.28999999
0.16 4.665 -1.704 0.23
0.145 4.6599998 -1.702 0.61000001
0.13500001 4.8540001 -1.777 0
0.114 4.5450001 -1.656 0
0.086000003 3.7320001 -1.339 0
0.072999999 3.602 -1.288 0.029999999
0.067000002 3.5940001 -1.285 0.11
0.056000002 3.6240001 -1.2970001 0.050000001
0.044 3.595 -1.285 0.12
0.033 3.638 -1.302 0.16
0.022 3.602 -1.288 0.22
0.0099999998 3.599 -1.286 0.18000001
-0.001 3.6099999 -1.291 0.27000001
-0.0070000002 3.608 -1.29 0.23
-0.017999999 3.6259999 -1.2970001 0.2
-0.028999999 3.6110001 -1.291 0
-0.039000001 3.5420001 -1.265 0
-0.052999999 3.184 -1.125 0.2
-0.061000001 3.1170001 -1.099 0
-0.067000002 3.1600001 -1.115 0.039999999
-0.092 3.625 -1.2970001 0
-0.101 3.5409999 -1.265 0
-0.107 3.4159999 -1.216 0
-0.116 3.369 -1.198 0.050000001
-0.133 3.52 -1.257 0.15000001
-0.145 3.54 -1.265 0.23
-0.15099999 3.543 -1.266 0.16
-0.163 3.5539999 -1.27 0.27000001
-0.17399999 3.5569999 -1.272 0.23
-0.185 3.553 -1.27 0.2
-0.19599999 3.556 -1.272 0.28999999
-0.207 3.5439999 -1.267 0
-0.211 3.4389999 -1.227 0
-0.213 3.391 -1.2079999 0
-0.228 3.451 -1.232 0
-0.24699999 3.5599999 -1.275 0
-0.25600001 3.526 -1.262 0
-0.26699999 3.5309999 -1.2640001 0.029999999
-0.28099999 3.5580001 -1.275 0.11
-0.28999999 3.533 -1.265 0.13
-0.292 3.4949999 -1.251 0.17
-0.30399999 3.5090001 -1.257 0
-0.31999999 3.5539999 -1.275 0
-0.331 3.5510001 -1.274 0
-0.34299999 3.5599999 -1.278 0
-0.35100001 3.533 -1.267 0
-0.36199999 3.5320001 -1.267 0.029999999
-0.37099999 3.5550001 -1.277 0
-0.38 3.539 -1.271 0
-0.38999999 3.5320001 -1.2690001 0
-0.40099999 3.527 -1.267 0.029999999
-0.41499999 3.5480001 -1.276 0.13
-0.42500001 3.5409999 -1.274 0.1
-0.43399999 3.5179999 -1.265 0.18000001
-0.43799999 3.506 -1.261 0
-0.44600001 3.483 -1.252 0
-0.45100001 3.441 -1.2359999 0
-0.45699999 3.402 -1.222 0
-0.46700001 3.3970001 -1.22 0
-0.47 3.3440001 -1.2 0
-0.48899999 3.398 -1.222 0
-0.48899999 3.3640001 -1.209 0
-0.5 3.3659999 -1.21 0
-0.514 3.3859999 -1.219 0
-0.542 3.49 -1.26 0
-0.56099999 3.539 -1.281 0
-0.574 3.5469999 -1.284 0
-0.57700002 3.4990001 -1.266 0
-0.58399999 3.5039999 -1.268 0
-0.59600002 3.507 -1.27 0
-0.60799998 3.5109999 -1.273 0
-0.61799997 3.507 -1.272 0
-0.63099998 3.5139999 -1.275 0
-0.64300001 3.516 -1.277 0
-0.648 3.5150001 -1.277 0
-0.66299999 3.5309999 -1.284 0
-0.667 3.493 -1.27 0
-0.68300003 3.516 -1.28 0
-0.69199997 3.5050001 -1.276 0
-0.699 3.484 -1.2690001 0
-0.71100003 3.4879999 -1.271 0.12
-0.71799999 3.494 -1.274 0.050000001
-0.72500002 3.471 -1.266 0.17
-0.73400003 3.4579999 -1.262 0
-0.74299997 3.4489999 -1.2589999 0
-0.74800003 3.4230001 -1.249 0
-0.75 3.382 -1.234 0
-0.75300002 3.3469999 -1.221 0
-0.75800002 3.342 -1.219 0
-0.77200001 3.358 -1.227 0
-0.79400003 3.4030001 -1.2460001 0.02
-0.82999998 3.5020001 -1.286 0.17
-0.83399999 3.4719999 -1.275 0.14
-0.85500002 3.5109999 -1.2920001 0.28999999
-0.85399997 3.457 -1.272 0.14
-0.86900002 3.494 -1.2869999 0.27000001
-0.87599999 3.4749999 -1.281 0.15000001
-0.89200002 3.494 -1.289 0.28
-0.89899999 3.477 -1.283 0.16
-0.91399997 3.4860001 -1.289 0.27000001
-0.921 3.4690001 -1.283 0.16
-0.93400002 3.4749999 -1.286 0.15000001
-0.93599999 3.4630001 -1.2819999 0.20999999
-0.94499999 3.4530001 -1.279 0.14
-0.96499997 3.4820001 -1.2920001 0.28999999
-0.96700001 3.4489999 -1.28 0.16
-0.98500001 3.4690001 -1.289 0.25999999
-0.991 3.45 -1.283 0.16
-1.007 3.4630001 -1.289 0.28
-1.011 3.457 -1.288 0.25
-1.021 3.451 -1.286 0.25999999
-1.034 3.4549999 -1.289 0.20999999
-1.039 3.4330001 -1.2819999 0
-1.017 3.3239999 -1.238 0
-1.028 3.3239999 -1.24 0
-1.036 3.312 -1.2359999 0
-1.066 3.369 -1.261 0.029999999
-1.087 3.4170001 -1.281 0.039999999
-1.091 3.392 -1.273 0.029999999
-1.119 3.4400001 -1.294 0
-1.124 3.4189999 -1.286 0
-1.132 3.408 -1.283 0
-1.141 3.3989999 -1.281 0
-1.145 3.3959999 -1.281 0
-1.168 3.425 -1.294 0
-1.165 3.3829999 -1.278 0
-1.182 3.3989999 -1.286 0
-1.187 3.3789999 -1.28 0
-1.204 3.3929999 -1.2869999 0
-1.216 3.391 -1.288 0.029999999
-1.222 3.392 -1.289 0.07
-1.23 3.3800001 -1.286 0.15000001
-1.244 3.385 -1.289 0.039999999
-1.249 3.3670001 -1.283 0
-1.25 3.339 -1.273 0
-1.257 3.326 -1.27 0
-1.245 3.2650001 -1.2460001 0
-1.253 3.2679999 -1.248 0
-1.2640001 3.266 -1.249 0
-1.268 3.2479999 -1.243 0.11
-1.295 3.2850001 -1.26 0.12
-1.324 3.3280001 -1.28 0.059999999
-1.336 3.325 -1.281 0.18000001
-1.36 3.3540001 -1.294 0.2
-1.368 3.359 -1.2970001 0.28999999
-1.367 3.3269999 -1.286 0.23999999
-1.377 3.323 -1.286 0.15000001
-1.3890001 3.322 -1.2869999 0.039999999
-1.3839999 3.2809999 -1.272 0
-1.3940001 3.277 -1.272 0
-1.392 3.244 -1.2589999 0
-1.3839999 3.198 -1.242 0
-1.382 3.181 -1.235 0
-1.372 3.132 -1.217 0
-1.377 3.1159999 -1.211 0
-1.388 3.115 -1.2130001 0
-1.428 3.177 -1.2410001 0.07
-1.416 3.1229999 -1.22 0
-2.033 4.3670001 -1.762 0.56999999
-2.0610001 4.3909998 -1.775 0.33000001
-2.069 4.3730001 -1.77 0.23
-2.0780001 4.3559999 -1.765 0.16
-2.1059999 4.3800001 -1.779 0
-2.1140001 4.3449998 -1.768 0.28
-2.135 4.3509998 -1.773 0.30000001
-2.151 4.3499999 -1.776 0.31
-2.161 4.336 -1.773 0.28999999
-2.174 4.3280001 -1.772 0.30000001
-2.1919999 4.329 -1.776 0.34999999
-2.2 4.3119998 -1.771 0.25999999
-2.2130001 4.3210001 -1.776 0.33000001
-2.23 4.3200002 -1.779 0.31999999
-2.24 4.3070002 -1.776 0.31
-2.253 4.3000002 -1.776 0.31
-2.2650001 4.289 -1.775 0.30000001
-2.2820001 4.289 -1.778 0.27000001
-2.2969999 4.283 -1.779 0.34
-2.3039999 4.2810001 -1.779 0.30000001
-2.3139999 4.2670002 -1.776 0.30000001
-2.3269999 4.2579999 -1.776 0.30000001
-2.3540001 4.2750001 -1.7869999 0.34999999
-2.352 4.2420001 -1.775 0.28
-2.3710001 4.244 -1.779 0.31
-2.3900001 4.2470002 -1.784 0.31
-2.391 4.2329998 -1.779 0.28999999
-2.4059999 4.2290001 -1.781 0.30000001
-2.4170001 4.2160001 -1.779 0.28999999
-2.4289999 4.2069998 -1.778 0.28999999
-2.447 4.2080002 -1.781 0.30000001
-2.461 4.2010002 -1.7819999 0.28999999
-2.4679999 4.198 -1.7819999 0.28999999
-2.4760001 4.1820002 -1.779 0.28999999
-2.4979999 4.1880002 -1.785 0.31999999
-2.497 4.1570001 -1.774 0.28
-2.517 4.1609998 -1.78 0.28
-2.536 4.1630001 -1.784 0.34
-2.546 4.1500001 -1.7819999 0.31
-2.5550001 4.1490002 -1.784 0.30000001
-2.5669999 4.1399999 -1.783 0.34999999
-2.5840001 4.138 -1.786 0.31
-2.595 4.1269999 -1.784 0.31
-2.605 4.1139998 -1.7819999 0.27000001
-2.615 4.1009998 -1.78 0.33000001
-2.6289999 4.0939999 -1.781 0.28
-2.645 4.0910001 -1.783 0.33000001
-2.648 4.0819998 -1.781 0.31999999
-2.6659999 4.0809999 -1.784 0.31
-2.6819999 4.0780001 -1.7869999 0.30000001
-2.6860001 4.0570002 -1.781 0.30000001
-2.704 4.0560002 -1.784 0.33000001
-2.72 4.052 -1.7869999 0.30000001
-2.727 4.0359998 -1.783 0.34
-2.7349999 4.033 -1.784 0.28999999
-2.7449999 4.0209999 -1.7819999 0.31999999
-2.7620001 4.0190001 -1.785 0.34
-2.767 4 -1.78 0.28999999
-2.789 4.0029998 -1.786 0.34
-2.7980001 3.99 -1.784 0.31999999
-2.8080001 3.9909999 -1.7869999 0.30000001
-2.816 3.9749999 -1.783 0.31
-2.8299999 3.9690001 -1.784 0.34
-2.8399999 3.957 -1.783 0.28999999
-2.859 3.957 -1.7869999 0.33000001
-2.869 3.944 -1.785 0.31999999
-2.882 3.9360001 -1.786 0.31999999
-2.885 3.927 -1.784 0.30000001
-2.901 3.9230001 -1.786 0.31
-2.911 3.9100001 -1.784 0.31999999
-2.9289999 3.9089999 -1.788 0.30000001
-2.9360001 3.8940001 -1.785 0.31999999
-2.954 3.892 -1.789 0.36000001
-2.9630001 3.878 -1.7869999 0.31999999
-2.9519999 3.839 -1.772 0.31999999
-2.9430001 3.8150001 -1.763 0.23999999
-2.8740001 3.7019999 -1.711 0.050000001
-2.756 3.529 -1.63 0.07
-2.595 3.3050001 -1.522 0.079999998
-2.5999999 3.289 -1.518 0.039999999
-2.566 3.2260001 -1.4910001 0
-2.5650001 3.2049999 -1.484 0
-2.566 3.1949999 -1.4809999 0
-2.569 3.1789999 -1.477 0
-2.5639999 3.1530001 -1.4680001 0
-2.6029999 3.1800001 -1.4859999 0
-3.4449999 3.3670001 -1.762 0
-3.5039999 3.402 -1.788 0
-3.52 3.3970001 -1.791 0
-3.5439999 3.398 -1.798 0
-3.5669999 3.3989999 -1.8049999 0
-3.553 3.365 -1.7920001 0
-3.576 3.365 -1.798 0.059999999
-3.5769999 3.355 -1.796 0.039999999
-3.585 3.342 -1.795 0.15000001
-3.609 3.3429999 -1.802 0.2
-3.605 3.3180001 -1.794 0.20999999
-3.612 3.3039999 -1.7920001 0.22
-3.6359999 3.3050001 -1.8 0.34999999
-3.6270001 3.276 -1.789 0.31999999
-3.638 3.2750001 -1.7920001 0.31
-3.6459999 3.2609999 -1.791 0.30000001
-3.6570001 3.2509999 -1.7920001 0.33000001
-3.6670001 3.24 -1.7920001 0.33000001
-3.6760001 3.227 -1.791 0.31999999
-3.6860001 3.2149999 -1.791 0.31999999
-3.688 3.197 -1.7869999 0.28
-3.687 3.1860001 -1.784 0.28999999
-3.707 3.1830001 -1.789 0.41
-3.714 3.1689999 -1.7869999 0.25999999
-3.733 3.164 -1.7920001 0.28999999
-3.723 3.1359999 -1.781 0.43000001
-3.743 3.132 -1.7869999 0.31
-3.7479999 3.1170001 -1.784 0.54000002
-3.763 3.119 -1.789 0.30000001
-3.7739999 3.109 -1.79 0.28999999
-3.783 3.096 -1.789 0.28999999
-3.7950001 3.086 -1.791 0.28999999
-3.8139999 3.0810001 -1.795 0.28999999
-3.806 3.0550001 -1.7869999 0.30000001
-3.826 3.0510001 -1.7920001 0.31
-3.826 3.0420001 -1.789 0.28
-3.8410001 3.0339999 -1.7920001 0.28999999
-3.8570001 3.027 -1.795 0.31
-3.8659999 3.0150001 -1.795 0.28
-3.8740001 3.0020001 -1.795 0.31
-3.8840001 2.9890001 -1.795 0.30000001
-3.8900001 2.9749999 -1.793 0.28
-3.8929999 2.9679999 -1.7920001 0.28999999
-3.904 2.957 -1.793 0.31999999
-3.9100001 2.9419999 -1.7920001 0.30000001
-3.927 2.9349999 -1.795 0.30000001
-3.9349999 2.9219999 -1.795 0.27000001
-3.95 2.914 -1.7970001 0.34
-3.95 2.895 -1.793 0.28999999
-3.951 2.8859999 -1.7920001 0.28999999
-3.9590001 2.8729999 -1.791 0.28
-3.9760001 2.8659999 -1.795 0.28999999
-3.9860001 2.8540001 -1.795 0.31999999
-3.9890001 2.8380001 -1.7920001 0.28999999
-3.9960001 2.8239999 -1.7920001 0.30000001
-4.0250001 2.825 -1.801 0.33000001
-4.0229998 2.8150001 -1.798 0.31
-4.0250001 2.7969999 -1.795 0.30000001
-4.046 2.793 -1.8 0.31
-4.0440001 2.7720001 -1.795 0.28999999
-4.0599999 2.7650001 -1.799 0.31
-4.073 2.7550001 -1.801 0.30000001
-4.079 2.74 -1.8 0.30000001
-4.0799999 2.7320001 -1.798 0.31
-4.0890002 2.7190001 -1.798 0.30000001
-4.0910001 2.7019999 -1.795 0.28999999
-4.1069999 2.694 -1.799 0.30000001
-4.112 2.6789999 -1.7970001 0.28999999
-4.1129999 2.6619999 -1.794 0.28
-4.1290002 2.654 -1.7970001 0.33000001
-4.132 2.6459999 -1.7970001 0.28
-4.1479998 2.638 -1.8 0.31
-4.145 2.618 -1.795 0.28
-4.1570001 2.6070001 -1.7970001 0.30000001
-4.158 2.5899999 -1.794 0.28999999
-4.1739998 2.582 -1.7970001 0.28999999
-4.1900001 2.5739999 -1.801 0.33000001
-4.191 2.5650001 -1.8 0.20999999
-4.1960001 2.55 -1.798 0.25
-4.2090001 2.54 -1.8 0.41999999
-4.2199998 2.5280001 -1.802 0.28999999
-4.2150002 2.507 -1.796 0.38
-4.2179999 2.4909999 -1.794 0.5
-4.244 2.4879999 -1.802 0.36000001
-4.2509999 2.484 -1.803 0.28
-4.2600002 2.471 -1.804 0.31999999
-4.257 2.451 -1.799 0.22
-4.2680001 2.4400001 -1.8 0.36000001
-4.2690001 2.4230001 -1.7970001 0.36000001
-4.289 2.4159999 -1.803 0.31
-4.2969999 2.4030001 -1.803 0.31999999
-4.3039999 2.398 -1.8049999 0.28
-4.3070002 2.382 -1.803 0.28999999
-4.322 2.3729999 -1.806 0.30000001
-4.3280001 2.358 -1.8049999 0.28999999
-4.3270001 2.3399999 -1.802 0.25999999
-4.3439999 2.332 -1.806 0.34
-4.348 2.325 -1.806 0.34
-4.349 2.3080001 -1.803 0.28
-4.3610001 2.2969999 -1.8049999 0.28999999
-4.3600001 2.279 -1.802 0.30000001
-4.3639998 2.263 -1.8 0.31999999
-4.382 2.256 -1.8049999 0.31
-4.3829999 2.2390001 -1.803 0.31999999
-4.4000001 2.23 -1.807 0.31
-4.4050002 2.224 -1.808 0.28999999
-4.4099998 2.2090001 -1.807 0.30000001
-4.4070001 2.1900001 -1.803 0.30000001
-4.4190001 2.1789999 -1.8049999 0.28
-4.4330001 2.168 -1.808 0.34999999
-4.448 2.158 -1.811 0.33000001
-4.4439998 2.148 -1.808 0.31999999
-4.4549999 2.1359999 -1.8099999 0.30000001
-4.4629998 2.122 -1.811 0.36000001
-4.473 2.1099999 -1.812 0.31999999
-4.4860001 2.099 -1.8150001 0.31999999
-4.4780002 2.0780001 -1.808 0.28999999
-4.4910002 2.0669999 -1.811 0.31
-4.5009999 2.063 -1.814 0.31999999
-4.4990001 2.0450001 -1.811 0.31999999
-4.507 2.0320001 -1.811 0.28
-4.5180001 2.02 -1.813 0.31
-4.5209999 2.0039999 -1.812 0.37
-4.5310001 1.9910001 -1.813 0.34
-4.5339999 1.976 -1.812 0.28999999
-4.5320001 1.966 -1.8099999 0.28999999
-4.5650001 1.964 -1.821 0.31999999
-4.5539999 1.942 -1.814 0.31999999
-4.5539999 1.925 -1.811 0.28999999
-4.5939999 1.925 -1.826 0.25
-4.579 1.902 -1.817 0.31999999
-4.5819998 1.886 -1.816 0
-4.5830002 1.878 -1.8150001 0
-4.592 1.865 -1.816 0
-4.553 1.8329999 -1.7970001 0
-4.48 -2.138 -1.819 0.0099999998
-4.4619999 -2.1459999 -1.814 0.11
-4.4130001 -2.1400001 -1.796 0.17
-4.4219999 -2.161 -1.803 0.039999999
-4.3759999 -2.1559999 -1.786 0.15000001
-4.395 -2.1730001 -1.795 0.14
-4.368 -2.177 -1.7869999 0.28999999
-4.3439999 -2.1819999 -1.779 0.43000001
-4.3260002 -2.1900001 -1.774 0.47
-4.3460002 -2.217 -1.786 0.27000001
-4.342 -2.233 -1.7869999 0.28999999
-4.3330002 -2.2449999 -1.7869999 0.27000001
-4.2979999 -2.2360001 -1.773 0.20999999
-4.3130002 -2.26 -1.7819999 0.41999999
-4.3060002 -2.2739999 -1.7819999 0.30000001
-4.29 -2.283 -1.779 0.28999999
-4.2779999 -2.2939999 -1.776 0.30000001
-4.2680001 -2.306 -1.775 0.28
-4.2519999 -2.3139999 -1.771 0.28
-4.2470002 -2.3199999 -1.771 0.28
-4.2379999 -2.3329999 -1.77 0.28999999
-4.2309999 -2.346 -1.77 0.27000001
-4.2179999 -2.3559999 -1.768 0.18000001
-4.224 -2.3770001 -1.773 0.41
-4.1890001 -2.375 -1.761 0.37
-4.198 -2.3970001 -1.768 0.30000001
-4.171 -2.391 -1.758 0.34
-4.1700001 -2.4070001 -1.761 0.25
-4.1589999 -2.4189999 -1.76 0.28999999
-4.1440001 -2.427 -1.756 0.28999999
-4.1329999 -2.438 -1.755 0.25999999
-4.1329999 -2.4560001 -1.758 0.28999999
-4.1059999 -2.457 -1.75 0.25999999
-4.112 -2.4690001 -1.7539999 0.23
-4.098 -2.4779999 -1.751 0.38999999
-4.092 -2.4920001 -1.752 0.38
-4.079 -2.5020001 -1.75 0.28
-4.079 -2.52 -1.753 0.33000001
-4.0549998 -2.523 -1.7460001 0.28999999
-4.0510001 -2.5380001 -1.747 0.25
-4.0419998 -2.5409999 -1.745 0.28
-4.02 -2.5450001 -1.739 0.23999999
-4.026 -2.566 -1.745 0.31999999
-4.007 -2.572 -1.74 0.27000001
-4 -2.585 -1.7410001 0.30000001
-3.9809999 -2.5910001 -1.7359999 0.38
-3.97 -2.6010001 -1.734 0.28
-3.9660001 -2.6070001 -1.734 0.25999999
-3.927 -2.599 -1.72 0
-2.8 -1.857 -1.193 0
-2.7590001 -1.842 -1.177 0
-2.744 -1.844 -1.1720001 0
-2.6949999 -1.823 -1.152 0
-2.694 -1.835 -1.154 0
-2.671 -1.825 -1.145 0
-2.661 -1.83 -1.142 0
-2.612 -1.809 -1.122 0
-2.6040001 -1.8150001 -1.1210001 0
-2.596 -1.822 -1.12 0
-2.6010001 -1.8380001 -1.125 0.090000004
-2.586 -1.839 -1.1210001 0.16
-2.5650001 -1.83 -1.112 0.23
-2.549 -1.831 -1.107 0.25
-2.5209999 -1.822 -1.096 0.28
-2.5090001 -1.825 -1.0930001 0.31999999
-2.4779999 -1.814 -1.081 0.28999999
-2.4649999 -1.817 -1.077 0.28
-2.45 -1.812 -1.071 0.27000001
-2.441 -1.817 -1.0700001 0.31999999
-2.4159999 -1.8099999 -1.0599999 0.30000001
-2.4059999 -1.814 -1.058 0.28999999
-2.3759999 -1.802 -1.046 0.30000001
-2.3329999 -1.781 -1.028 0.22
-2.345 -1.802 -1.036 0.33000001
-2.3299999 -1.7970001 -1.03 0.34
-2.306 -1.789 -1.021 0.27000001
-2.293 -1.79 -1.017 0.30000001
-2.2969999 -1.806 -1.022 0.31
-2.27 -1.795 -1.012 0.28999999
-2.2509999 -1.7920001 -1.005 0.30000001
-2.237 -1.7920001 -1.001 0.31
-2.2179999 -1.783 -0.99299997 0.27000001
-2.223 -1.798 -0.99800003 0.37
-2.1960001 -1.7869999 -0.98699999 0.31999999
-2.187 -1.791 -0.98500001 0.28
-2.1789999 -1.796 -0.98400003 0.33000001
-2.155 -1.7869999 -0.97399998 0.28999999
-2.1470001 -1.793 -0.97399998 0.31
-2.128 -1.7819999 -0.96499997 0.25999999
-2.1259999 -1.7920001 -0.96700001 0.34
-2.112 -1.791 -0.963 0.34
-2.1140001 -1.804 -0.96600002 0.30000001
-2.0899999 -1.795 -0.95700002 0.27000001
-2.0769999 -1.795 -0.95300001 0.28999999
-2.0669999 -1.798 -0.95099998 0.31
-2.059 -1.796 -0.94800001 0.30000001
-2.0409999 -1.791 -0.94199997 0.28999999
-2.036 -1.799 -0.94199997 0.31
-2.013 -1.789 -0.93300003 0.31999999
-1.9960001 -1.785 -0.92699999 0.25
-1.988 -1.789 -0.926 0.31999999
-1.982 -1.795 -0.926 0.30000001
-1.967 -1.7869999 -0.91900003 0.31
-1.961 -1.793 -0.91900003 0.30000001
-1.938 -1.783 -0.91000003 0.30000001
-1.914 -1.771 -0.89999998 0.22
-1.915 -1.783 -0.903 0.36000001
-1.89 -1.771 -0.89300001 0.30000001
-1.8890001 -1.781 -0.89499998 0.27000001
-1.8789999 -1.778 -0.89200002 0.34
-1.855 -1.765 -0.88099998 0.27000001
-1.852 -1.774 -0.88300002 0.30000001
-1.8329999 -1.767 -0.87599999 0.28999999
-1.8329999 -1.778 -0.87800002 0.28999999
-1.8380001 -1.794 -0.884 0.34999999
-1.806 -1.773 -0.87 0.27000001
-1.806 -1.779 -0.87099999 0.34
-1.784 -1.7690001 -0.86199999 0.27000001
-1.776 -1.771 -0.861 0.31999999
-1.775 -1.781 -0.86299998 0.30000001
-1.752 -1.7690001 -0.85399997 0.25999999
-1.752 -1.78 -0.85699999 0.31999999
-1.7410001 -1.78 -0.85399997 0.30000001
-1.73 -1.775 -0.84899998 0.28
-1.717 -1.772 -0.84500003 0.31999999
-1.7 -1.765 -0.838 0.28
-1.7 -1.776 -0.84100002 0.31999999
-1.6849999 -1.772 -0.83600003 0.31
-1.6799999 -1.777 -0.83600003 0.28999999
-1.669 -1.772 -0.83200002 0.30000001
-1.659 -1.771 -0.829 0.28999999
-1.652 -1.775 -0.82800001 0.31
-1.6339999 -1.767 -0.82099998 0.31
-1.628 -1.772 -0.82099998 0.25999999
-1.63 -1.785 -0.82499999 0.28999999
-1.6160001 -1.78 -0.81999999 0.27000001
-1.619 -1.79 -0.824 0.27000001
-1.591 -1.77 -0.81099999 0.31
-1.589 -1.779 -0.81300002 0.25999999
-1.5779999 -1.777 -0.80900002 0.31
-1.561 -1.7690001 -0.80299997 0.27000001
-1.536 -1.752 -0.79100001 0.13
-1.545 -1.773 -0.80000001 0.30000001
-1.54 -1.773 -0.79799998 0.17
-1.534 -1.778 -0.79799998 0.14
-1.524 -1.777 -0.796 0.14
-1.502 -1.762 -0.78500003 0.050000001
-1.4809999 -1.748 -0.77600002 0
-1.4630001 -1.738 -0.76899999 0
-1.433 -1.712 -0.75300002 0
-1.4069999 -1.686 -0.73900002 0
-1.2970001 -1.561 -0.67400002 0
-0.96399999 -1.165 -0.472 0
-1.188 -1.436 -0.60900003 0
-0.93599999 -1.137 -0.45699999 0
-1.067 -1.576 -0.625 0.050000001
-1.177 -1.755 -0.70700002 0.090000004
-1.075 -1.6109999 -0.63800001 0.14
-1.168 -1.766 -0.708 0.25
-1.158 -1.762 -0.70499998 0.23
-1.1390001 -1.745 -0.69499999 0.25999999
-1.148 -1.766 -0.704 0.28999999
-1.138 -1.761 -0.69999999 0.28999999
-1.125 -1.7539999 -0.69499999 0.28
-1.115 -1.749 -0.69199997 0.28999999
-1.107 -1.75 -0.69 0.28999999
-1.11 -1.766 -0.69599998 0.33000001
-1.1 -1.763 -0.69300002 0.28
-1.107 -1.781 -0.69999999 0.33000001
-1.103 -1.786 -0.70099998 0.28999999
-1.08 -1.76 -0.68800002 0
-1.079 -1.772 -0.69199997 0
-1.072 -1.774 -0.69099998 0
-1.063 -1.77 -0.68800002 0
-1.043 -1.748 -0.676 0
-1.007 -1.693 -0.65100002 0
-1.096 -1.8609999 -0.72500002 0
-1.057 -1.8049999 -0.69800001 0
-1.068 -1.839 -0.71200001 0
-1.0039999 -1.934 -0.73199999 0
-0.98500001 -1.918 -0.72399998 0
-0.97399998 -1.959 -0.736 0
-1.025 -2.0899999 -0.79000002 0
-1.011 -2.076 -0.78299999 0
-0.99800003 -2.0829999 -0.78299999 0
-0.991 -2.086 -0.78299999 0
-0.99199998 -2.1040001 -0.79000002 0
-1.027 -2.2 -0.82999998 0
-1 -2.1489999 -0.80699998 0
-0.99299997 -2.151 -0.80599999 0
-1.005 -2.198 -0.82499999 0
-1 -2.2049999 -0.82700002 0
-0.99800003 -2.22 -0.83200002 0
-0.995 -2.2320001 -0.83600003 0
-0.98400003 -2.2260001 -0.83200002 0
-0.97399998 -2.2309999 -0.83200002 0
-0.99199998 -2.2939999 -0.85699999 0
-0.99400002 -2.3180001 -0.866 0
-0.991 -2.3329999 -0.87099999 0
-0.97799999 -2.322 -0.86500001 0
-0.97600001 -2.3269999 -0.86699998 0
-0.97600001 -2.349 -0.875 0
-0.96600002 -2.345 -0.87199998 0
-0.96200001 -2.3570001 -0.87599999 0
-0.95499998 -2.3599999 -0.87599999 0
-0.954 -2.3800001 -0.88300002 0
-0.94199997 -2.3710001 -0.87800002 0
-0.92799997 -2.345 -0.866 0
-0.93099999 -2.3759999 -0.87800002 0
-0.92900002 -2.392 -0.884 0
-0.88499999 -2.299 -0.84399998 0
-0.884 -2.3180001 -0.85000002 0
-0.87 -2.303 -0.84299999 0
-0.89499998 -2.3929999 -0.87900001 0
-0.96399999 -2.7030001 -1.002 0
-0.95700002 -2.7119999 -1.0039999 0
-0.94999999 -2.9619999 -1.096 0
-0.95200002 -3 -1.11 0
-0.94800001 -3.0209999 -1.118 0
-0.93800002 -3.0239999 -1.118 0
-0.93099999 -3.0339999 -1.1210001 0
-0.89200002 -3.026 -1.113 0
-0.87900001 -3.0150001 -1.107 0
-0.80400002 -2.983 -1.0880001 0
-0.81099999 -3.049 -1.113 0
-0.792 -3.0139999 -1.098 0
-0.77700001 -2.977 -1.0829999 0
-0.76999998 -2.987 -1.086 0
-0.755 -2.967 -1.077 0
-0.75199997 -2.997 -1.0880001 0
-0.74699998 -3.017 -1.095 0
-0.72899997 -2.983 -1.081 0
-0.72799999 -3.02 -1.094 0
-0.40900001 -1.732 -0.57700002 0
-0.396 -1.751 -0.583 0
-0.38100001 -1.697 -0.56099999 0
-0.37400001 -1.687 -0.55599999 0
-0.37200001 -1.705 -0.56300002 0
-0.368 -1.715 -0.56699997 0
-0.36199999 -1.709 -0.56400001 0
-0.35499999 -1.706 -0.56199998 0
-0.34 -1.73 -0.56999999 0
-0.322 -1.692 -0.55400002 0
-0.32100001 -1.717 -0.56400001 0
-0.31900001 -1.7359999 -0.57099998 0
-0.315 -1.727 -0.56699997 0
-0.31 -1.734 -0.56900001 0
-0.303 -1.726 -0.56599998 0
-0.29899999 -1.734 -0.56900001 0
-0.29100001 -1.722 -0.56400001 0
-0.28799999 -1.7359999 -0.56900001 0.029999999
-0.285 -1.733 -0.56699997 0.039999999
-0.27900001 -1.734 -0.56699997 0.079999998
-0.27399999 -1.733 -0.56699997 0.090000004
-0.26800001 -1.73 -0.565 0.090000004
-0.26199999 -1.727 -0.56400001 0.13
-0.26199999 -1.772 -0.58099997 0.25
-0.255 -1.758 -0.57499999 0.2
-0.25099999 -1.753 -0.57300001 0.25
-0.243 -1.7309999 -0.56400001 0.28
-0.237 -1.725 -0.56099999 0.31
-0.23199999 -1.7309999 -0.56400001 0.31999999
-0.227 -1.7359999 -0.565 0.31999999
-0.22 -1.727 -0.56099999 0.31
-0.215 -1.728 -0.56099999 0.31999999
-0.212 -1.73 -0.56199998 0.31
-0.206 -1.721 -0.55900002 0.30000001
-0.20299999 -1.748 -0.56900001 0.34
-0.198 -1.752 -0.56999999 0.33000001
-0.191 -1.738 -0.56400001 0.31999999
-0.18700001 -1.75 -0.56900001 0.31
-0.183 -1.773 -0.57700002 0.30000001
-0.17900001 -1.758 -0.57200003 0.27000001
-0.17399999 -1.76 -0.57200003 0.28999999
-0.169 -1.772 -0.57700002 0.30000001
-0.163 -1.763 -0.57300001 0.30000001
-0.15700001 -1.766 -0.574 0.27000001
-0.153 -1.785 -0.58099997 0.16
-0.149 -1.7640001 -0.57300001 0.31
-0.14399999 -1.7690001 -0.57499999 0.19
-0.139 -1.791 -0.583 0
-0.131 -1.753 -0.56800002 0
-0.126 -1.757 -0.56900001 0
0.059999999 -2.0480001 -0.68099999 0
0.064000003 -1.993 -0.66000003 0
0.07 -1.995 -0.66100001 0
0.074000001 -1.995 -0.66100001 0
0.079999998 -2.0079999 -0.66600001 0
0.086999997 -2.0039999 -0.66500002 0
0.092 -1.983 -0.65700001 0
0.096000001 -1.9579999 -0.64700001 0
0.103 -1.966 -0.64999998 0
0.11 -1.975 -0.65399998 0
0.112 -1.967 -0.65100002 0
0.119 -1.97 -0.65200001 0
0.126 -1.977 -0.65499997 0
0.134 -1.999 -0.66399997 0
0.142 -2.0209999 -0.67299998 0.11
0.148 -2.0220001 -0.67299998 0.11
0.154 -2.0150001 -0.67000002 0.16
0.15800001 -2.029 -0.676 0.12
0.16500001 -2.0320001 -0.67799997 0.18000001
0.171 -2.026 -0.676 0.12
0.178 -2.029 -0.67699999 0.14
0.183 -2.0209999 -0.67400002 0.23
0.19 -2.0209999 -0.67400002 0.16
0.199 -2.0439999 -0.68400002 0.25
0.20200001 -2.04 -0.68199998 0.16
0.20999999 -2.0599999 -0.69 0.13
0.214 -2.0369999 -0.68099999 0.14
0.22 -2.0350001 -0.68099999 0.050000001
0.229 -2.0539999 -0.68900001 0.16
0.235 -2.05 -0.68699998 0.11
0.241 -2.0420001 -0.68400002 0.15000001
0.245 -2.049 -0.68699998 0.050000001
0.25400001 -2.0680001 -0.69499999 0.14
0.25999999 -2.0599999 -0.69199997 0.050000001
0.26499999 -2.0539999 -0.69 0.14
0.273 -2.0639999 -0.69400001 0.18000001
0.28 -2.0650001 -0.69499999 0.1
0.28200001 -2.059 -0.69300002 0
0.28799999 -2.0510001 -0.69 0.14
0.296 -2.059 -0.69400001 0
0.30199999 -2.0599999 -0.69400001 0.13
0.31400001 -2.0880001 -0.70599997 0.050000001
0.315 -2.0580001 -0.69400001 0
0.31999999 -2.0480001 -0.69099998 0
0.31799999 -2.016 -0.67799997 0
0.31999999 -1.9910001 -0.66900003 0
0.40400001 -2.069 -0.70499998 0
0.42199999 -2.122 -0.72600001 0.050000001
0.428 -2.1329999 -0.73100001 0
0.42899999 -2.102 -0.71899998 0
0.43399999 -2.0929999 -0.71600002 0
2.4660001 -3.641 -1.598 0.02
2.47 -3.6340001 -1.597 0.13
2.4679999 -3.608 -1.5880001 0.1
2.464 -3.5769999 -1.577 0.20999999
2.487 -3.5869999 -1.585 0.25999999
2.4920001 -3.5699999 -1.581 0.23
2.497 -3.5539999 -1.577 0.31
2.507 -3.5450001 -1.576 0.33000001
2.51 -3.5250001 -1.571 0.25
2.5250001 -3.5339999 -1.577 0.34999999
2.54 -3.5309999 -1.579 0.31
2.5469999 -3.5179999 -1.577 0.31
2.562 -3.5150001 -1.579 0.31999999
2.566 -3.4979999 -1.575 0.31999999
2.5810001 -3.4960001 -1.5779999 0.31999999
2.5880001 -3.493 -1.579 0.34999999
2.599 -3.4849999 -1.579 0.28999999
2.6159999 -3.484 -1.582 0.31999999
2.631 -3.4820001 -1.585 0.34
2.628 -3.4560001 -1.576 0.28999999
2.651 -3.4619999 -1.584 0.34
2.6559999 -3.447 -1.58 0.28999999
2.661 -3.4430001 -1.58 0.34
2.678 -3.4419999 -1.584 0.33000001
2.6860001 -3.4300001 -1.582 0.28999999
2.7 -3.4260001 -1.584 0.34999999
2.7160001 -3.4230001 -1.587 0.30000001
2.727 -3.415 -1.587 0.36000001
2.73 -3.398 -1.5829999 0.28999999
2.7449999 -3.405 -1.589 0.34
2.7550001 -3.395 -1.5880001 0.25999999
2.77 -3.392 -1.591 0.34999999
2.783 -3.3859999 -1.592 0.34
2.786 -3.369 -1.5880001 0.34999999
2.8010001 -3.3640001 -1.59 0.25999999
2.816 -3.3710001 -1.596 0.38999999
2.8180001 -3.352 -1.591 0.27000001
2.839 -3.3559999 -1.598 0.41
2.842 -3.339 -1.5930001 0.30000001
2.8599999 -3.3380001 -1.598 0.31999999
2.8640001 -3.322 -1.594 0.34
2.8800001 -3.319 -1.597 0.34
2.8870001 -3.3169999 -1.598 0.28
2.8970001 -3.3069999 -1.598 0.34999999
2.9119999 -3.303 -1.6 0.34
2.921 -3.293 -1.6 0.28
2.9389999 -3.2920001 -1.604 0.37
2.9489999 -3.2820001 -1.604 0.34999999
2.9630001 -3.277 -1.6059999 0.34
2.9579999 -3.2620001 -1.6 0.31999999
2.9749999 -3.2590001 -1.604 0.31
2.9879999 -3.253 -1.6059999 0.31999999
3.0020001 -3.247 -1.608 0.34
3.003 -3.2279999 -1.603 0.31
3.0120001 -3.217 -1.602 0.28999999
3.033 -3.22 -1.608 0.36000001
3.0369999 -3.214 -1.608 0.31999999
3.062 -3.2190001 -1.6160001 0.31999999
3.0650001 -3.2030001 -1.612 0.34999999
3.0650001 -3.1830001 -1.6059999 0.31
3.0769999 -3.1760001 -1.608 0.31999999
3.095 -3.174 -1.612 0.34
3.1040001 -3.1630001 -1.6109999 0.31999999
3.1040001 -3.1530001 -1.608 0.34
3.1159999 -3.145 -1.61 0.33000001
3.1340001 -3.1440001 -1.614 0.34
3.1440001 -3.1340001 -1.614 0.28999999
3.152 -3.122 -1.614 0.40000001
3.1589999 -3.1099999 -1.612 0.27000001
3.1589999 -3.0999999 -1.609 0.37
3.171 -3.092 -1.6109999 0.28999999
3.188 -3.089 -1.614 0.34999999
3.1960001 -3.0780001 -1.614 0.31
3.2 -3.062 -1.6109999 0.31
3.2179999 -3.0599999 -1.615 0.34
3.23 -3.052 -1.6160001 0.34
3.2379999 -3.05 -1.618 0.34
3.25 -3.0420001 -1.619 0.36000001
3.253 -3.026 -1.6160001 0.28999999
3.2650001 -3.0179999 -1.617 0.33000001
3.2720001 -3.0050001 -1.6160001 0.31999999
3.2850001 -2.9990001 -1.618 0.34
3.303 -2.9960001 -1.622 0.34
3.2939999 -2.9779999 -1.615 0.28999999
3.309 -2.973 -1.618 0.34999999
3.313 -2.957 -1.615 0.33000001
3.3369999 -2.961 -1.623 0.28999999
3.348 -2.951 -1.624 0.34999999
3.3469999 -2.9319999 -1.619 0.34
3.365 -2.9289999 -1.623 0.31999999
3.3710001 -2.925 -1.624 0.33000001
3.3829999 -2.9170001 -1.625 0.34
3.3940001 -2.9070001 -1.626 0.34999999
3.3970001 -2.892 -1.623 0.31999999
3.4089999 -2.8829999 -1.624 0.36000001
3.4119999 -2.868 -1.622 0.25999999
3.438 -2.8800001 -1.632 0.38
3.4289999 -2.8540001 -1.623 0.25999999
3.4449999 -2.849 -1.627 0.34999999
3.451 -2.836 -1.625 0.30000001
3.464 -2.829 -1.627 0.33000001
3.4760001 -2.8199999 -1.6289999 0.34
3.4960001 -2.819 -1.635 0.34999999
3.4920001 -2.806 -1.63 0.28
3.5020001 -2.796 -1.631 0.36000001
3.51 -2.7839999 -1.63 0.34
3.52 -2.7739999 -1.631 0.33000001
3.533 -2.767 -1.633 0.34
3.536 -2.7509999 -1.63 0.28
3.546 -2.7409999 -1.631 0.41
3.5539999 -2.7390001 -1.633 0.28999999
3.566 -2.73 -1.635 0.28999999
3.5599999 -2.707 -1.627 0.31999999
3.589 -2.7119999 -1.638 0.44999999
3.586 -2.6919999 -1.632 0.25
3.6059999 -2.6889999 -1.638 0.38
3.6210001 -2.6819999 -1.64 0.30000001
3.6140001 -2.6689999 -1.635 0.28
3.6359999 -2.6670001 -1.642 0.38
3.6370001 -2.651 -1.638 0.28999999
3.6570001 -2.648 -1.6440001 0.37
3.6500001 -2.625 -1.637 0.30000001
3.6719999 -2.6240001 -1.643 0.31999999
3.6700001 -2.605 -1.638 0.31
3.6849999 -2.6059999 -1.643 0.31
3.691 -2.5940001 -1.643 0.31999999
3.7030001 -2.5840001 -1.6440001 0.31
3.717 -2.5769999 -1.647 0.33000001
3.7219999 -2.563 -1.646 0.31999999
3.734 -2.5539999 -1.648 0.31
3.74 -2.55 -1.648 0.34
3.753 -2.5409999 -1.651 0.33000001
3.753 -2.5239999 -1.647 0.31
3.7639999 -2.5139999 -1.648 0.31999999
3.7809999 -2.5079999 -1.653 0.31
3.789 -2.497 -1.653 0.28999999
3.7939999 -2.483 -1.651 0.36000001
3.7939999 -2.4749999 -1.65 0.31999999
3.8099999 -2.4679999 -1.654 0.27000001
3.8210001 -2.4579999 -1.655 0.33000001
3.8269999 -2.4449999 -1.654 0.38999999
3.8510001 -2.4430001 -1.6619999 0.33000001
3.846 -2.4230001 -1.656 0.33000001
3.859 -2.414 -1.659 0.28999999
3.8659999 -2.4100001 -1.66 0.31999999
3.869 -2.395 -1.658 0.31
3.8800001 -2.385 -1.659 0.36000001
3.8989999 -2.3800001 -1.664 0.33000001
3.908 -2.368 -1.665 0.31
3.905 -2.3499999 -1.661 0.23
3.911 -2.345 -1.6619999 0.28999999
3.9230001 -2.336 -1.664 0.47999999
3.9289999 -2.322 -1.663 0.28
3.9419999 -2.3139999 -1.666 0.31999999
3.9579999 -2.306 -1.67 0.28999999
3.9660001 -2.2939999 -1.67 0.34
3.97 -2.28 -1.669 0.31999999
3.9630001 -2.267 -1.664 0.28
3.9760001 -2.2590001 -1.6670001 0.37
3.977 -2.243 -1.664 0.28999999
3.9979999 -2.2379999 -1.67 0.34
3.997 -2.221 -1.6670001 0.28999999
4.0089998 -2.211 -1.669 0.31999999
4.0139999 -2.198 -1.668 0.28999999
4.0229998 -2.194 -1.67 0.28999999
4.0349998 -2.184 -1.6720001 0.28
4.033 -2.1670001 -1.669 0.30000001
4.0380001 -2.1530001 -1.668 0.28999999
4.0549998 -2.1459999 -1.6720001 0.31
4.0469999 -2.125 -1.666 0.20999999
4.073 -2.1229999 -1.675 0.41
4.0830002 -2.1199999 -1.678 0.31999999
4.092 -2.108 -1.678 0.27000001
4.098 -2.095 -1.678 0.31999999
4.0999999 -2.0799999 -1.676 0.27000001
4.1009998 -2.0639999 -1.674 0.28999999
4.1160002 -2.056 -1.678 0.30000001
4.1139998 -2.039 -1.674 0.30000001
4.1240001 -2.0350001 -1.677 0.30000001
4.1370001 -2.026 -1.6799999 0.31999999
4.1300001 -2.006 -1.674 0.28
4.145 -1.997 -1.678 0.31999999
4.1490002 -1.983 -1.677 0.33000001
4.152 -1.969 -1.675 0.25999999
4.1490002 -1.959 -1.6720001 0.27000001
4.1529999 -1.9450001 -1.6720001 0.28999999
4.1539998 -1.9299999 -1.67 0.30000001
4.152 -1.913 -1.666 0.28999999
4.164 -1.903 -1.669 0.28999999
4.158 -1.885 -1.664 0.30000001
4.1690001 -1.874 -1.666 0.27000001
4.1669998 -1.865 -1.664 0.27000001
4.1659999 -1.849 -1.661 0.30000001
4.1719999 -1.836 -1.661 0.25999999
4.178 -1.823 -1.661 0.30000001
4.1849999 -1.8099999 -1.6619999 0.28
4.1859999 -1.795 -1.659 0.27000001
4.1999998 -1.785 -1.663 0.28999999
4.2030001 -1.779 -1.663 0.31999999
4.2010002 -1.763 -1.66 0.27000001
4.2160001 -1.753 -1.664 0.30000001
4.2189999 -1.739 -1.663 0.28
4.2090001 -1.719 -1.656 0.30000001
4.2199998 -1.7079999 -1.659 0.28
4.2129998 -1.6900001 -1.654 0.28
4.2259998 -1.688 -1.658 0.28
4.237 -1.676 -1.66 0.28999999
4.2210002 -1.655 -1.651 0.27000001
4.2280002 -1.643 -1.652 0.27000001
4.2470002 -1.635 -1.658 0.28
4.2540002 -1.622 -1.659 0.28
4.2449999 -1.603 -1.653 0.28999999
4.2600002 -1.601 -1.658 0.27000001
4.2579999 -1.585 -1.655 0.30000001
4.2540002 -1.569 -1.651 0.28
4.2600002 -1.556 -1.652 0.25999999
4.2690001 -1.544 -1.654 0.27000001
4.2719998 -1.53 -1.653 0.28
4.2810001 -1.525 -1.656 0.28999999
4.2839999 -1.511 -1.655 0.28999999
4.2940001 -1.5 -1.6569999 0.25999999
4.2969999 -1.4859999 -1.656 0.28
4.29 -1.4680001 -1.651 0.30000001
4.2919998 -1.454 -1.651 0.28999999
4.322 -1.449 -1.661 0.25
4.3119998 -1.438 -1.656 0.30000001
4.309 -1.4220001 -1.653 0.28999999
4.3260002 -1.4119999 -1.658 0.25999999
4.3299999 -1.399 -1.658 0.28
4.3330002 -1.385 -1.6569999 0.27000001
4.3410001 -1.372 -1.659 0.28999999
4.349 -1.359 -1.66 0.31
4.3400002 -1.349 -1.656 0.28999999
4.3340001 -1.332 -1.651 0.30000001
4.3410001 -1.3200001 -1.653 0.28999999
4.3540001 -1.309 -1.656 0.25
4.362 -1.296 -1.658 0.28
4.3709998 -1.284 -1.66 0.28
4.3590002 -1.266 -1.654 0.31999999
4.3559999 -1.257 -1.651 0.27000001
4.3709998 -1.247 -1.656 0.28999999
4.3709998 -1.232 -1.654 0.28999999
4.3800001 -1.22 -1.656 0.25
4.3889999 -1.207 -1.659 0.28
4.3839998 -1.191 -1.655 0.28999999
4.3860002 -1.177 -1.654 0.30000001
4.3860002 -1.17 -1.654 0.28999999
4.3899999 -1.156 -1.654 0.25
4.401 -1.1440001 -1.656 0.31
4.4109998 -1.132 -1.659 0.28
4.4130001 -1.118 -1.659 0.28
4.3969998 -1.099 -1.651 0.28999999
4.4109998 -1.0880001 -1.655 0.27000001
4.4159999 -1.082 -1.656 0
4.4200001 -1.068 -1.656 0
4.4450002 -1.059 -1.665 0
4.4190001 -1.038 -1.654 0
4.4299998 -1.026 -1.656 0.029999999
4.4489999 -1.016 -1.663 0.12
4.434 -1.005 -1.656 0.28999999
4.4429998 -0.99199998 -1.659 0.25
4.4439998 -0.97799999 -1.658 0.25
4.447 -0.96399999 -1.658 0.27000001
4.448 -0.94999999 -1.6569999 0.28
4.4460001 -0.935 -1.655 0.14
4.4419999 -0.91900003 -1.652 0.31999999
4.447 -0.91299999 -1.654 0.25
4.4569998 -0.89999998 -1.656 0.28
4.4720001 -0.889 -1.6619999 0.25
4.4510002 -0.87 -1.652 0.17
4.4650002 -0.85799998 -1.656 0.31999999
4.4640002 -0.84399998 -1.655 0.25
4.4780002 -0.83200002 -1.659 0.28999999
4.4790001 -0.824 -1.659 0.25999999
4.48 -0.81 -1.659 0.28999999
4.4819999 -0.796 -1.659 0.30000001
4.4770002 -0.78100002 -1.656 0.28999999
4.487 -0.76800001 -1.659 0.28999999
4.4899998 -0.75400001 -1.659 0.30000001
4.4959998 -0.74000001 -1.66 0.31
4.4879999 -0.73199999 -1.656 0.28999999
4.5009999 -0.71899998 -1.661 0.30000001
4.487 -0.70300001 -1.654 0.31999999
4.5089998 -0.69199997 -1.6619999 0.25
4.506 -0.67699999 -1.66 0.28999999
4.4949999 -0.66100001 -1.655 0.2
4.5139999 -0.64899999 -1.6619999 0.25999999
4.5110002 -0.64099997 -1.66 0.25
4.513 -0.62699997 -1.66 0.27000001
4.5349998 -0.61500001 -1.668 0.23999999
4.5170002 -0.59899998 -1.66 0.31
4.5149999 -0.58399999 -1.659 0.28
