# .PCD v0.7 - Point Cloud Data file format
VERSION 0.7
FIELDS x y z intensity
SIZE 4 4 4 4
TYPE F F F F
COUNT 1 1 1 1
WIDTH 1387
HEIGHT 1
VIEWPOINT 0 0 0 1 0 0 0
POINTS 1387
DATA ascii
-8.5360003 -1.061 -1.793 0.27000001
-8.5129995 -1.085 -1.789 0.30000001
-8.5139999 -1.112 -1.79 0.27000001
-8.5220003 -1.141 -1.793 0.28
-8.5080004 -1.166 -1.79 0.27000001
-8.507 -1.193 -1.791 0.30000001
-8.5100002 -1.221 -1.793 0.28
-8.507 -1.234 -1.7920001 0.27000001
-8.4849997 -1.258 -1.788 0.28999999
-8.5010004 -1.288 -1.793 0.28999999
-8.4890003 -1.313 -1.791 0.28999999
-8.4899998 -1.341 -1.7920001 0.27000001
-8.4940004 -1.369 -1.794 0.30000001
-8.4799995 -1.3940001 -1.7920001 0.25
-8.4870005 -1.409 -1.794 0.28999999
-8.4729996 -1.434 -1.7920001 0.31
-8.474 -1.461 -1.793 0.25999999
-8.4720001 -1.488 -1.793 0.28
-8.4809999 -1.517 -1.796 0.27000001
-8.4569998 -1.54 -1.7920001 0.31
-8.4589996 -1.568 -1.794 0.25999999
-8.4619999 -1.596 -1.796 0.27000001
-8.4499998 -1.608 -1.793 0.28
-8.4560003 -1.637 -1.796 0.27000001
-8.4569998 -1.664 -1.7970001 0.28999999
-8.4379997 -1.688 -1.794 0.31
-8.4350004 -1.715 -1.795 0.30000001
-8.4429998 -1.744 -1.798 0.28
-8.4219999 -1.768 -1.794 0.28999999
-8.4230003 -1.7819999 -1.795 0.31
-8.4250002 -1.8099999 -1.7970001 0.27000001
-8.4209995 -1.837 -1.7970001 0.28999999
-8.3979998 -1.859 -1.793 0.28
-8.415 -1.891 -1.799 0.27000001
-8.3879995 -1.9119999 -1.794 0.30000001
-8.3780003 -1.938 -1.793 0.27000001
-8.3909998 -1.955 -1.796 0.28999999
-8.3769999 -1.979 -1.795 0.28999999
-8.3780003 -2.007 -1.796 0.28999999
-8.3959999 -2.039 -1.802 0.27000001
-8.375 -2.062 -1.799 0.30000001
-8.3640003 -2.0869999 -1.798 0.28999999
-8.3809996 -2.119 -1.803 0.25
-8.3769999 -2.1329999 -1.803 0.30000001
-8.3590002 -2.1559999 -1.8 0.31999999
-8.3579998 -2.184 -1.802 0.28
-8.3549995 -2.211 -1.803 0.27000001
-8.3520002 -2.2379999 -1.803 0.23999999
-8.3299999 -2.26 -1.8 0.2
-8.309 -2.283 -1.7970001 0.34999999
-8.3170004 -2.299 -1.8 0.36000001
-8.3129997 -2.326 -1.8 0.36000001
-8.3000002 -2.3510001 -1.799 0.36000001
-8.302 -2.3789999 -1.801 0.34
-8.302 -2.408 -1.803 0.38
-8.2840004 -2.431 -1.8 0.31999999
-8.2810001 -2.4579999 -1.802 0.34
-8.2869997 -2.474 -1.804 0.30000001
-8.2980003 -2.506 -1.808 0.5
-8.2919998 -2.5320001 -1.809 0.31999999
-8.2880001 -2.559 -1.8099999 0.28999999
-8.2849998 -2.5869999 -1.811 0.25999999
-8.2939997 -2.618 -1.8150001 0.28
-8.276 -2.641 -1.813 0.30000001
-8.2810001 -2.6570001 -1.8150001 0.28999999
-8.2729998 -2.6830001 -1.8150001 0.28999999
-8.2609997 -2.7079999 -1.814 0.28999999
-8.2539997 -2.7349999 -1.814 0.28999999
-8.2530003 -2.763 -1.816 0.25999999
-8.25 -2.7909999 -1.817 0.28
-8.25 -2.8199999 -1.8200001 0.27000001
-8.2370005 -2.845 -1.819 0.30000001
-8.2379999 -2.859 -1.8200001 0.28999999
-8.2440004 -2.8900001 -1.823 0.25
-8.2329998 -2.9159999 -1.823 0.28999999
-8.217 -2.9389999 -1.821 0.30000001
-8.2019997 -2.9630001 -1.8200001 0.28
-8.2180004 -2.9979999 -1.826 0.27000001
-8.2069998 -3.023 -1.826 0.28
-8.2130003 -3.04 -1.8279999 0.30000001
-8.1940002 -3.062 -1.826 0.28
-8.1879997 -3.089 -1.827 0.28
-8.1750002 -3.1140001 -1.826 0.30000001
-8.1669998 -3.1400001 -1.826 0.27000001
-8.1660004 -3.1689999 -1.829 0.31999999
-8.1689997 -3.1849999 -1.83 0.28999999
-8.1479998 -3.2060001 -1.8279999 0.28
-8.1450005 -3.2349999 -1.83 0.31999999
-8.1309996 -3.2590001 -1.829 0.30000001
-8.1219997 -3.2850001 -1.829 0.27000001
-8.1079998 -3.309 -1.8279999 0.28999999
-8.1140003 -3.3410001 -1.832 0.33000001
-8.1000004 -3.365 -1.831 0.28999999
-8.0930004 -3.3770001 -1.831 0.31
-8.0819998 -3.402 -1.831 0.28999999
-8.0769997 -3.4300001 -1.832 0.30000001
-8.0629997 -3.454 -1.831 0.28999999
-8.0550003 -3.4809999 -1.832 0.31999999
-8.0480003 -3.5079999 -1.8329999 0.31999999
-8.0319996 -3.5309999 -1.832 0.31
-8.0279999 -3.5439999 -1.832 0.31999999
-8.0170002 -3.569 -1.832 0.31
-8.0139999 -3.598 -1.834 0.31999999
-8.0080004 -3.6259999 -1.836 0.31
-8.0019999 -3.6530001 -1.837 0.30000001
-8.007 -3.6860001 -1.841 0.28999999
-7.9770002 -3.7030001 -1.836 0.30000001
-7.9889998 -3.724 -1.841 0.34
-7.9770002 -3.7490001 -1.841 0.30000001
-7.9710002 -3.776 -1.842 0.31999999
-7.9640002 -3.8039999 -1.8430001 0.34
-7.947 -3.826 -1.842 0.25999999
-7.921 -3.8440001 -1.839 0.36000001
-7.9089999 -3.869 -1.839 0.34
-7.908 -3.8840001 -1.84 0.34
-7.8969998 -3.9100001 -1.84 0.31999999
-7.8779998 -3.931 -1.839 0.28999999
-7.8660002 -3.9560001 -1.839 0.34999999
-7.8660002 -3.987 -1.842 0.34
-7.836 -4.0029998 -1.837 0.27000001
-7.8280001 -4.0300002 -1.839 0.28999999
-7.8319998 -4.0479999 -1.841 0.2
-7.8060002 -4.0650001 -1.8380001 0.44999999
-7.7839999 -4.085 -1.836 0.40000001
-7.7639999 -4.1059999 -1.834 0.41
-7.75 -4.1290002 -1.8329999 0.76999998
-7.7319999 -4.151 -1.832 0.79000002
-7.7119999 -4.171 -1.83 0.77999997
-7.7030001 -4.1820002 -1.83 0.70999998
-7.6900001 -4.2069998 -1.83 0.49000001
-7.651 -4.217 -1.823 0.63999999
-7.6570001 -4.2509999 -1.8279999 0.38
-7.6469998 -4.277 -1.829 0.34999999
-7.625 -4.296 -1.827 0.34
-7.6129999 -4.3210001 -1.827 0.34
-7.6030002 -4.3309999 -1.826 0.34
-7.579 -4.349 -1.824 0.28999999
-7.5700002 -4.3759999 -1.825 0.36000001
-7.5430002 -4.3920002 -1.822 0.28999999
-7.5310001 -4.4169998 -1.822 0.36000001
-7.5149999 -4.4390001 -1.822 0.33000001
-7.4980001 -4.461 -1.821 0.33000001
-7.4809999 -4.467 -1.818 0.34
-7.4650002 -4.4889998 -1.818 0.34
-7.4439998 -4.5089998 -1.816 0.34
-7.4369998 -4.5359998 -1.818 0.33000001
-7.4060001 -4.5489998 -1.813 0.34
-7.388 -4.5700002 -1.813 0.33000001
-7.3769999 -4.5960002 -1.813 0.34
-7.3629999 -4.6030002 -1.812 0.34
-7.3470001 -4.625 -1.811 0.34
-7.322 -4.6420002 -1.809 0.28999999
-7.309 -4.6659999 -1.809 0.34999999
-7.29 -4.6859999 -1.808 0.34
-7.2639999 -4.7010002 -1.8049999 0.28999999
-7.2490001 -4.724 -1.8049999 0.36000001
-7.2270002 -4.7420001 -1.803 0.28999999
-7.2249999 -4.757 -1.804 0.34999999
-7.197 -4.7709999 -1.801 0.28999999
-7.1820002 -4.7940001 -1.801 0.36000001
-7.1620002 -4.8130002 -1.8 0.30000001
-7.1529999 -4.8400002 -1.801 0.34999999
-7.1230001 -4.8520002 -1.7970001 0.28999999
-7.1149998 -4.8790002 -1.799 0.34999999
-7.105 -4.8889999 -1.799 0.34999999
-7.0799999 -4.9050002 -1.796 0.34
-7.0679998 -4.9289999 -1.7970001 0.34
-7.0560002 -4.954 -1.798 0.33000001
-7.0289998 -4.9679999 -1.795 0.28
-7.0240002 -4.9980001 -1.798 0.34999999
-7.0040002 -5 -1.794 0.31999999
-6.9910002 -5.0240002 -1.795 0.34
-6.961 -5.0359998 -1.791 0.33000001
-6.9559999 -5.066 -1.794 0.31999999
-6.9400001 -5.0879998 -1.794 0.31999999
-6.9200001 -5.1059999 -1.793 0.31999999
-6.9000001 -5.125 -1.7920001 0.31999999
-6.8800001 -5.1430001 -1.791 0.28999999
-6.875 -5.1570001 -1.7920001 0.36000001
-6.8600001 -5.1789999 -1.7920001 0.31999999
-6.8439999 -5.2010002 -1.7920001 0.28999999
-6.829 -5.224 -1.793 0.36000001
-6.8000002 -5.2350001 -1.789 0.34999999
-6.802 -5.2709999 -1.794 0.34
-6.77 -5.2800002 -1.79 0.34
-6.757 -5.2880001 -1.789 0.34
-6.7480001 -5.3150001 -1.791 0.34999999
-6.7189999 -5.3260002 -1.7869999 0.34
-6.7049999 -5.3499999 -1.788 0.33000001
-6.6890001 -5.3709998 -1.788 0.28999999
-6.6700001 -5.3909998 -1.788 0.34999999
-6.6490002 -5.408 -1.786 0.34999999
-6.6479998 -5.4239998 -1.789 0.33000001
-6.6170001 -5.434 -1.785 0.34
-6.5949998 -5.4510002 -1.783 0.31999999
-6.586 -5.4780002 -1.786 0.31999999
-6.5570002 -5.4889998 -1.7819999 0.33000001
-6.5359998 -5.507 -1.781 0.31999999
-6.5289998 -5.5359998 -1.784 0.31999999
-6.5089998 -5.5359998 -1.781 0.34
-6.4780002 -5.5450001 -1.777 0.34999999
-6.4770002 -5.5799999 -1.7819999 0.34
-6.4460001 -5.5879998 -1.778 0.34
-6.4250002 -5.6059999 -1.777 0.28999999
-6.4169998 -5.6339998 -1.78 0.34999999
-6.3889999 -5.645 -1.776 0.31999999
-6.369 -5.6459999 -1.773 0.28999999
-6.3660002 -5.6789999 -1.778 0.34999999
-6.3429999 -5.6939998 -1.776 0.34
-6.3200002 -5.71 -1.775 0.34
-6.3039999 -5.7309999 -1.775 0.34999999
-6.276 -5.7420001 -1.772 0.34
-6.2579999 -5.7610002 -1.772 0.34
-6.2490001 -5.7709999 -1.772 0.27000001
-6.2290001 -5.789 -1.772 0.34999999
-6.211 -5.809 -1.772 0.34
-6.1950002 -5.8309999 -1.773 0.34
-6.164 -5.8379998 -1.7690001 0.33000001
-6.1399999 -5.8520002 -1.767 0.33000001
-6.1360002 -5.8850002 -1.771 0.34
-6.1110001 -5.8800001 -1.766 0.33000001
-6.0949998 -5.902 -1.767 0.34
-6.0739999 -5.9180002 -1.766 0.28
-6.0510001 -5.9330001 -1.765 0.34999999
-6.0190001 -5.9380002 -1.761 0.28
-6.0190001 -5.9770002 -1.767 0.34999999
-5.9920001 -5.987 -1.7640001 0.34
-5.9829998 -5.9970002 -1.7640001 0.34
-5.9640002 -6.0149999 -1.7640001 0.34
-5.934 -6.0229998 -1.761 0.34
-5.921 -6.0469999 -1.763 0.34
-5.908 -6.073 -1.765 0.33000001
-5.8839998 -6.086 -1.763 0.34
-5.862 -6.1009998 -1.762 0.34
-5.8470001 -6.105 -1.76 0.33000001
-5.8280001 -6.1230001 -1.76 0.31999999
-5.8130002 -6.1459999 -1.762 0.31999999
-5.7839999 -6.1539998 -1.7589999 0.25
-5.7550001 -6.1620002 -1.756 0.33000001
-5.7410002 -6.1859999 -1.757 0.47999999
-5.7329998 -6.217 -1.761 0.36000001
-5.7160001 -6.217 -1.7589999 0.28
-5.6919999 -6.2309999 -1.757 0.31999999
-5.6810002 -6.257 -1.76 0.34
-5.6529999 -6.2659998 -1.757 0.34
-5.632 -6.283 -1.757 0.34
-5.6100001 -6.2969999 -1.756 0.34
-5.592 -6.3179998 -1.757 0.34999999
-5.5710001 -6.3340001 -1.756 0.34
-5.5630002 -6.3439999 -1.757 0.33000001
-5.5409999 -6.3600001 -1.756 0.34999999
-5.5139999 -6.369 -1.7539999 0.28999999
-5.494 -6.3860002 -1.7539999 0.36000001
-5.4679999 -6.3969998 -1.752 0.28999999
-5.448 -6.415 -1.752 0.34999999
-5.4260001 -6.4289999 -1.751 0.30000001
-5.4180002 -6.4400001 -1.752 0.34999999
-5.3899999 -6.448 -1.749 0.30000001
-5.3740001 -6.4699998 -1.751 0.34999999
-5.3610001 -6.4949999 -1.753 0.34
-5.3319998 -6.5019999 -1.75 0.28999999
-5.3140001 -6.5209999 -1.751 0.34999999
-5.2880001 -6.5320001 -1.749 0.31
-5.2750001 -6.5370002 -1.749 0.34999999
-5.2600002 -6.5599999 -1.75 0.28
-5.2420001 -6.579 -1.751 0.37
-5.217 -6.5910001 -1.75 0.34
-5.1929998 -6.6030002 -1.749 0.30000001
-5.171 -6.618 -1.748 0.34999999
-5.1589999 -6.6240001 -1.748 0.30000001
-5.1399999 -6.6420002 -1.748 0.34999999
-5.1139998 -6.652 -1.7460001 0.30000001
-5.099 -6.6760001 -1.749 0.37
-5.0710001 -6.6830001 -1.7460001 0.28999999
-5.053 -6.7030001 -1.747 0.34999999
-5.0240002 -6.7080002 -1.744 0.30000001
-5.0240002 -6.73 -1.748 0.34999999
-4.9959998 -6.7360001 -1.7460001 0.28999999
-4.9720001 -6.7490001 -1.745 0.34999999
-4.954 -6.7680001 -1.7460001 0.28999999
-4.9320002 -6.783 -1.7460001 0.36000001
-4.9039998 -6.789 -1.743 0.28999999
-4.888 -6.8119998 -1.745 0.34999999
-4.8649998 -6.8249998 -1.744 0.30000001
-4.8559999 -6.835 -1.745 0.36000001
-4.8309999 -6.8460002 -1.744 0.28999999
-4.8140001 -6.8670001 -1.7460001 0.36000001
-4.7880001 -6.8759999 -1.744 0.34999999
-4.7639999 -6.888 -1.743 0.28999999
-4.7459998 -6.908 -1.744 0.36000001
-4.7199998 -6.9159999 -1.743 0.30000001
-4.7090001 -6.9229999 -1.743 0.36000001
-4.684 -6.9330001 -1.7410001 0.28999999
-4.665 -6.9530001 -1.743 0.36000001
-4.6409998 -6.9640002 -1.742 0.34
-4.6199999 -6.9790001 -1.742 0.30000001
-4.5970001 -6.9920001 -1.7410001 0.34999999
-4.586 -6.9990001 -1.7410001 0.34
-4.5570002 -7.0029998 -1.739 0.30000001
-4.5339999 -7.0159998 -1.738 0.36000001
-4.5170002 -7.0380001 -1.74 0.28999999
-4.4920001 -7.0479999 -1.739 0.34999999
-4.473 -7.0669999 -1.74 0.30000001
-4.4549999 -7.0869999 -1.742 0.36000001
-4.4159999 -7.0749998 -1.735 0.30000001
-4.4089999 -7.0879998 -1.737 0.37
-4.3899999 -7.1069999 -1.738 0.30000001
-4.369 -7.1240001 -1.739 0.34999999
-4.342 -7.1300001 -1.737 0.30000001
-4.3260002 -7.1529999 -1.739 0.34999999
-4.289 -7.1430001 -1.733 0.28
-4.27 -7.1620002 -1.735 0.34999999
-4.2600002 -7.1719999 -1.7359999 0.30000001
-4.2350001 -7.1799998 -1.734 0.34999999
-4.2119999 -7.1929998 -1.734 0.34
-4.1890001 -7.2049999 -1.734 0.28999999
-4.165 -7.2160001 -1.733 0.34999999
-4.1370001 -7.2210002 -1.7309999 0.28
-4.1230001 -7.2490001 -1.735 0.34999999
-4.1069999 -7.2470002 -1.733 0.34
-4.0830002 -7.2579999 -1.733 0.33000001
-4.0609999 -7.2709999 -1.733 0.28999999
-4.0339999 -7.277 -1.7309999 0.36000001
-4.007 -7.283 -1.729 0.28999999
-3.997 -7.3179998 -1.735 0.36000001
-3.9619999 -7.3099999 -1.729 0.28999999
-3.9530001 -7.3189998 -1.73 0.34999999
-3.937 -7.3449998 -1.734 0.34999999
-3.9030001 -7.3369999 -1.729 0.28999999
-3.8770001 -7.3439999 -1.727 0.34999999
-3.8629999 -7.3740001 -1.732 0.34
-3.8299999 -7.3670001 -1.727 0.28999999
-3.806 -7.3769999 -1.726 0.31999999
-3.802 -7.3979998 -1.73 0.34999999
-3.7709999 -7.395 -1.726 0.34
-3.744 -7.4000001 -1.725 0.28999999
-3.7320001 -7.4320002 -1.73 0.36000001
-3.7 -7.4260001 -1.726 0.30000001
-3.6760001 -7.4380002 -1.726 0.34999999
-3.6570001 -7.4580002 -1.728 0.28999999
-3.6400001 -7.454 -1.725 0.36000001
-3.615 -7.461 -1.724 0.28999999
-3.5940001 -7.4780002 -1.726 0.36000001
-3.563 -7.473 -1.722 0.30000001
-3.5420001 -7.4899998 -1.723 0.34999999
-3.5179999 -7.4990001 -1.723 0.31
-3.493 -7.507 -1.722 0.37
-3.48 -7.5100002 -1.721 0.30000001
-3.46 -7.5300002 -1.723 0.36000001
-3.4300001 -7.527 -1.72 0.31
-3.4100001 -7.5450001 -1.722 0.36000001
-3.3840001 -7.5500002 -1.72 0.30000001
-3.359 -7.559 -1.72 0.34999999
-3.335 -7.5679998 -1.719 0.30000001
-3.323 -7.5749998 -1.72 0.34999999
-3.2950001 -7.5739999 -1.717 0.31
-3.273 -7.5900002 -1.719 0.37
-3.2460001 -7.5929999 -1.717 0.30000001
-3.224 -7.6069999 -1.7180001 0.34999999
-3.1960001 -7.6079998 -1.716 0.30000001
-3.1760001 -7.625 -1.717 0.36000001
-3.1600001 -7.6209998 -1.715 0.31
-3.1370001 -7.6350002 -1.716 0.34999999
-3.1099999 -7.6370001 -1.714 0.30000001
-3.086 -7.645 -1.714 0.34999999
-3.056 -7.6420002 -1.711 0.30000001
-3.036 -7.6609998 -1.7130001 0.36000001
-3.0079999 -7.6589999 -1.71 0.30000001
-2.9990001 -7.671 -1.712 0.36000001
-2.97 -7.6700001 -1.709 0.31
-2.9449999 -7.6750002 -1.709 0.34999999
-2.918 -7.6789999 -1.707 0.30000001
-2.8959999 -7.6939998 -1.709 0.36000001
-2.869 -7.6950002 -1.707 0.30000001
-2.8529999 -7.7259998 -1.712 0.37
-2.836 -7.7160001 -1.709 0.34
-2.809 -7.7179999 -1.707 0.30000001
-2.7839999 -7.7249999 -1.706 0.36000001
-2.756 -7.724 -1.704 0.30000001
-2.7360001 -7.744 -1.707 0.37
-2.71 -7.7470002 -1.706 0.30000001
-2.6860001 -7.757 -1.706 0.38
-2.6719999 -7.756 -1.705 0.30000001
-2.6470001 -7.7620001 -1.704 0.36000001
-2.6240001 -7.7740002 -1.705 0.30000001
-2.5999999 -7.7839999 -1.706 0.34999999
-2.572 -7.7810001 -1.7029999 0.30000001
-2.55 -7.7969999 -1.705 0.38999999
-2.52 -7.7880001 -1.701 0.27000001
-2.51 -7.8000002 -1.7029999 0.36000001
-2.484 -7.802 -1.701 0.30000001
-2.4590001 -7.8080001 -1.701 0.36000001
-2.4300001 -7.8039999 -1.698 0.28999999
-2.4089999 -7.823 -1.701 0.34999999
-2.3800001 -7.816 -1.697 0.34999999
-2.3529999 -7.816 -1.696 0.28999999
-2.345 -7.8319998 -1.699 0.36000001
-2.3180001 -7.8319998 -1.697 0.34999999
-2.2920001 -7.8340001 -1.696 0.28999999
-2.2690001 -7.8470001 -1.697 0.34999999
-2.2409999 -7.8429999 -1.694 0.28999999
-2.217 -7.8509998 -1.6950001 0.36000001
-2.1919999 -7.8579998 -1.6950001 0.34
-2.178 -7.8559999 -1.693 0.28
-2.158 -7.8800001 -1.697 0.36000001
-2.125 -7.855 -1.6900001 0.28999999
-2.105 -7.8800001 -1.694 0.34999999
-2.079 -7.881 -1.693 0.34999999
-2.053 -7.8839998 -1.692 0.34
-2.027 -7.8839998 -1.691 0.30000001
-2.0150001 -7.8909998 -1.692 0.34999999
-1.99 -7.8940001 -1.691 0.34
-1.965 -7.9000001 -1.691 0.34999999
-1.938 -7.8969998 -1.689 0.28999999
-1.915 -7.9099998 -1.6900001 0.34999999
-1.8890001 -7.914 -1.6900001 0.34999999
-1.863 -7.9130001 -1.688 0.30000001
-1.853 -7.9250002 -1.6900001 0.36000001
-1.824 -7.9159999 -1.687 0.34
-1.798 -7.9180002 -1.686 0.34
-1.777 -7.9380002 -1.689 0.30000001
-1.752 -7.9419999 -1.689 0.34999999
-1.724 -7.9359999 -1.686 0.34999999
-1.701 -7.9489999 -1.688 0.28999999
-1.6849999 -7.9369998 -1.6849999 0.36000001
-1.659 -7.9359999 -1.683 0.34999999
-1.637 -7.9569998 -1.687 0.34
-1.609 -7.9460001 -1.683 0.28999999
-1.584 -7.9510002 -1.683 0.34999999
-1.561 -7.9679999 -1.686 0.34999999
-1.531 -7.948 -1.6799999 0.28999999
-1.517 -7.941 -1.678 0.31999999
-1.495 -7.9629998 -1.682 0.34999999
-1.466 -7.9419999 -1.676 0.30000001
-1.441 -7.947 -1.676 0.37
-1.418 -7.9629998 -1.679 0.31
-1.3890001 -7.9460001 -1.674 0.36000001
-1.363 -7.9429998 -1.673 0.31999999
-1.355 -7.9699998 -1.678 0.36000001
-1.325 -7.9489999 -1.673 0.30000001
-1.301 -7.9590001 -1.674 0.37
-1.278 -7.9770002 -1.677 0.31
-1.25 -7.9590001 -1.6720001 0.36000001
-1.223 -7.9499998 -1.669 0.30000001
-1.2029999 -7.9840002 -1.676 0.38
-1.1849999 -7.9520001 -1.668 0.30000001
-1.161 -7.9629998 -1.67 0.37
-1.135 -7.9590001 -1.668 0.31
-1.11 -7.9660001 -1.669 0.31999999
-1.085 -7.9679999 -1.669 0.36000001
-1.061 -7.9749999 -1.669 0.31
-1.034 -7.967 -1.6670001 0.36000001
-1.021 -7.9679999 -1.6670001 0.30000001
-0.99699998 -7.9790001 -1.669 0.38
-0.97100002 -7.9710002 -1.666 0.31
-0.94599998 -7.974 -1.666 0.36000001
-0.921 -7.9819999 -1.6670001 0.30000001
-0.89399999 -7.9679999 -1.663 0.34999999
-0.86799997 -7.961 -1.661 0.28999999
-0.85699999 -7.974 -1.664 0.37
-0.82999998 -7.9590001 -1.66 0.34999999
-0.80599999 -7.967 -1.661 0.34999999
-0.78100002 -7.9759998 -1.663 0.30000001
-0.75400001 -7.961 -1.659 0.36000001
-0.73000002 -7.967 -1.659 0.34
-0.70499998 -7.967 -1.659 0.28999999
-0.69 -7.9429998 -1.653 0.31999999
-0.66600001 -7.961 -1.6569999 0.37
-0.639 -7.941 -1.652 0.30000001
-0.61500001 -7.9530001 -1.654 0.36000001
-0.58899999 -7.9429998 -1.652 0.30000001
-0.565 -7.9569998 -1.654 0.34999999
-0.53899997 -7.9429998 -1.651 0.30000001
-0.52700001 -7.948 -1.652 0.36000001
-0.50099999 -7.9400001 -1.649 0.30000001
-0.477 -7.9549999 -1.652 0.34999999
-0.45199999 -7.9439998 -1.65 0.30000001
-0.426 -7.9439998 -1.649 0.36000001
-0.40099999 -7.9429998 -1.649 0.28999999
-0.377 -7.9520001 -1.651 0.36000001
-0.36399999 -7.947 -1.649 0.30000001
-0.33899999 -7.948 -1.649 0.36000001
-0.31400001 -7.9429998 -1.648 0.34
-0.28799999 -7.9330001 -1.646 0.30000001
-0.26300001 -7.9289999 -1.645 0.31999999
-0.23899999 -7.934 -1.646 0.36000001
-0.213 -7.927 -1.6440001 0.30000001
-0.20100001 -7.941 -1.647 0.36000001
-0.176 -7.928 -1.6440001 0.28999999
-0.15099999 -7.9289999 -1.6440001 0.34999999
-0.126 -7.9169998 -1.641 0.28999999
-0.101 -7.9180002 -1.641 0.34999999
-0.075999998 -7.9200001 -1.642 0.34999999
-0.050999999 -7.9219999 -1.642 0.34
-0.039000001 -7.9060001 -1.6390001 0.30000001
-0.014 -7.914 -1.64 0.37
0.011 -7.901 -1.637 0.28999999
0.035999998 -7.908 -1.6390001 0.34999999
0.059999999 -7.8930001 -1.636 0.30000001
0.085000001 -7.902 -1.638 0.34999999
0.11 -7.8959999 -1.636 0.28999999
0.122 -7.8860002 -1.6339999 0.34999999
0.147 -7.8839998 -1.6339999 0.30000001
0.17200001 -7.8850002 -1.6339999 0.34999999
0.197 -7.8920002 -1.636 0.30000001
0.221 -7.8839998 -1.6339999 0.34999999
0.24600001 -7.881 -1.6339999 0.34999999
0.271 -7.869 -1.631 0.28999999
0.28299999 -7.8759999 -1.633 0.34999999
0.308 -7.8730001 -1.632 0.28999999
0.333 -7.8720002 -1.632 0.34999999
0.35699999 -7.8649998 -1.631 0.28999999
0.38100001 -7.8559999 -1.6289999 0.34999999
0.40599999 -7.8509998 -1.6289999 0.31
0.43000001 -7.8460002 -1.628 0.34999999
0.442 -7.8410001 -1.627 0.30000001
0.46799999 -7.8499999 -1.6289999 0.34999999
0.49200001 -7.842 -1.628 0.34
0.51599997 -7.8309999 -1.626 0.28999999
0.54100001 -7.8369999 -1.627 0.34999999
0.565 -7.8309999 -1.626 0.34
0.58899999 -7.8179998 -1.624 0.34
0.602 -7.8189998 -1.624 0.30000001
0.62699997 -7.823 -1.626 0.34999999
0.64999998 -7.8109999 -1.623 0.30000001
0.67500001 -7.8109999 -1.624 0.36000001
0.699 -7.8010001 -1.622 0.28999999
0.72399998 -7.8010001 -1.622 0.36000001
0.74900001 -7.8039999 -1.624 0.34999999
0.76099998 -7.8049998 -1.624 0.34
0.78399998 -7.7870002 -1.6210001 0.30000001
0.80900002 -7.7870002 -1.6210001 0.36000001
0.83099997 -7.7670002 -1.617 0.30000001
0.85699999 -7.777 -1.62 0.34999999
0.88200003 -7.7750001 -1.62 0.34
0.90600002 -7.7719998 -1.62 0.34999999
0.917 -7.763 -1.619 0.28999999
0.94300002 -7.7690001 -1.6210001 0.37
0.96600002 -7.7550001 -1.618 0.30000001
0.991 -7.756 -1.619 0.36000001
1.016 -7.7620001 -1.6210001 0.30000001
1.041 -7.757 -1.6210001 0.34999999
1.063 -7.7379999 -1.617 0.34
1.077 -7.7540002 -1.6210001 0.34
1.098 -7.7220001 -1.615 0.28999999
1.123 -7.7280002 -1.617 0.34999999
1.15 -7.7399998 -1.62 0.34
1.17 -7.711 -1.615 0.31999999
1.196 -7.717 -1.617 0.34
1.22 -7.711 -1.6160001 0.33000001
1.229 -7.6919999 -1.612 0.28999999
1.255 -7.6960001 -1.614 0.36000001
1.281 -7.7049999 -1.617 0.34
1.302 -7.6820002 -1.613 0.28999999
1.326 -7.6760001 -1.612 0.34999999
1.35 -7.6729999 -1.613 0.30000001
1.359 -7.6539998 -1.609 0.34999999
1.385 -7.6550002 -1.61 0.34999999
1.41 -7.6570001 -1.612 0.28999999
1.433 -7.6500001 -1.6109999 0.34999999
1.456 -7.638 -1.609 0.34
1.48 -7.6360002 -1.61 0.28999999
1.502 -7.6209998 -1.608 0.36000001
1.528 -7.6240001 -1.609 0.34
1.541 -7.6290002 -1.6109999 0.30000001
1.562 -7.6090002 -1.608 0.36000001
1.584 -7.5949998 -1.6059999 0.28
1.613 -7.6129999 -1.6109999 0.37
1.632 -7.585 -1.6059999 0.30000001
1.658 -7.5910001 -1.608 0.36000001
1.682 -7.5840001 -1.608 0.30000001
1.693 -7.579 -1.607 0.36000001
1.714 -7.5619998 -1.605 0.28999999
1.7410001 -7.5679998 -1.607 0.37
1.761 -7.5479999 -1.604 0.30000001
1.786 -7.5500002 -1.6059999 0.37
1.811 -7.5500002 -1.607 0.30000001
1.834 -7.5380001 -1.6059999 0.37
1.842 -7.5219998 -1.602 0.34
1.869 -7.5279999 -1.605 0.28999999
1.8890001 -7.5089998 -1.602 0.36000001
1.913 -7.5029998 -1.602 0.28999999
1.9400001 -7.5120001 -1.6059999 0.37
1.956 -7.4770002 -1.599 0.28999999
1.97 -7.48 -1.6 0.36000001
1.995 -7.4790001 -1.602 0.34999999
2.013 -7.454 -1.597 0.30000001
2.0409999 -7.4629998 -1.601 0.37
2.0639999 -7.4580002 -1.601 0.28999999
2.0840001 -7.4390001 -1.598 0.36000001
2.109 -7.4359999 -1.599 0.34
2.1340001 -7.4369998 -1.601 0.34
2.1389999 -7.4109998 -1.596 0.28999999
2.168 -7.421 -1.599 0.34999999
2.188 -7.4050002 -1.597 0.28999999
2.214 -7.4050002 -1.599 0.36000001
2.233 -7.3870001 -1.596 0.34
2.256 -7.3759999 -1.596 0.34999999
2.276 -7.362 -1.594 0.28
2.293 -7.3730001 -1.597 0.36000001
2.3150001 -7.3639998 -1.597 0.34
2.339 -7.3579998 -1.597 0.34
2.358 -7.3379998 -1.594 0.34999999
2.3800001 -7.329 -1.594 0.30000001
2.404 -7.3249998 -1.595 0.34999999
2.424 -7.3080001 -1.592 0.30000001
2.4400001 -7.3169999 -1.596 0.34999999
2.4579999 -7.2950001 -1.592 0.30000001
2.4820001 -7.289 -1.592 0.36000001
2.5039999 -7.2789998 -1.592 0.34
2.5250001 -7.2659998 -1.591 0.34
2.5480001 -7.2589998 -1.591 0.34999999
2.5599999 -7.257 -1.592 0.30000001
2.585 -7.2550001 -1.5930001 0.36000001
2.6070001 -7.243 -1.592 0.34
2.6270001 -7.2290001 -1.591 0.34
2.6500001 -7.2210002 -1.591 0.34
2.6730001 -7.2119999 -1.591 0.34
2.6930001 -7.1989999 -1.589 0.30000001
2.707 -7.2020001 -1.591 0.34999999
2.7249999 -7.1799998 -1.5880001 0.30000001
2.75 -7.177 -1.589 0.36000001
2.773 -7.1700001 -1.59 0.30000001
2.7980001 -7.1669998 -1.591 0.34999999
2.8169999 -7.1490002 -1.589 0.30000001
2.8429999 -7.1490002 -1.591 0.37
2.862 -7.131 -1.589 0.34999999
2.8740001 -7.1300001 -1.59 0.34
2.891 -7.1090002 -1.587 0.28999999
2.915 -7.1030002 -1.5880001 0.34999999
2.9389999 -7.098 -1.589 0.34999999
2.9560001 -7.0760002 -1.586 0.28999999
2.9809999 -7.0739999 -1.587 0.34999999
2.994 -7.073 -1.5880001 0.34
3.013 -7.0560002 -1.586 0.28999999
3.0339999 -7.0450001 -1.586 0.34999999
3.056 -7.033 -1.586 0.28
3.0810001 -7.0310001 -1.587 0.34999999
3.105 -7.026 -1.589 0.34
3.1229999 -7.006 -1.586 0.28999999
3.1329999 -6.9990001 -1.586 0.34999999
3.1570001 -6.993 -1.586 0.34
3.178 -6.9809999 -1.586 0.28
3.2030001 -6.9780002 -1.5880001 0.36000001
3.22 -6.9569998 -1.585 0.30000001
3.244 -6.9530001 -1.586 0.36000001
3.2609999 -6.9320002 -1.584 0.30000001
3.2750001 -6.934 -1.586 0.36000001
3.296 -6.9219999 -1.585 0.34999999
3.3139999 -6.902 -1.5829999 0.28
3.336 -6.8940001 -1.5829999 0.36000001
3.355 -6.8779998 -1.582 0.30000001
3.3770001 -6.8670001 -1.582 0.34999999
3.3940001 -6.848 -1.58 0.28999999
3.4100001 -6.8530002 -1.582 0.34999999
3.4300001 -6.8390002 -1.582 0.28999999
3.45 -6.8260002 -1.581 0.36000001
3.4719999 -6.816 -1.581 0.34999999
3.4909999 -6.8010001 -1.58 0.33000001
3.51 -6.7849998 -1.579 0.34999999
3.5369999 -6.7839999 -1.582 0.31
3.5469999 -6.7789998 -1.582 0.36000001
3.563 -6.757 -1.579 0.31
3.5940001 -6.763 -1.5829999 0.36000001
3.6040001 -6.7309999 -1.5779999 0.30000001
3.6300001 -6.7280002 -1.58 0.36000001
3.654 -6.7220001 -1.582 0.31
3.6719999 -6.7049999 -1.58 0.37
3.675 -6.6859999 -1.577 0.28999999
3.7060001 -6.6929998 -1.582 0.37
3.72 -6.6680002 -1.5779999 0.31
3.743 -6.6609998 -1.579 0.36000001
3.7650001 -6.651 -1.58 0.30000001
3.7820001 -6.6329999 -1.5779999 0.31999999
3.8039999 -6.6220002 -1.579 0.36000001
3.8150001 -6.6160002 -1.579 0.31
3.836 -6.6059999 -1.579 0.37
3.852 -6.585 -1.577 0.28999999
3.875 -6.5770001 -1.5779999 0.18000001
3.8889999 -6.5539999 -1.575 0.34
3.911 -6.5440001 -1.576 0.68000001
3.9360001 -6.5380001 -1.577 0.79000002
3.941 -6.5240002 -1.575 0.80000001
3.964 -6.5159998 -1.576 0.80000001
3.993 -6.5170002 -1.58 0.80000001
4.0079999 -6.4959998 -1.5779999 0.79000002
4.0289998 -6.4840002 -1.5779999 0.75
4.053 -6.4780002 -1.579 0.47999999
4.0669999 -6.4549999 -1.577 0.60000002
4.072 -6.4400001 -1.575 0.34999999
4.0999999 -6.4390001 -1.5779999 0.34999999
4.1129999 -6.414 -1.575 0.33000001
4.1259999 -6.3920002 -1.572 0.31999999
4.1539998 -6.3899999 -1.575 0.34
4.1719999 -6.3740001 -1.574 0.34
4.1919999 -6.3610001 -1.574 0.34
4.2059999 -6.3610001 -1.576 0.33000001
4.2199998 -6.3379998 -1.573 0.31
4.2350001 -6.3179998 -1.572 0.31999999
4.263 -6.316 -1.575 0.31999999
4.2740002 -6.289 -1.571 0.31999999
4.2940001 -6.2779999 -1.572 0.33000001
4.3200002 -6.2719998 -1.574 0.31999999
4.322 -6.2540002 -1.571 0.31
4.3379998 -6.2360001 -1.569 0.31
4.3720002 -6.243 -1.575 0.36000001
4.3769999 -6.2080002 -1.569 0.28999999
4.3969998 -6.1939998 -1.569 0.30000001
4.4219999 -6.1890001 -1.572 0.30000001
4.4400001 -6.1729999 -1.571 0.31
4.4489999 -6.164 -1.571 0.34
4.4679999 -6.1500001 -1.571 0.30000001
4.4809999 -6.1290002 -1.569 0.31
4.5009999 -6.1139998 -1.569 0.31
4.5229998 -6.105 -1.5700001 0.31
4.5469999 -6.0970001 -1.572 0.37
4.5560002 -6.0689998 -1.568 0.28999999
4.5679998 -6.0650001 -1.569 0.31999999
4.5819998 -6.0440001 -1.567 0.31999999
4.6009998 -6.0300002 -1.567 0.31
4.6209998 -6.0170002 -1.567 0.31
4.645 -6.0079999 -1.569 0.34
4.6550002 -5.9829998 -1.566 0.30000001
4.678 -5.973 -1.567 0.31
4.6859999 -5.9640002 -1.567 0.31
4.7059999 -5.9510002 -1.567 0.31
4.7220001 -5.9330001 -1.566 0.30000001
4.743 -5.921 -1.567 0.30000001
4.7589998 -5.9029999 -1.566 0.31
4.7789998 -5.8899999 -1.567 0.31
4.7909999 -5.8670001 -1.5650001 0.31
4.8039999 -5.8639998 -1.566 0.31999999
4.822 -5.849 -1.566 0.31999999
4.8429999 -5.8369999 -1.567 0.31
4.8590002 -5.8179998 -1.566 0.31999999
4.875 -5.8000002 -1.5650001 0.31
4.8860002 -5.776 -1.562 0.31
4.9060001 -5.763 -1.563 0.31999999
4.9180002 -5.7589998 -1.564 0.33000001
4.9380002 -5.7459998 -1.5650001 0.31999999
4.954 -5.7280002 -1.564 0.31999999
4.9710002 -5.711 -1.564 0.34
4.987 -5.6929998 -1.563 0.31999999
5.0009999 -5.6729999 -1.562 0.31999999
5.0229998 -5.6620002 -1.563 0.28
5.0289998 -5.651 -1.562 0.23999999
5.053 -5.6430001 -1.5650001 0.44
5.0700002 -5.625 -1.564 0.34
5.0809999 -5.6020002 -1.562 0.33000001
5.0960002 -5.5830002 -1.561 0.33000001
5.1129999 -5.5669999 -1.561 0.33000001
5.1350002 -5.5549998 -1.562 0.31999999
5.138 -5.5419998 -1.561 0.34999999
5.158 -5.5279999 -1.562 0.34
5.1760001 -5.5120001 -1.562 0.33000001
5.1890001 -5.4910002 -1.5599999 0.34
5.21 -5.4790001 -1.562 0.34999999
5.2189999 -5.4549999 -1.559 0.30000001
5.2389998 -5.441 -1.5599999 0.34999999
5.2410002 -5.4260001 -1.558 0.31
5.2670002 -5.4190001 -1.561 0.36000001
5.2820001 -5.4000001 -1.5599999 0.30000001
5.3010001 -5.3860002 -1.561 0.36000001
5.3200002 -5.3699999 -1.561 0.31
5.336 -5.3540001 -1.561 0.36000001
5.3460002 -5.3299999 -1.559 0.30000001
5.362 -5.329 -1.561 0.34999999
5.3740001 -5.3080001 -1.5599999 0.30000001
5.3889999 -5.289 -1.559 0.36000001
5.402 -5.2680001 -1.558 0.30000001
5.4250002 -5.2579999 -1.5599999 0.36000001
5.4349999 -5.2340002 -1.558 0.31
5.4549999 -5.2210002 -1.559 0.37
5.461 -5.21 -1.559 0.31
5.4840002 -5.1989999 -1.561 0.36000001
5.4959998 -5.178 -1.559 0.30000001
5.5120001 -5.1609998 -1.559 0.37
5.5229998 -5.138 -1.558 0.31
5.539 -5.1209998 -1.558 0.38
5.552 -5.1009998 -1.557 0.30000001
5.5780001 -5.1079998 -1.562 0.38
5.5749998 -5.073 -1.556 0.30000001
5.585 -5.0500002 -1.5549999 0.25
5.6110001 -5.0419998 -1.558 0.27000001
5.6220002 -5.02 -1.556 0.62
5.651 -5.0139999 -1.5599999 0.66000003
5.665 -5.0110002 -1.562 0.58999997
5.6690001 -4.9829998 -1.559 0.51999998
5.677 -4.9580002 -1.556 0.46000001
5.7030001 -4.9489999 -1.559 0.46000001
5.7069998 -4.921 -1.556 0.63999999
5.7270002 -4.9070001 -1.557 0.40000001
5.677 -4.8330002 -1.538 0.34
5.665 -4.7930002 -1.53 0.31
5.6459999 -4.7610002 -1.522 0.33000001
5.7459998 -4.8150001 -1.5470001 0.31999999
5.6890001 -4.737 -1.526 0.43000001
5.6760001 -4.6950002 -1.518 0.36000001
5.6900001 -4.677 -1.518 0.34999999
5.7350001 -4.684 -1.527 0.44999999
5.7600002 -4.6750002 -1.53 0.28999999
5.7709999 -4.6680002 -1.531 0.5
5.7930002 -4.6560001 -1.533 0.38
5.8169999 -4.645 -1.535 0.47999999
5.816 -4.6149998 -1.531 0.34999999
5.8460002 -4.6079998 -1.535 0.38999999
5.8460002 -4.579 -1.5319999 0.44999999
5.8670001 -4.566 -1.533 0.34999999
5.902 -4.5780001 -1.541 0.41999999
5.908 -4.553 -1.539 0.34999999
5.895 -4.513 -1.531 0.5
5.9000001 -4.4879999 -1.529 0.25
5.9460001 -4.494 -1.538 0.54000002
5.9619999 -4.4770002 -1.538 0.27000001
5.9390001 -4.4299998 -1.528 0.55000001
5.9819999 -4.447 -1.538 0.28999999
6.013 -4.441 -1.5420001 0.50999999
5.994 -4.3979998 -1.533 0.34
6.0040002 -4.3769999 -1.5319999 0.41
6.0619998 -4.3899999 -1.545 0.40000001
6.0780001 -4.3720002 -1.545 0.44
6.0040002 -4.3039999 -1.523 0.36000001
6.0440001 -4.3049998 -1.53 0.47
6.118 -4.329 -1.5470001 0.28999999
6.1030002 -4.289 -1.539 0.52999997
6.1789999 -4.3140001 -1.556 0.27000001
6.1729999 -4.2810001 -1.551 0.47999999
6.2010002 -4.2719998 -1.5549999 0.34
6.2119999 -4.2649999 -1.556 0.44999999
6.2319999 -4.25 -1.558 0.36000001
6.2360001 -4.224 -1.5549999 0.43000001
6.2090001 -4.177 -1.544 0.34999999
6.1719999 -4.1240001 -1.531 0.41999999
6.1760001 -4.099 -1.529 0.31999999
6.158 -4.059 -1.52 0.54000002
6.2249999 -4.0749998 -1.535 0.28999999
6.2360001 -4.0679998 -1.536 0.61000001
6.257 -4.0539999 -1.538 0.27000001
6.263 -4.0300002 -1.536 0.57999998
6.2659998 -4.0040002 -1.534 0.27000001
6.3569999 -4.0349998 -1.5549999 0.51999998
6.3590002 -4.0079999 -1.552 0.31999999
6.3909998 -4 -1.557 0.44999999
6.4169998 -4.0029998 -1.562 0.34
6.388 -3.9560001 -1.551 0.46000001
6.427 -3.9530001 -1.558 0.33000001
6.4330001 -3.9289999 -1.556 0.40000001
6.4720001 -3.925 -1.563 0.36000001
6.4840002 -3.904 -1.563 0.56
6.5190001 -3.911 -1.571 0.25
6.467 -3.8529999 -1.554 0.52999997
6.533 -3.8640001 -1.568 0.25
6.5079999 -3.822 -1.559 0.47999999
6.5240002 -3.803 -1.559 0.30000001
6.54 -3.786 -1.561 0.5
6.552 -3.7650001 -1.561 0.28999999
6.5570002 -3.7539999 -1.5599999 0.57999998
6.5799999 -3.74 -1.563 0.27000001
6.5939999 -3.72 -1.564 0.49000001
6.6459999 -3.723 -1.574 0.30000001
6.6100001 -3.675 -1.562 0.55000001
6.671 -3.6819999 -1.575 0.28999999
6.665 -3.651 -1.5700001 0.47
6.6869998 -3.6359999 -1.573 0.43000001
6.698 -3.628 -1.574 0.43000001
6.711 -3.608 -1.575 0.41999999
6.7069998 -3.579 -1.571 0.44999999
6.6539998 -3.5239999 -1.5549999 0.36000001
6.7030001 -3.523 -1.564 0.44999999
6.678 -3.483 -1.5549999 0.28999999
6.737 -3.5 -1.569 0.55000001
6.7779999 -3.494 -1.576 0.31999999
6.743 -3.45 -1.5650001 0.44999999
6.7179999 -3.4100001 -1.5549999 0.44
6.763 -3.4070001 -1.564 0.33000001
6.757 -3.3759999 -1.5599999 0.44
6.8299999 -3.3870001 -1.576 0.41
6.8720002 -3.3940001 -1.585 0.36000001
6.8740001 -3.368 -1.582 0.47
6.8039999 -3.3069999 -1.562 0.34
6.9050002 -3.3299999 -1.585 0.46000001
6.96 -3.3299999 -1.596 0.38
6.9720001 -3.309 -1.596 0.41999999
6.9699998 -3.2809999 -1.5930001 0.47999999
6.9749999 -3.27 -1.5930001 0.36000001
6.9640002 -3.2379999 -1.5880001 0.40000001
6.9580002 -3.2090001 -1.584 0.40000001
6.9559999 -3.181 -1.581 0.44999999
6.9840002 -3.1670001 -1.586 0.38
6.994 -3.145 -1.586 0.43000001
6.9840002 -3.115 -1.581 0.34
6.8979998 -3.063 -1.559 0.47999999
6.9400001 -3.0550001 -1.566 0.31
6.9369998 -3.0280001 -1.563 0.55000001
6.9569998 -3.0109999 -1.566 0.30000001
6.9289999 -2.973 -1.557 0.50999999
7.0289998 -2.99 -1.579 0.34
7.033 -2.9660001 -1.5779999 0.47
7.112 -2.9860001 -1.596 0.28999999
7.1500001 -2.9760001 -1.602 0.49000001
7.1110001 -2.9330001 -1.591 0.34999999
7.0999999 -2.9030001 -1.586 0.40000001
7.132 -2.8900001 -1.592 0.47
7.1739998 -2.881 -1.599 0.34
7.1560001 -2.8469999 -1.5930001 0.47999999
7.1880002 -2.8469999 -1.599 0.27000001
7.1020002 -2.7869999 -1.577 0.52999997
7.198 -2.799 -1.598 0.27000001
7.2249999 -2.783 -1.602 0.56999999
7.263 -2.7720001 -1.609 0.27000001
7.2610002 -2.7449999 -1.6059999 0.54000002
7.2579999 -2.7179999 -1.604 0.28999999
7.2589998 -2.7049999 -1.603 0.46000001
7.2649999 -2.681 -1.602 0.36000001
7.2740002 -2.6589999 -1.602 0.44999999
7.3670001 -2.6670001 -1.622 0.5
7.6040001 -2.727 -1.677 0.31999999
7.7360001 -2.747 -1.706 0.33000001
7.7719998 -2.7320001 -1.7130001 0.34
7.7680001 -2.7030001 -1.709 0.34999999
7.7779999 -2.6930001 -1.711 0.34999999
7.7880001 -2.6689999 -1.711 0.34
7.7940001 -2.6440001 -1.711 0.37
7.8119998 -2.6229999 -1.7130001 0.30000001
7.8260002 -2.5999999 -1.714 0.33000001
7.823 -2.572 -1.712 0.33000001
7.8210001 -2.5580001 -1.71 0.34999999
7.8569999 -2.5420001 -1.717 0.34999999
7.8850002 -2.5239999 -1.722 0.34999999
7.9450002 -2.516 -1.734 0.27000001
8.052 -2.5220001 -1.757 0.2
8.1040001 -2.5109999 -1.767 0.46000001
8.1210003 -2.4879999 -1.77 0.38
8.1330004 -2.4779999 -1.771 0.33000001
8.1309996 -2.45 -1.7690001 0.31999999
8.1309996 -2.4219999 -1.767 0.20999999
8.092 -2.382 -1.756 0.34999999
8.1479998 -2.3710001 -1.768 0.22
8.1429996 -2.342 -1.765 0.23999999
8.1610003 -2.319 -1.767 0.28999999
8.1700001 -2.3080001 -1.7690001 0.34999999
8.165 -2.279 -1.766 0.30000001
8.1899996 -2.2579999 -1.77 0.30000001
8.1879997 -2.23 -1.768 0.33000001
8.1780005 -2.2 -1.7640001 0.28999999
8.1999998 -2.178 -1.767 0.30000001
8.2030001 -2.151 -1.766 0.33000001
8.2060003 -2.1240001 -1.766 0.31
8.2150002 -2.1129999 -1.767 0.33000001
8.21 -2.0840001 -1.7640001 0.31
8.2110004 -2.0569999 -1.763 0.31
8.2270002 -2.0339999 -1.765 0.30000001
8.2299995 -2.007 -1.7640001 0.28999999
8.2279997 -1.979 -1.763 0.30000001
8.2290001 -1.952 -1.761 0.28999999
8.2299995 -1.938 -1.761 0.31999999
8.2360001 -1.913 -1.761 0.28
8.2460003 -1.888 -1.762 0.31999999
8.2480001 -1.8609999 -1.761 0.30000001
8.2460003 -1.8329999 -1.7589999 0.28999999
8.2419996 -1.8049999 -1.757 0.28
8.2489996 -1.793 -1.758 0.27000001
8.2370005 -1.763 -1.7539999 0.28999999
8.2390003 -1.737 -1.753 0.27000001
8.2390003 -1.71 -1.752 0.28
8.2419996 -1.683 -1.751 0.27000001
8.2419996 -1.656 -1.75 0.27000001
8.2410002 -1.6289999 -1.749 0.16
8.2650003 -1.62 -1.753 0.28999999
8.2679996 -1.594 -1.753 0.25
8.2530003 -1.564 -1.749 0.19
8.2810001 -1.543 -1.7539999 0.28
8.2709999 -1.5140001 -1.75 0.23999999
8.2700005 -1.487 -1.749 0.19
8.2959995 -1.465 -1.7539999 0.25999999
8.2819996 -1.449 -1.75 0.22
8.2910004 -1.424 -1.751 0.17
8.309 -1.4 -1.7539999 0.27000001
8.3170004 -1.374 -1.755 0.19
8.3290005 -1.35 -1.757 0.25
8.3249998 -1.322 -1.755 0.17
8.335 -1.2970001 -1.756 0.23999999
8.3260002 -1.2819999 -1.7539999 0.18000001
8.3430004 -1.258 -1.757 0.23999999
8.3280001 -1.229 -1.753 0.18000001
8.3509998 -1.205 -1.757 0.23999999
8.3409996 -1.177 -1.7539999 0.18000001
8.3579998 -1.153 -1.757 0.23999999
8.3450003 -1.124 -1.753 0.19
8.3439999 -1.1109999 -1.753 0.22
8.3540001 -1.085 -1.7539999 0.2
8.3570004 -1.059 -1.7539999 0.12
8.3249998 -1.029 -1.7460001 0.19
8.3400002 -1.0039999 -1.749 0.16
8.349 -0.97799999 -1.75 0.25999999
8.3269997 -0.949 -1.744 0.18000001
8.3520002 -0.93900001 -1.749 0.23999999
8.3310003 -0.91000003 -1.744 0.18000001
8.3459997 -0.88499999 -1.747 0.23999999
8.3330002 -0.85699999 -1.743 0.18000001
8.349 -0.83200002 -1.7460001 0.25
8.342 -0.80500001 -1.744 0.2
8.349 -0.77899998 -1.745 0.12
8.3500004 -0.76599997 -1.745 0.20999999
8.3310003 -0.73799998 -1.74 0.17
8.3540001 -0.71399999 -1.745 0.27000001
8.3310003 -0.685 -1.739 0.23
8.3179998 -0.65799999 -1.7359999 0.18000001
8.3529997 -0.634 -1.743 0.27000001
8.3260002 -0.60600001 -1.737 0.25
8.3009996 -0.59100002 -1.7309999 0.16
8.3459997 -0.56800002 -1.7410001 0.28
8.3319998 -0.54100001 -1.737 0.23
8.3120003 -0.51300001 -1.733 0.16
8.3529997 -0.48899999 -1.7410001 0.30000001
8.3430004 -0.46200001 -1.739 0.25
8.3339996 -0.43599999 -1.7359999 0.25999999
8.3310003 -0.42199999 -1.7359999 0.25999999
8.3290005 -0.396 -1.735 0.27000001
8.3240004 -0.36899999 -1.733 0.25999999
8.335 -0.34400001 -1.7359999 0.25
8.349 -0.31799999 -1.739 0.23
8.3269997 -0.29100001 -1.733 0.18000001
8.349 -0.266 -1.738 0.28999999
8.3319998 -0.252 -1.734 0.25
8.3290005 -0.226 -1.733 0.18000001
8.349 -0.2 -1.738 0.27000001
8.3400002 -0.17299999 -1.7359999 0.23
8.3290005 -0.147 -1.733 0.18000001
8.3470001 -0.121 -1.737 0.27000001
8.3339996 -0.094999999 -1.734 0.23
8.3260002 -0.082000002 -1.732 0.2
8.342 -0.056000002 -1.7359999 0.25
8.3280001 -0.028999999 -1.733 0.19
8.3339996 -0.003 -1.734 0.25
8.0290003 0.014 -1.737 0
8.0170002 0.039000001 -1.734 0
8.0190001 0.064000003 -1.734 0
8.0209999 0.077 -1.735 0
8.0120001 0.102 -1.733 0
8.0039997 0.127 -1.7309999 0
8.0530005 0.153 -1.743 0
8.0190001 0.178 -1.735 0
8.0220003 0.20299999 -1.7359999 0
8.0489998 0.229 -1.742 0
8.0190001 0.241 -1.735 0
8.0150003 0.266 -1.734 0
8.0229998 0.29100001 -1.737 0
8.0089998 0.31600001 -1.734 0
8.0410004 0.34299999 -1.7410001 0
8.0030003 0.366 -1.733 0
8.0050001 0.39199999 -1.734 0
8.007 0.40400001 -1.734 0
8.0109997 0.43000001 -1.735 0
8.0100002 0.45500001 -1.735 0
7.993 0.479 -1.732 0
8.007 0.505 -1.735 0
7.9959998 0.52999997 -1.733 0.029999999
7.9879999 0.55400002 -1.732 0.039999999
7.993 0.56699997 -1.733 0.029999999
7.9889998 0.59200001 -1.733 0.029999999
7.9829998 0.61699998 -1.732 0.029999999
7.9759998 0.64200002 -1.73 0.039999999
7.974 0.667 -1.73 0.039999999
7.9699998 0.69199997 -1.73 0.039999999
7.973 0.71700001 -1.7309999 0.039999999
7.9759998 0.73000002 -1.732 0.079999998
7.9699998 0.755 -1.7309999 0.15000001
7.973 0.77999997 -1.733 0.16
7.9569998 0.80400002 -1.729 0.039999999
7.9559999 0.829 -1.73 0.07
7.9650002 0.85500002 -1.733 0.15000001
7.9369998 0.87800002 -1.727 0.17
7.9520001 0.89200002 -1.73 0.17
7.941 0.91600001 -1.729 0.039999999
7.9250002 0.93900001 -1.725 0.17
7.9250002 0.96499997 -1.726 0.039999999
7.9169998 0.98900002 -1.725 0.17
7.9289999 1.016 -1.729 0.2
7.9159999 1.039 -1.726 0.1
7.928 1.053 -1.729 0.18000001
7.9169998 1.077 -1.728 0.11
7.9060001 1.101 -1.726 0.18000001
7.914 1.128 -1.729 0.20999999
7.9060001 1.152 -1.728 0.19
7.8969998 1.176 -1.726 0.23
7.8969998 1.201 -1.727 0.18000001
7.8909998 1.2130001 -1.726 0.23
7.901 1.24 -1.729 0.2
7.8850002 1.263 -1.727 0.23
7.868 1.285 -1.724 0.18000001
7.875 1.312 -1.726 0.23
7.8730001 1.337 -1.727 0.2
7.8530002 1.359 -1.723 0.23999999
7.8569999 1.373 -1.725 0.2
7.862 1.399 -1.727 0.23999999
7.8639998 1.425 -1.728 0.2
7.8730001 1.452 -1.7309999 0.20999999
7.881 1.479 -1.734 0.27000001
7.8610001 1.501 -1.7309999 0.25
7.8639998 1.527 -1.733 0.25999999
7.8660002 1.54 -1.734 0.25999999
7.8530002 1.563 -1.732 0.25
7.8520002 1.589 -1.733 0.25999999
7.8530002 1.615 -1.734 0.28999999
7.7919998 1.628 -1.721 0.27000001
7.7210002 1.638 -1.705 0.28999999
7.6810002 1.655 -1.697 0.27000001
7.612 1.652 -1.681 0.27000001
7.5500002 1.663 -1.668 0.25
7.5009999 1.677 -1.6569999 0.2
7.4310002 1.686 -1.642 0.27000001
7.369 1.696 -1.628 0.23999999
7.3039999 1.705 -1.614 0.19
7.2649999 1.72 -1.6059999 0.27000001
7.2129998 1.719 -1.595 0.23999999
7.1700001 1.732 -1.586 0.2
7.1659999 1.755 -1.586 0.28
7.1440001 1.774 -1.582 0.23
7.1589999 1.801 -1.587 0.19
7.1529999 1.824 -1.587 0.25999999
7.1570001 1.849 -1.589 0.22
7.125 1.853 -1.582 0.20999999
7.0879998 1.8660001 -1.575 0.28
7.0609999 1.883 -1.5700001 0.23
7.053 1.905 -1.569 0.19
7.0570002 1.929 -1.572 0.25999999
7.0300002 1.946 -1.567 0.23999999
7.0310001 1.97 -1.568 0.2
7.0149999 1.977 -1.5650001 0.28
6.9920001 1.994 -1.561 0.25
6.9949999 2.0190001 -1.563 0.2
6.9850001 2.04 -1.562 0.27000001
6.9710002 2.0599999 -1.561 0.23999999
6.9549999 2.079 -1.558 0.19
6.9390001 2.098 -1.556 0.27000001
6.921 2.1040001 -1.553 0.25
6.9310002 2.131 -1.557 0.25
6.9039998 2.1459999 -1.552 0.27000001
6.8930001 2.1670001 -1.551 0.25999999
6.9109998 2.1960001 -1.557 0.23999999
6.8670001 2.2060001 -1.548 0.20999999
6.8670001 2.23 -1.549 0.28999999
6.8299999 2.23 -1.541 0.25
6.77 2.233 -1.528 0.2
6.7329998 2.244 -1.521 0.25999999
6.704 2.2579999 -1.516 0.23
6.651 2.263 -1.5039999 0.2
6.6669998 2.2920001 -1.51 0.25999999
6.6529999 2.3110001 -1.508 0.23
6.6459999 2.3199999 -1.507 0.20999999
6.6350002 2.3399999 -1.507 0.23
6.6360002 2.3640001 -1.5089999 0.20999999
6.6030002 2.375 -1.502 0.22
6.6199999 2.405 -1.508 0.28
6.5960002 2.4189999 -1.5039999 0.25
6.559 2.4289999 -1.497 0.2
6.5479999 2.437 -1.495 0.25
6.5159998 2.448 -1.489 0.23
6.5100002 2.4690001 -1.49 0.18000001
6.5120001 2.493 -1.492 0.25999999
6.5040002 2.5139999 -1.492 0.23
6.4889998 2.5309999 -1.49 0.18000001
6.4819999 2.552 -1.4910001 0.25999999
6.4749999 2.5610001 -1.49 0.22
6.4720001 2.5840001 -1.4910001 0.20999999
6.4689999 2.6059999 -1.493 0.25
6.447 2.6210001 -1.489 0.22
6.3899999 2.6210001 -1.477 0
6.2049999 2.5669999 -1.433 0
6.0250001 2.503 -1.388 0
5.9640002 2.4990001 -1.375 0.029999999
5.9359999 2.5090001 -1.37 0.14
5.9169998 2.523 -1.367 0.2
5.881 2.529 -1.36 0.090000004
5.835 2.5309999 -1.35 0.14
5.8189998 2.546 -1.348 0.059999999
5.7989998 2.5480001 -1.344 0
5.8299999 2.5840001 -1.354 0
6.079 2.7179999 -1.419 0
6.1680002 2.7820001 -1.444 0
6.2189999 2.829 -1.46 0
6.2119999 2.849 -1.46 0
6.191 2.8629999 -1.457 0
6.23 2.8929999 -1.4680001 0
6.2389998 2.921 -1.473 0
6.2309999 2.9419999 -1.473 0
6.2059999 2.954 -1.469 0
6.1849999 2.967 -1.466 0
6.1880002 2.9920001 -1.469 0
6.2010002 3.023 -1.475 0
6.1630001 3.016 -1.466 0
6.138 3.0280001 -1.462 0
6.1269999 3.046 -1.462 0
6.0840001 3.049 -1.4529999 0.02
5.1960001 2.6199999 -1.225 0
5.1479998 2.6159999 -1.215 0.13
5.1240001 2.6240001 -1.21 0
5.1420002 2.654 -1.217 0
6.0190001 3.1240001 -1.448 0
6.1469998 3.2149999 -1.484 0
6.1199999 3.2249999 -1.479 0
6.105 3.2420001 -1.478 0
6.1030002 3.266 -1.48 0
6.0879998 3.2820001 -1.479 0
6.0840001 3.3050001 -1.4809999 0
6.0599999 3.3039999 -1.476 0
6.046 3.3210001 -1.475 0
6.0409999 3.3429999 -1.476 0
6.027 3.3599999 -1.475 0
6.0170002 3.3789999 -1.475 0
6.0089998 3.4000001 -1.476 0
6.007 3.411 -1.477 0
5.9899998 3.4260001 -1.475 0
5.9759998 3.4430001 -1.474 0
5.973 3.467 -1.477 0
5.9640002 3.487 -1.477 0
5.9530001 3.5050001 -1.477 0
5.9590001 3.5339999 -1.482 0
5.9400001 3.5350001 -1.478 0.07
4.493 2.6860001 -1.09 0.039999999
4.461 2.6860001 -1.0829999 0.12
4.4629998 2.7060001 -1.086 0.2
4.4460001 2.7149999 -1.084 0.23
4.4510002 2.737 -1.087 0.1
5.8670001 3.6429999 -1.477 0.19
5.8610001 3.6530001 -1.477 0.27000001
5.8600001 3.677 -1.479 0.25
5.8499999 3.697 -1.48 0.20999999
5.8330002 3.7119999 -1.479 0.27000001
5.8169999 3.727 -1.477 0.23999999
5.8070002 3.7460001 -1.478 0.2
5.796 3.766 -1.478 0.27000001
5.7940001 3.777 -1.479 0.23999999
5.7849998 3.7969999 -1.48 0.2
5.7800002 3.8199999 -1.482 0.27000001
5.7600002 3.832 -1.479 0.25
5.7519999 3.8540001 -1.4809999 0.2
5.7389998 3.8710001 -1.48 0.27000001
5.7420001 3.9000001 -1.485 0.25
5.7280002 3.9030001 -1.483 0.25
5.7140002 3.9200001 -1.482 0.25999999
5.7150002 3.947 -1.4859999 0.2
5.6859999 3.954 -1.4809999 0.27000001
5.6739998 3.9719999 -1.4809999 0.25
5.671 3.9960001 -1.484 0.2
5.6570001 4.013 -1.484 0.25999999
5.6360002 4.0250001 -1.4809999 0.25
5.6440001 4.0440001 -1.485 0.2
5.6059999 4.0430002 -1.478 0.059999999
5.6139998 4.0760002 -1.484 0.16
3.8429999 2.7980001 -0.97799999 0
3.7980001 2.7839999 -0.96799999 0
3.776 2.786 -0.96399999 0
3.7739999 2.793 -0.96499997 0.029999999
3.7379999 2.7850001 -0.95700002 0.14
3.7249999 2.793 -0.95599997 0.28999999
3.7290001 2.8139999 -0.95899999 0
3.721 2.8269999 -0.95999998 0
5.4679999 4.197 -1.474 0
5.473 4.2280002 -1.479 0
5.4559999 4.2290001 -1.476 0
5.4530001 4.2540002 -1.479 0
5.4590001 4.2870002 -1.485 0
5.4289999 4.2909999 -1.48 0
5.4109998 4.3039999 -1.479 0
5.4099998 4.3309999 -1.482 0
5.3790002 4.3340001 -1.477 0
5.382 4.3499999 -1.48 0
5.3649998 4.3649998 -1.479 0
5.3540001 4.3839998 -1.48 0
5.3330002 4.395 -1.478 0
5.3330002 4.4229999 -1.482 0
5.3080001 4.4310002 -1.479 0
5.3150001 4.4650002 -1.485 0.059999999
5.3200002 4.4829998 -1.488 0.16
5.2849998 4.4819999 -1.482 0.090000004
5.2579999 4.487 -1.478 0.2
5.2579999 4.5170002 -1.483 0.11
5.2290001 4.52 -1.478 0.2
5.2199998 4.5409999 -1.479 0.11
5.2080002 4.559 -1.48 0.2
5.1919999 4.5599999 -1.478 0.11
5.1789999 4.5780001 -1.478 0.19
5.1750002 4.6030002 -1.4809999 0.11
5.165 4.6230001 -1.483 0.18000001
5.1399999 4.6300001 -1.479 0.050000001
5.1420002 4.6609998 -1.484 0.18000001
5.105 4.6570001 -1.478 0.1
5.1009998 4.6680002 -1.479 0.2
5.0890002 4.6859999 -1.479 0
3.0910001 2.869 -0.85399997 0
3.073 2.869 -0.85100001 0
3.0650001 2.8800001 -0.85100001 0.13
3.04 2.875 -0.84600002 0.27000001
3.046 2.8889999 -0.84899998 0
3.0420001 2.904 -0.85100001 0
4.9580002 4.7859998 -1.473 0
4.9569998 4.8150001 -1.478 0
4.934 4.8239999 -1.475 0
4.9229999 4.8429999 -1.477 0
4.9099998 4.8600001 -1.477 0
4.8850002 4.8660002 -1.474 0
4.8909998 4.8870001 -1.479 0
4.8730001 4.9000001 -1.478 0
4.855 4.9120002 -1.477 0
4.842 4.9299998 -1.478 0
4.8260002 4.9460001 -1.478 0
4.803 4.9520001 -1.475 0
4.7919998 4.973 -1.477 0
4.79 4.9860001 -1.479 0
4.777 5.0040002 -1.479 0
4.7610002 5.0190001 -1.479 0
4.7389998 5.027 -1.477 0
4.7179999 5.0359998 -1.475 0
4.6939998 5.0419998 -1.473 0
4.6830001 5.0630002 -1.474 0
4.6820002 5.0770001 -1.477 0
4.6669998 5.0929999 -1.477 0
4.6560001 5.1139998 -1.479 0
4.6230001 5.1100001 -1.473 0
4.6139998 5.131 -1.475 0
4.6069999 5.1560001 -1.479 0
4.5910001 5.1539998 -1.476 0
4.566 5.1589999 -1.473 0
4.5609999 5.1859999 -1.477 0
4.5370002 5.1919999 -1.474 0
4.526 5.2119999 -1.476 0
4.5079999 5.224 -1.475 0
4.4899998 5.237 -1.475 0
4.4860001 5.2659998 -1.479 0
4.4720001 5.2659998 -1.477 0
4.4590001 5.2839999 -1.479 0
4.4390001 5.2940001 -1.477 0
2.4960001 2.9790001 -0.77700001 0
2.5020001 3.0039999 -0.78299999 0
2.5 3.0209999 -0.78500003 0
2.493 3.0320001 -0.78600001 0.1
2.4319999 2.9660001 -0.76599997 0.25999999
2.4030001 2.95 -0.75800002 0.050000001
2.3889999 2.951 -0.75599998 0.07
2.3959999 2.98 -0.76300001 0.14
2.3770001 2.9749999 -0.759 0.33000001
2.3789999 2.997 -0.76300001 0
2.3499999 2.9790001 -0.75599998 0
2.329 2.9619999 -0.75 0
2.3180001 2.967 -0.74900001 0
5.1739998 6.7189999 -1.841 0
5.165 6.7509999 -1.846 0
5.1329999 6.7529998 -1.842 0
5.1020002 6.7550001 -1.8380001 0
5.0840001 6.776 -1.839 0
5.0749998 6.7870002 -1.84 0
5.0599999 6.8109999 -1.842 0
5.0349998 6.822 -1.841 0
2.181 2.9690001 -0.73000002 0
5.0149999 6.8390002 -1.841 0
2.1760001 2.9820001 -0.73199999 0
2.1559999 2.9749999 -0.72799999 0
2.154 2.9809999 -0.72899997 0
2.142 2.9849999 -0.72799999 0
2.1400001 3.0009999 -0.73100001 0
2.1259999 3.0009999 -0.72899997 0
2.1040001 2.99 -0.72399998 0
2.0869999 2.9860001 -0.72100002 0
2.0880001 3.007 -0.72500002 0
2.075 2.9990001 -0.722 0
2.0680001 3.0079999 -0.72299999 0
2.0510001 3.0039999 -0.71899998 0
2.0380001 3.0050001 -0.71799999 0
2.029 3.0120001 -0.71799999 0
2.0150001 3.0109999 -0.71600002 0
2.006 3.0190001 -0.71700001 0
1.985 3.0079999 -0.71200001 0
1.983 3.0139999 -0.713 0
1.97 3.0150001 -0.71100003 0
1.969 3.0350001 -0.71499997 0
1.944 3.016 -0.708 0
1.9299999 3.016 -0.70599997 0.029999999
1.9220001 3.023 -0.70700002 0.039999999
1.92 3.043 -0.70999998 0.16
1.906 3.0309999 -0.70599997 0.2
1.893 3.03 -0.70499998 0.19
1.876 3.0239999 -0.70099998 0.25
1.868 3.0320001 -0.70200002 0.25
1.857 3.036 -0.70099998 0.25999999
1.847 3.04 -0.70099998 0.28999999
