# .PCD v0.7 - Point Cloud Data file format
VERSION 0.7
FIELDS x y z intensity
SIZE 4 4 4 4
TYPE F F F F
COUNT 1 1 1 1
WIDTH 1450
HEIGHT 1
VIEWPOINT 0 0 0 1 0 0 0
POINTS 1450
DATA ascii
-1.08 2.7090001 0.183 0.17
-1.094 2.72 0.183 0.2
-1.104 2.721 0.183 0.20999999
-1.114 2.7190001 0.183 0.2
-1.122 2.714 0.183 0.20999999
-1.133 2.73 0.183 0.18000001
-1.137 2.714 0.183 0.31999999
-1.149 2.7190001 0.183 0.2
-1.1569999 2.7160001 0.183 0.20999999
-1.1670001 2.714 0.183 0.23
-1.177 2.714 0.183 0.18000001
-1.188 2.7160001 0.183 0.23
-1.198 2.7160001 0.183 0.16
-1.212 2.7379999 0.182 0.14
-1.215 2.7190001 0.183 0.31999999
-1.228 2.7260001 0.182 0.19
-1.238 2.7260001 0.182 0.16
-1.247 2.724 0.182 0.34
-1.262 2.733 0.182 0.19
-1.27 2.7290001 0.182 0.23999999
-1.278 2.734 0.182 0.17
-1.283 2.723 0.182 0.34999999
-1.2920001 2.7190001 0.182 0.18000001
-1.304 2.7219999 0.182 0.34999999
-1.323 2.74 0.182 0.19
-1.329 2.73 0.182 0.34
-1.337 2.7260001 0.182 0.18000001
-1.344 2.7290001 0.182 0.36000001
-1.359 2.7379999 0.182 0.2
-1.368 2.7349999 0.182 0.23999999
-1.377 2.7309999 0.182 0.20999999
-1.387 2.73 0.182 0.23
-1.396 2.7260001 0.182 0
-1.403 2.7190001 0.182 0.079999998
-1.413 2.7279999 0.182 0.12
-1.4299999 2.74 0.182 0.31
-1.437 2.733 0.182 0.2
-1.446 2.7290001 0.182 0
-1.455 2.724 0.182 0.07
-1.4680001 2.7279999 0.182 0.14
-1.48 2.7309999 0.182 0
-1.49 2.7390001 0.18099999 0
-1.497 2.7309999 0.18099999 0.12
-1.512 2.7379999 0.18099999 0.28999999
-1.538 2.7650001 0.18099999 0
-1.531 2.7320001 0.18099999 0
-1.5470001 2.7420001 0.18099999 0.07
-1.557 2.7379999 0.18099999 0.15000001
-1.561 2.7249999 0.18099999 0.19
-1.58 2.7490001 0.18099999 0.20999999
-1.5930001 2.7520001 0.18099999 0.23
-1.597 2.7390001 0.18099999 0.25
-1.6109999 2.7420001 0.18099999 0.2
-1.618 2.7349999 0.18099999 0.18000001
-1.63 2.7349999 0.18099999 0.12
-1.645 2.7420001 0.18099999 0.17
-1.652 2.743 0.18099999 0.12
-1.6569999 2.733 0.18099999 0.17
-1.677 2.747 0.18099999 0.12
-1.686 2.7409999 0.18099999 0.17
-1.7 2.744 0.18099999 0.28999999
-1.712 2.7460001 0.18000001 0.19
-1.72 2.7390001 0.18099999 0.18000001
-1.73 2.7449999 0.18000001 0.16
-1.7359999 2.7360001 0.18000001 0.1
-1.7539999 2.7460001 0.18000001 0.15000001
-1.762 2.7379999 0.18000001 0.090000004
-1.795 2.7720001 0.18000001 0
-1.7819999 2.7320001 0.18000001 0
-1.794 2.7320001 0.18000001 0
-1.816 2.756 0.18000001 0
-1.822 2.747 0.18000001 0
-1.8329999 2.744 0.18000001 0
-1.852 2.7539999 0.18000001 0
-1.8660001 2.756 0.18000001 0
-1.877 2.7539999 0.18000001 0
-1.902 2.7720001 0.17900001 0
-1.893 2.75 0.18000001 0
-1.903 2.7449999 0.18000001 0
-1.918 2.7490001 0.18000001 0
-1.933 2.753 0.17900001 0
-1.934 2.7349999 0.18000001 0
-1.971 2.77 0.17900001 0
-1.997 2.789 0.17900001 0
-2.0009999 2.7839999 0.17900001 0
-2.0339999 2.812 0.17900001 0
-6.54 9.0209999 0.118 0
-9.8599997 11.583 0.086000003 0
-9.8620005 11.511 0.086000003 0
-9.8959999 11.479 0.086000003 0
-9.9650002 11.485 0.086000003 0
-10.042 11.429 0.086000003 0
-8.1610003 9.0200005 0.11 0
-8.217 9.0229998 0.11 0
-2.598 2.809 0.176 0
-2.6070001 2.809 0.176 0
-2.625 2.8110001 0.176 0
-2.6400001 2.8099999 0.176 0
-2.6630001 2.8169999 0.175 0
-2.668 2.8039999 0.175 0
-2.687 2.8069999 0.175 0
-2.7019999 2.8039999 0.175 0
-2.6960001 2.79 0.175 0
-9.9090004 9.0419998 0.1 0
-9.9779997 9.0480003 0.1 0
-10.036 9.0439997 0.098999999 0
-3.2550001 2.8099999 0.17200001 0
-3.2449999 2.7820001 0.17200001 0
-3.27 2.786 0.17200001 0
-3.256 2.757 0.17200001 0
-3.2939999 2.78 0.17200001 0
-11.7 9.1059999 0.089000002 0
-11.775 9.1040001 0.089000002 0
-3.9319999 2.8540001 0.168 0
-3.95 2.849 0.168 0
-3.967 2.842 0.168 0
-3.994 2.842 0.167 0
-4.0310001 2.859 0.167 0
-4.066 2.865 0.167 0
-4.1040001 2.8729999 0.167 0
-13.528 9.1350002 0.077 0
-4.6830001 2.9119999 0.163 0
-4.6389999 2.8640001 0.163 0
-4.6329999 2.8399999 0.163 0
-4.6490002 2.8299999 0.163 0
-4.6950002 2.8380001 0.163 0
-15.287 9.177 0.064999998 0
-15.359 9.1879997 0.064999998 0
-5.277 2.8510001 0.15899999 0
-5.349 2.8469999 0.15800001 0
-17.431999 9.2749996 0.050000001 0
-17.457001 9.2180004 0.050000001 0
-17.594 9.2200003 0.048999999 0
-17.715 9.2130003 0.048999999 0
-5.98 2.914 0.154 0
-6.0019999 2.9130001 0.153 0
-5.9970002 2.8870001 0.154 0.029999999
-6.0079999 2.869 0.154 0
-6.013 2.849 0.154 0
-20.044001 9.2930002 0.032000002 0.029999999
-20.197001 9.2869997 0.030999999 0.12
-20.451 9.3269997 0.028999999 0.2
-20.618999 9.3249998 0.028000001 0.30000001
-20.825001 9.3400002 0.026000001 0.46000001
-20.891001 9.2910004 0.026000001 0
-21.028 9.2729998 0.025 0
-22.493 9.3360004 0.014 0
-24.198 9.3830004 0.001 0
-26.084 9.4160004 -0.013 0
-27.757999 9.4829998 -0.025 0
-29.572001 9.5369997 -0.039000001 0
-10.177 3.1240001 0.122 0.16
-10.197 3.095 0.122 0.20999999
-10.206 3.062 0.122 0
-10.217 3.0480001 0.122 0
-59.007 17.532 -0.27900001 0
-59.484001 17.471001 -0.28299999 0
-60.041 17.43 -0.287 0
-60.601002 17.386999 -0.29100001 0
-61.140999 17.334 -0.29499999 0
-25.656 3.425 0.0020000001 0
-52.513 5.7820001 -0.211 0
-40.040001 3.8310001 -0.111 0
-40.09 3.7079999 -0.111 0.029999999
-48.341999 4.3239999 -0.177 0
-71.254997 -3.0350001 -0.35600001 0
-33.624001 -1.816 -0.059999999 0
-49.598999 -2.98 -0.186 0
-59.957001 -3.9749999 -0.26800001 0.059999999
-59.973999 -4.165 -0.26800001 0.14
-59.98 -4.355 -0.26800001 0.090000004
-59.995998 -4.4510002 -0.26800001 0
-60.021 -4.6420002 -0.26899999 0
-59.998001 -4.8299999 -0.26899999 0
-77.480003 -6.4749999 -0.40700001 0
-77.408997 -6.7140002 -0.40700001 0
-77.518997 -6.9689999 -0.40799999 0
-52.299999 -5.125 -0.208 0
-52.290001 -5.29 -0.208 0
-52.196999 -5.4460001 -0.208 0
-52.348999 -5.7950001 -0.20900001 0.25
-52.286999 -5.954 -0.20900001 0
-52.361 -6.046 -0.20999999 0
-45.145 -5.7919998 -0.153 0
-44.834999 -5.895 -0.15099999 0
-44.852001 -6.0409999 -0.15099999 0
-44.937 -6.1240001 -0.152 0
-59.626999 -12.459 -0.27399999 0.20999999
-59.485001 -12.625 -0.27399999 0.19
-59.457001 -12.814 -0.27399999 0
-59.535999 -13.027 -0.27500001 0
-45.662998 -10.525 -0.164 0
-46.400002 -10.848 -0.17 0.079999998
-46.229 -10.962 -0.169 0.19
-46.181 -11.104 -0.169 0.16
-46.203999 -11.186 -0.169 0.41999999
-46.291 -11.361 -0.17 0
-73.053001 -18.157 -0.38800001 0
-72.946999 -18.374001 -0.38699999 0
-73.603996 -18.785999 -0.39300001 0
-72.790001 -18.822001 -0.38699999 0
-72.098 -18.885 -0.382 0
-72.017998 -18.985001 -0.38100001 0
-71.976997 -19.216 -0.38100001 0
-71.563004 -19.347 -0.37900001 0
-71.745003 -19.638 -0.38100001 0
-72.019997 -19.957001 -0.38299999 0
-72.102997 -20.224001 -0.38499999 0
-75.207001 -21.348 -0.41100001 0
-71.846001 -20.517 -0.38299999 0
-75.511002 -21.819 -0.414 0
-73.571999 -21.51 -0.398 0
-71.612999 -21.183001 -0.38299999 0
-73.757004 -22.068001 -0.40099999 0
-73.607002 -22.275999 -0.40000001 0
-75.754997 -23.184999 -0.419 0
-73.753998 -22.700001 -0.403 0
-70.280998 -21.874001 -0.37400001 0
-72.210999 -22.723 -0.391 0
-71.934998 -22.885 -0.389 0
-70.146004 -22.559 -0.375 0
-71.889 -23.368999 -0.38999999 0
-71.864998 -23.611 -0.391 0
-68.329002 -22.57 -0.361 0
-69.971001 -23.355 -0.37599999 0
-73.200996 -24.688 -0.403 0
-72.654999 -25.013 -0.40000001 0
-71.491997 -25.243 -0.39199999 0
-71.218002 -25.399 -0.38999999 0
-71.035004 -25.584999 -0.389 0
-70.769997 -25.740999 -0.38800001 0
-70.500999 -25.893999 -0.38600001 0
-70.232002 -26.046 -0.38499999 0
-66.757004 -24.997999 -0.35600001 0
-66.619003 -25.066 -0.35499999 0
-66.518997 -25.267 -0.35499999 0
-66.527 -25.509001 -0.35600001 0
-68.908997 -26.67 -0.377 0
-68.661003 -26.823 -0.375 0
-68.416 -26.975 -0.37400001 0
-68.155998 -27.120001 -0.37200001 0
-66.963997 -26.768 -0.36300001 0
-67.669998 -27.297001 -0.36899999 0
-67.428001 -27.445999 -0.368 0
-67.170998 -27.587999 -0.36700001 0
-66.916 -27.729 -0.36500001 0
-66.658997 -27.868999 -0.36399999 0
-66.424004 -28.016001 -0.36199999 0
-66.205002 -28.046 -0.361 0
-65.952003 -28.184 -0.36000001 0
-65.699997 -28.320999 -0.35800001 0
-65.471001 -28.466 -0.35699999 0.07
-19.957001 -8.8459997 0.034000002 0
-19.987 -8.9350004 0.033 0.14
-19.913 -8.9390001 0.034000002 0.25
-19.827 -8.9759998 0.034000002 0.28999999
-19.76 -9.0200005 0.035 0.28999999
-19.697001 -9.0670004 0.035 0.30000001
-19.639 -9.1149998 0.035 0.27000001
-19.594 -9.1689997 0.035 0.30000001
-19.549 -9.2229996 0.035999998 0.20999999
-19.533001 -9.2530003 0.035999998 0.19
-19.514999 -9.3190002 0.035 0.56999999
-19.465 -9.3710003 0.035999998 0.61000001
-19.445 -9.4359999 0.035999998 0.30000001
-19.426001 -9.5030003 0.035 0.30000001
-19.414 -9.573 0.035 0.37
-19.402 -9.6420002 0.035 0.31999999
-19.437 -9.698 0.035 0.41
-19.415001 -9.7629995 0.035 0
-19.452 -9.8579998 0.034000002 0.050000001
-19.421 -9.9200001 0.034000002 0
-19.472 -10.023 0.033 0.1
-19.634001 -10.184 0.032000002 0
-59.972 -31.285999 -0.32699999 0.079999998
-59.804001 -31.318001 -0.32600001 0.090000004
-59.580002 -31.440001 -0.32499999 0.090000004
-59.362 -31.563999 -0.324 0.090000004
-59.145 -31.687 -0.32300001 0.090000004
-58.922001 -31.806 -0.322 0.090000004
-58.720001 -31.936001 -0.32100001 0.13
-58.491001 -32.049999 -0.31999999 0.090000004
-58.323002 -32.077 -0.31900001 0
-58.146999 -32.219002 -0.31799999 0
-57.903999 -32.321999 -0.317 0
-57.696999 -32.445 -0.31600001 0
-57.485001 -32.563999 -0.315 0
-57.265999 -32.678001 -0.31400001 0.059999999
-57.042 -32.787998 -0.31299999 0.090000004
-56.884998 -32.817001 -0.31200001 0.15000001
-56.666 -32.928001 -0.31099999 0.090000004
-56.463001 -33.049 -0.31 0.090000004
-56.263 -33.168999 -0.30899999 0.14
-56.044998 -33.278 -0.308 0.090000004
-55.841999 -33.396 -0.30700001 0
-55.640999 -33.513 -0.30599999 0
-55.504002 -33.549999 -0.30500001 0
-55.271999 -33.646999 -0.30399999 0.090000004
-55.074001 -33.764 -0.303 0.1
-54.867001 -33.875 -0.30199999 0.090000004
-54.671001 -33.991001 -0.30199999 0.14
-54.462002 -34.098999 -0.301 0.1
-54.264999 -34.214001 -0.30000001 0.16
-54.105999 -34.233002 -0.29899999 0.1
-53.911999 -34.348 -0.29800001 0
-53.722 -34.464001 -0.29699999 0
-49.083 -31.709 -0.255 0
-53.306 -34.672001 -0.29499999 0
-44.282001 -29.006001 -0.211 0
-52.918999 -34.895 -0.294 0.059999999
-52.777 -34.921001 -0.29300001 0.17
-52.594002 -35.037998 -0.292 0.25
-52.382 -35.134998 -0.29100001 0.11
-23.872 -16.138 -0.021 0.19
-23.82 -16.212 -0.021 0
-48.833 -33.428001 -0.26100001 0
-48.597 -33.492001 -0.259 0
-48.714001 -33.685001 -0.26100001 0
-51.280998 -35.696999 -0.287 0
-51.103001 -35.812 -0.28600001 0
-50.889 -35.901001 -0.285 0
-50.703999 -36.009998 -0.28400001 0.14
-50.518002 -36.117001 -0.28400001 0.11
-50.337002 -36.227001 -0.28299999 0
-50.222 -36.264 -0.28299999 0
-5.4349999 -3.9790001 0.153 0
-5.3850002 -3.9690001 0.153 0
-5.3150001 -3.9430001 0.154 0
-5.309 -3.9649999 0.154 0
-5.2800002 -3.97 0.154 0
-5.23 -3.957 0.154 0
-5.23 -3.97 0.154 0
-5.217 -3.987 0.154 0
-5.1950002 -3.9960001 0.154 0
-5.2059999 -4.0300002 0.154 0
-5.1939998 -4.0469999 0.154 0
-5.145 -4.0349998 0.154 0
-5.1329999 -4.052 0.154 0
-5.1399999 -4.0700002 0.154 0
-5.1269999 -4.086 0.154 0
-5.112 -4.1009998 0.154 0
-5.0960002 -4.1149998 0.154 0
-5.0830002 -4.131 0.154 0
-5.0999999 -4.1700001 0.154 0
-5.0679998 -4.171 0.154 0
-5.1030002 -4.2129998 0.154 0
-5.1040001 -4.2410002 0.154 0
-5.118 -4.2800002 0.153 0
-45.790001 -38.508999 -0.266 0.039999999
-5.1999998 -4.375 0.152 0
-45.623001 -38.613998 -0.26499999 0.15000001
-45.455002 -38.716 -0.26499999 0.12
-45.325001 -38.729 -0.264 0.17
-45.148998 -38.825001 -0.264 0.12
-44.978001 -38.924 -0.26300001 0.17
-44.803001 -39.02 -0.26300001 0.12
-44.626999 -39.113998 -0.26199999 0.17
-44.456001 -39.212002 -0.26100001 0.12
-44.282001 -39.306 -0.26100001 0.17
-44.168999 -39.330002 -0.25999999 0.12
-44.005001 -39.432999 -0.25999999 0.17
-43.823002 -39.519001 -0.259 0.12
-43.644001 -39.606998 -0.259 0.18000001
-43.480999 -39.708 -0.25799999 0.28999999
-43.307999 -39.799999 -0.25799999 0.2
-43.129002 -39.887001 -0.257 0.18000001
-16.516001 -15.441 0.028000001 0.38999999
-16.396 -15.426 0.028000001 0.34
-16.305 -15.437 0.028999999 0.33000001
-16.222 -15.455 0.028999999 0.38
-16.156 -15.49 0.029999999 0.36000001
-16.103001 -15.536 0.029999999 0.38
-16.072001 -15.556 0.029999999 0.40000001
-16.028 -15.611 0.029999999 0.37
-15.999 -15.68 0.028999999 0.38
-15.972 -15.753 0.028999999 0.44
-15.974 -15.854 0.028999999 0.28999999
-16.059999 -16.039 0.027000001 0.54000002
-34.189999 -34.320999 -0.176 0.20999999
-34.181999 -34.419998 -0.177 0.16
-34.198002 -34.653 -0.178 0.14
-40.452 -41.241001 -0.25 0.31
-40.276001 -41.320999 -0.249 0
-40.112 -41.412998 -0.249 0.13
-39.946999 -41.502998 -0.248 0.18000001
-39.852001 -41.534 -0.248 0.31
-39.688 -41.624001 -0.248 0.2
-39.523998 -41.714001 -0.24699999 0.17
-39.358002 -41.800999 -0.24699999 0.31
-39.193001 -41.888 -0.24600001 0.2
-39.02 -41.966999 -0.24600001 0.19
-38.862 -42.062 -0.24600001 0.20999999
-38.757999 -42.081001 -0.245 0.18000001
-38.599998 -42.174999 -0.245 0.20999999
-38.43 -42.255001 -0.244 0.18000001
-38.272999 -42.348 -0.244 0.20999999
-38.105999 -42.431 -0.244 0.19
-37.951 -42.527 -0.243 0.20999999
-37.783001 -42.606998 -0.243 0.18000001
-37.629002 -42.702999 -0.243 0.20999999
-37.527 -42.723 -0.242 0.19
-37.373001 -42.818001 -0.242 0.20999999
-37.206001 -42.897999 -0.242 0.19
-37.050999 -42.992001 -0.242 0.20999999
-36.890999 -43.078999 -0.241 0.18000001
-36.729 -43.162998 -0.241 0.20999999
-36.561001 -43.240002 -0.241 0.19
-36.472 -43.272999 -0.23999999 0.20999999
-36.301998 -43.347 -0.23999999 0.19
-36.151001 -43.442001 -0.23999999 0.22
-35.987999 -43.525002 -0.23899999 0.2
-35.827 -43.608002 -0.23899999 0.22
-35.667 -43.693001 -0.23899999 0.2
-35.578999 -43.723999 -0.23899999 0.20999999
-35.416 -43.805 -0.23800001 0.19
-35.262001 -43.895 -0.23800001 0.22
-35.098 -43.973 -0.23800001 0.19
-34.943001 -44.063 -0.237 0.22
-34.792 -44.157001 -0.237 0.23
-34.629002 -44.234001 -0.237 0.18000001
-34.528999 -44.250999 -0.237 0.18000001
-34.383999 -44.351002 -0.237 0.30000001
-34.224998 -44.433998 -0.236 0.19
-34.067001 -44.516998 -0.236 0.17
-33.903 -44.591999 -0.236 0.34
-33.748001 -44.679001 -0.236 0.18000001
-33.591 -44.763 -0.235 0.34999999
-33.495998 -44.783001 -0.235 0.18000001
-33.347 -44.876999 -0.235 0.34999999
-33.187 -44.956001 -0.235 0.18000001
-33.030998 -45.041 -0.234 0.34999999
-32.876999 -45.125999 -0.234 0.18000001
-32.717999 -45.207001 -0.234 0.34999999
-32.560001 -45.286999 -0.234 0.18000001
-32.472 -45.314999 -0.234 0.34999999
-32.327999 -45.412998 -0.234 0.2
-32.161999 -45.481998 -0.233 0.34999999
-32.007999 -45.568001 -0.233 0.20999999
-31.849001 -45.646 -0.233 0.1
-31.691 -45.723999 -0.233 0.19
-31.534 -45.805 -0.233 0.18000001
-31.455 -45.845001 -0.23199999 0.36000001
-31.299999 -45.926998 -0.23199999 0.19
-31.145 -46.009998 -0.23199999 0.36000001
-30.99 -46.091 -0.23199999 0.2
-30.830999 -46.167999 -0.23199999 0.25
-30.681 -46.257 -0.23199999 0.16
-28.518999 -43.296001 -0.20299999 0.23
-28.436001 -43.317001 -0.20299999 0.11
-28.281 -43.377998 -0.20200001 0.15000001
-30.118 -46.511002 -0.23100001 0.18000001
-29.976 -46.612 -0.23100001 0.38999999
-29.811001 -46.676998 -0.23100001 0.23
-29.664 -46.77 -0.23100001 0.18000001
-29.511 -46.853001 -0.23100001 0.41
-29.43 -46.888 -0.23100001 0.23
-29.266001 -46.955002 -0.23 0.20999999
-29.120001 -47.048 -0.23 0.34999999
-28.958 -47.117001 -0.23 0.16
-28.809999 -47.208 -0.23 0.38
-28.643999 -47.269001 -0.23 0.12
-28.504 -47.372002 -0.23 0.41999999
-28.413 -47.389999 -0.23 0.14
-17.875 -30.046 -0.07 0.31
-17.752001 -30.054001 -0.068999998 0.30000001
-17.636 -30.073 -0.068999998 0.34
-17.552 -30.146 -0.068999998 0.41
-17.517 -30.305 -0.07 0.34999999
-27.493999 -47.882 -0.229 0.25
-27.414 -47.917 -0.229 0.28999999
-27.26 -47.995998 -0.229 0.31999999
-27.108999 -48.081001 -0.229 0.25999999
-26.952 -48.154999 -0.229 0.28999999
-26.797001 -48.235001 -0.229 0.20999999
-8.7930002 -15.98 0.061999999 0.36000001
-8.7449999 -16.013 0.061999999 0.19
-8.7539997 -16.087999 0.061999999 0.54000002
-26.254 -48.505001 -0.229 0.28999999
-8.21 -15.436 0.068000004 0.58999997
-8.2989998 -15.722 0.066 0.23999999
-8.2939997 -15.833 0.064999998 0.47
-8.132 -15.642 0.067000002 0.2
-7.947 -15.348 0.07 0.50999999
-7.8870001 -15.35 0.07 0.41999999
-7.8779998 -15.451 0.068999998 0.36000001
-7.802 -15.421 0.07 0.49000001
-7.8400002 -15.618 0.068000004 0.25999999
-7.7740002 -15.609 0.068000004 0.51999998
-7.7319999 -15.647 0.068000004 0.25
-7.6339998 -15.511 0.07 0.62
-7.8850002 -16.145 0.064000003 0.2
-7.5190001 -15.522 0.07 0.34
-7.4650002 -15.535 0.07 0.49000001
-7.3439999 -15.407 0.071000002 0.25999999
-7.3330002 -15.51 0.071000002 0.55000001
-7.3330002 -15.572 0.07 0.27000001
-7.2810001 -15.589 0.07 0.41
-7.23 -15.607 0.07 0.44
-7.2059999 -15.685 0.07 0.30000001
-7.1399999 -15.67 0.07 0.31999999
-7.0910001 -15.694 0.07 0.41999999
-7.0339999 -15.7 0.07 0.38999999
-6.9619999 -15.605 0.071000002 0.25
-6.8569999 -15.499 0.071999997 0.50999999
-6.5549998 -14.946 0.077 0.49000001
-6.704 -15.415 0.072999999 0.17
-6.9250002 -16.059999 0.068000004 0.38999999
-6.6490002 -15.554 0.072999999 0.41
-6.6539998 -15.702 0.071999997 0.25
-6.7620001 -16.027 0.068999998 0.46000001
-6.4629998 -15.457 0.074000001 0.23999999
-6.5190001 -15.728 0.071999997 0.58999997
-6.4720001 -15.754 0.071999997 0.18000001
-6.4770002 -15.906 0.071000002 0.34
-6.3400002 -15.713 0.071999997 0.5
-6.3299999 -15.831 0.071999997 0.37
-6.3660002 -15.993 0.07 0.43000001
-6.2610002 -15.876 0.071000002 0.23
-6.0840001 -15.569 0.074000001 0.28
-6.1789999 -15.959 0.071000002 0.47999999
-6.1009998 -15.906 0.071999997 0.47
-19.781 -51.896 -0.23199999 0.14
-18.275 -48.408001 -0.20200001 0.079999998
-17.885 -47.602001 -0.19499999 0.17
-17.733 -47.650002 -0.19499999 0.12
-17.934 -48.657001 -0.20299999 0.19
-18.440001 -50.515999 -0.21799999 0.11
-17.712999 -49.001999 -0.205 0.14
-5.6399999 -15.967 0.071999997 0.56
-5.5939999 -15.917 0.072999999 0.13
-5.5949998 -16.08 0.071999997 0.18000001
-5.4860001 -15.93 0.072999999 0.58999997
-17.503 -51.167999 -0.22 0.34999999
-17.348 -51.240002 -0.221 0.25
-17.188999 -51.299 -0.221 0.19
-17.040001 -51.389 -0.221 0.38999999
-16.962 -51.424999 -0.221 0.22
-16.806999 -51.497002 -0.221 0.16
-4.454 -13.857 0.090999998 0.27000001
-4.3670001 -13.734 0.092 0.25999999
-4.2989998 -13.67 0.093000002 0.60000002
-4.2470002 -13.655 0.093000002 0.25999999
-4.1939998 -13.633 0.093999997 0.47999999
-4.1690001 -13.63 0.093999997 0.38
-4.1259999 -13.643 0.093999997 0.36000001
-4.079 -13.641 0.093999997 0.61000001
-4.0349998 -13.652 0.093999997 0.31999999
-3.9979999 -13.682 0.093999997 0.47
-3.9549999 -13.696 0.093999997 0.41
-3.915 -13.72 0.093000002 0.40000001
-3.8970001 -13.736 0.093000002 0.41999999
-3.8629999 -13.783 0.093000002 0.28999999
-3.8269999 -13.822 0.093000002 0.58999997
-3.766 -13.77 0.093000002 0.37
-14.33 -52.763 -0.22499999 0.11
-14.174 -52.842999 -0.22499999 0.15000001
-14.006 -52.879002 -0.22499999 0
-13.603 -51.688999 -0.215 0
-15.535 -61.354 -0.29300001 0
-15.365 -61.493999 -0.294 0
-15.185 -61.596001 -0.294 0.12
-15.064 -61.941002 -0.29699999 0.18000001
-10.502 -44.118 -0.152 0.68000001
-10.34 -44.051998 -0.15099999 0.41
-10.134 -43.796001 -0.148 0.20999999
-9.941 -43.584 -0.147 0.18000001
-9.7519999 -43.386002 -0.145 0.30000001
-9.5620003 -43.174999 -0.14300001 0.16
-6.3080001 -28.735001 -0.026000001 0.22
-6.1799998 -28.583 -0.025 0.34999999
-6.0710001 -28.51 -0.024 0.27000001
-5.9640002 -28.445 -0.023 0.34
-5.8709998 -28.450001 -0.023 0.43000001
-5.7870002 -28.493999 -0.023 0.33000001
-5.704 -28.545 -0.024 0.31999999
-5.6729999 -28.621 -0.024 0.31999999
-5.6069999 -28.761999 -0.025 0.38999999
-8.2220001 -42.827 -0.138 0.30000001
-8.1009998 -42.921001 -0.138 0.31999999
-7.98 -43.025002 -0.139 0.31999999
-7.855 -43.103001 -0.139 0.31999999
-7.7329998 -43.203999 -0.14 0.34
-7.6789999 -43.291 -0.141 0.31999999
-7.5560002 -43.389999 -0.141 0.33000001
-7.4330001 -43.490002 -0.142 0.33000001
-7.309 -43.594002 -0.14300001 0.33000001
-7.184 -43.683998 -0.14300001 0.31999999
-7.0580001 -43.782001 -0.14399999 0.31999999
-7.0040002 -43.884998 -0.14399999 0.31999999
-6.8769999 -43.973999 -0.145 0.31999999
-6.75 -44.069 -0.146 0.31999999
-6.6240001 -44.171001 -0.146 0.31999999
-6.4970002 -44.275002 -0.147 0.31
-6.369 -44.369999 -0.147 0.31999999
-6.2449999 -44.497002 -0.148 0.34
-6.184 -44.571999 -0.149 0.30000001
-6.0560002 -44.68 -0.15000001 0.31
-5.928 -44.792 -0.15000001 0.30000001
-5.7969999 -44.886002 -0.15099999 0.31
-5.6680002 -44.999001 -0.152 0.30000001
-5.5380001 -45.105999 -0.152 0.30000001
-5.4060001 -45.207001 -0.153 0.30000001
-5.3470001 -45.316002 -0.154 0.33000001
-5.2150002 -45.425999 -0.155 0.30000001
-5.0830002 -45.532001 -0.155 0.34
-4.9489999 -45.631001 -0.156 0.28999999
-4.8169999 -45.762001 -0.15700001 0.34
-4.6810002 -45.849998 -0.15700001 0.28
-4.5450001 -45.943001 -0.15800001 0.20999999
-4.4770002 -45.997002 -0.15800001 0.50999999
-4.348 -46.173 -0.16 0.20999999
-1.9680001 -21.778999 0.034000002 0.16
-1.893 -21.711 0.034000002 0.38999999
-1.826 -21.726999 0.034000002 0.31999999
-1.7640001 -21.813999 0.033 0.28999999
-1.6900001 -21.75 0.034000002 0.37
-1.733 -22.75 0.026000001 0.18000001
-1.597 -21.885 0.033 0.16
-1.521 -21.791 0.034000002 0.40000001
-1.457 -21.863001 0.033 0.38
-1.413 -22.235001 0.029999999 0.16
-1.2970001 -21.495001 0.035999998 0.38999999
-1.228 -21.476999 0.035999998 0.30000001
-1.191 -21.427999 0.037 0.37
-1.125 -21.440001 0.037 0.31999999
-1.091 -22.105 0.030999999 0.46000001
-1.013 -21.931999 0.033 0.25
-0.912 -21.212 0.039000001 0.30000001
-0.84200001 -21.122999 0.039000001 0.36000001
-0.773 -21.055 0.039999999 0.34999999
-0.74299997 -21.160999 0.039000001 0.31999999
-0.67500001 -21.099001 0.039999999 0.41
-0.60799998 -21.077 0.039999999 0.33000001
-0.54299998 -21.125 0.039000001 0.41
-0.477 -21.176001 0.039000001 0.25999999
-0.41 -21.132 0.039000001 0.30000001
-0.345 -21.193001 0.039000001 0.44999999
-0.31799999 -21.615 0.035999998 0.37
-0.25 -21.639999 0.035 0.28
-0.18799999 -22.177 0.030999999 0.25
-0.118 -22.146999 0.030999999 0.36000001
-0.048 -22.216 0.030999999 0.25999999
0.021 -22.306 0.029999999 0
0.215 -64.379997 -0.30199999 0
0.31600001 -64.459 -0.30199999 0
0.51899999 -64.526001 -0.303 0
0.72299999 -64.617996 -0.30399999 0.07
0.57300001 -32.042 -0.046999998 0.34
0.671 -31.924 -0.046 0.31
0.72000003 -31.867001 -0.045000002 0.31999999
0.81999999 -31.830999 -0.045000002 0.38999999
0.91900003 -31.818001 -0.045000002 0.36000001
1.02 -31.843 -0.045000002 0.34999999
1.1210001 -31.870001 -0.045000002 0.31
1.223 -31.922001 -0.046 0.41
1.327 -32.012001 -0.046999998 0
2.7320001 -64.082001 -0.30000001 0
2.937 -64.158997 -0.30000001 0
3.4860001 -71.296997 -0.35699999 0
4.2150002 -65.157997 -0.30899999 0
4.381 -66.123001 -0.317 0
5.3969998 -65.777 -0.31400001 0
3.823 -43.941002 -0.142 0
6.1690001 -60.082001 -0.27000001 0
6.263 -60.067001 -0.27000001 0
4.612 -41.619999 -0.124 0.28
4.7220001 -41.423 -0.123 0.27000001
4.8460002 -41.349998 -0.122 0.33000001
4.9699998 -41.285 -0.122 0.28
5.099 -41.264999 -0.122 0.22
5.1739998 -41.34 -0.123 0.47999999
5.3260002 -41.499001 -0.124 0
7.8429999 -59.714001 -0.26899999 0
8.1199999 -60.355 -0.27399999 0
8.2639999 -59.998001 -0.27200001 0
7.7719998 -55.125 -0.233 0
8.6490002 -59.998001 -0.27200001 0.039999999
8.1940002 -56.206001 -0.242 0.15000001
8.3459997 -56.018002 -0.241 0.16
8.5120001 -55.922001 -0.23999999 0.31999999
8.6999998 -55.978001 -0.241 0
8.9060001 -56.139999 -0.242 0
11.109 -68.668999 -0.34299999 0
11.347 -68.772003 -0.34400001 0
11.486 -68.938004 -0.345 0
11.722 -69.015999 -0.34599999 0
11.964 -69.125999 -0.347 0
12.209 -69.244003 -0.34799999 0
12.453 -69.357002 -0.34999999 0
12.706 -69.508003 -0.35100001 0
12.84 -69.625999 -0.352 0
13.08 -69.695 -0.35299999 0
13.277 -69.538002 -0.352 0
13.529 -69.670998 -0.354 0
13.828 -70.038002 -0.35699999 0
14.088 -70.190002 -0.359 0
14.342 -70.311996 -0.36000001 0
14.491 -70.480003 -0.361 0
14.74 -70.563004 -0.36199999 0
15.007 -70.733002 -0.36399999 0
15.255 -70.805 -0.36500001 0
15.523 -70.966003 -0.36700001 0
15.779 -71.065002 -0.368 0
16.045 -71.205002 -0.37 0
16.190001 -71.325996 -0.37099999 0
16.454 -71.452003 -0.37200001 0
16.721001 -71.581001 -0.37400001 0
16.988001 -71.707001 -0.375 0
16.450001 -68.470001 -0.34900001 0
16.731001 -68.692001 -0.352 0
16.787001 -67.989998 -0.34599999 0
16.851999 -67.792999 -0.345 0
17.202999 -68.291 -0.34900001 0
17.436001 -68.309998 -0.34999999 0
18.063 -69.849998 -0.36300001 0
18.184 -69.417999 -0.36000001 0
18.506001 -69.752998 -0.36300001 0.059999999
16.129 -60.019001 -0.28400001 0.23
16.183001 -59.845001 -0.28299999 0.25
16.358 -59.744999 -0.28200001 0.11
16.562 -59.752998 -0.28299999 0
16.811001 -59.918999 -0.285 0
19.620001 -69.111 -0.361 0
19.923 -69.348999 -0.36300001 0
20.121 -69.219002 -0.36199999 0
20.292999 -69.403999 -0.36399999 0
20.659 -69.838997 -0.368 0
21.301001 -70.380997 -0.37400001 0
18.950001 -61.214001 -0.29899999 0
23.441999 -74.908997 -0.41299999 0
23.628 -75.089996 -0.41499999 0
22.535 -70.834 -0.38 0
23.1 -71.827003 -0.389 0
23.416 -72.033997 -0.391 0
23.66 -72.013 -0.39199999 0
23.871 -71.894997 -0.391 0
24.018999 -71.587997 -0.389 0
23.976999 -71.088997 -0.38600001 0
24.047001 -70.565002 -0.382 0
24.236 -70.394997 -0.38100001 0
24.502001 -70.446999 -0.382 0
24.684 -70.258003 -0.38100001 0
24.816 -69.929001 -0.37900001 0
14.101 -39.115002 -0.122 0.20999999
14.183 -38.958 -0.121 0.28999999
14.277 -38.838001 -0.12 0.30000001
14.399 -38.792999 -0.12 0.30000001
14.541 -38.799999 -0.121 0.23
14.648 -38.715 -0.12 0.18000001
14.792 -38.911999 -0.122 0
27.117001 -70.723999 -0.391 0
27.312 -70.569 -0.391 0
28.455999 -72.177002 -0.40599999 0
28.686001 -72.094002 -0.40599999 0
6.1300001 -14.74 0.079999998 0
5.9159999 -13.792 0.088 0
6.5689998 -14.679 0.079000004 0
31.277 -68.100998 -0.38499999 0.050000001
31.455 -67.926003 -0.384 0
31.681 -67.853996 -0.38499999 0
31.915001 -67.797997 -0.38499999 0
32.216999 -67.885002 -0.38699999 0
20.562 -42.439999 -0.16599999 0.28999999
20.645 -42.272999 -0.16500001 0.16
20.681999 -42.012001 -0.163 0.38999999
20.777 -41.874001 -0.163 0.18000001
21.018999 -42.029999 -0.16500001 0.38
21.143999 -42.115002 -0.16599999 0.20999999
21.225 -41.945999 -0.16500001 0
21.5 -42.160999 -0.167 0
8.5609999 -15.074 0.068999998 0.28999999
8.5930004 -15.019 0.07 0.36000001
31.334 -54.509998 -0.28999999 0.18000001
31.434999 -54.487 -0.28999999 0.12
7.4359999 -12.757 0.090000004 0.18000001
7.4320002 -12.657 0.090000004 0.36000001
7.4400001 -12.58 0.090999998 0.41
7.454 -12.514 0.090999998 0.23999999
7.4660001 -12.444 0.092 0.56999999
7.493 -12.402 0.092 0.23
7.4840002 -12.342 0.092 0.47999999
7.5180001 -12.312 0.092 0.28999999
7.5469999 -12.271 0.092 0.51999998
7.5840001 -12.245 0.092 0.27000001
7.612 -12.205 0.093000002 0.51999998
7.6589999 -12.194 0.092 0.34
7.6919999 -12.162 0.093000002 0.46000001
7.717 -12.16 0.092 0.44999999
7.7729998 -12.162 0.092 0.28
7.8239999 -12.158 0.092 0.49000001
7.875 -12.154 0.092 0.33000001
7.9510002 -12.187 0.090999998 0.43000001
8.0299997 -12.224 0.090999998 0.36000001
8.1339998 -12.299 0.090000004 0.44999999
9.5190001 -14.304 0.071000002 0.2
9.1000004 -13.624 0.077 0.43000001
10.187 -15.154 0.061999999 0.19
10.472 -15.473 0.059 0.15000001
10.582 -15.531 0.057999998 0.20999999
9.6370001 -14.045 0.071999997 0.28999999
9.6789999 -14.012 0.071999997 0.30000001
9.6669998 -13.947 0.071999997 0.23999999
9.7010002 -13.904 0.071999997 0.38999999
9.6420002 -13.726 0.074000001 0.43000001
9.599 -13.573 0.075000003 0.36000001
9.5959997 -13.479 0.075999998 0.41
9.7449999 -13.598 0.074000001 0.20999999
9.6560001 -13.384 0.075999998 0.58999997
9.7869997 -13.521 0.074000001 0.30000001
9.7320004 -13.356 0.075999998 0.15000001
9.7639999 -13.313 0.075999998 0.55000001
9.8079996 -13.285 0.075999998 0.44
9.8120003 -13.203 0.075999998 0.25999999
9.9790001 -13.34 0.075000003 0.25
9.9680004 -13.281 0.075000003 0.56
10.142 -13.426 0.072999999 0.25
10.817 -14.229 0.064999998 0.37
10.735 -14.03 0.067000002 0.31999999
10.642 -13.817 0.068000004 0.5
10.651 -13.65 0.068999998 0.57999998
10.685 -13.649 0.068999998 0.11
41.321999 -52.567001 -0.32100001 0
11.074 -13.394 0.068999998 0
36.287998 -43.702999 -0.242 0
36.041 -43.127998 -0.237 0
36.366001 -43.241001 -0.23999999 0
35.131001 -41.505001 -0.223 0
22.843 -26.716999 -0.071000002 0.14
22.927999 -26.646999 -0.071000002 0.11
23.065001 -26.636999 -0.071999997 0.28
23.118999 -26.362 -0.07 0.17
23.346001 -26.452 -0.071999997 0.15000001
23.348 -26.371 -0.071999997 0.25
23.377001 -26.238001 -0.071000002 0.28999999
23.497 -26.205999 -0.071999997 0.25
23.658001 -26.219 -0.071999997 0.34
23.903999 -26.326 -0.074000001 0.23999999
23.872 -26.125 -0.072999999 0.15000001
13.366 -14.518 0.050000001 0.44
13.376 -14.484 0.050999999 0.2
13.388 -14.405 0.050999999 0.25
13.403 -14.331 0.050999999 0.38
13.459 -14.3 0.050999999 0.31999999
13.476 -14.229 0.050999999 0.47999999
13.356 -14.012 0.052999999 0.40000001
13.402 -13.973 0.052999999 0.41999999
13.589 -14.124 0.050999999 0.28999999
13.21 -13.642 0.056000002 0.46000001
13.413 -13.766 0.054000001 0.25
13.347 -13.612 0.056000002 0.36000001
13.359 -13.539 0.056000002 0.34999999
13.516 -13.613 0.055 0.37
13.431 -13.442 0.056000002 0.31
13.342 -13.31 0.057 0.44999999
13.41 -13.295 0.057 0.23999999
13.394 -13.195 0.057999998 0.38
13.358 -13.077 0.059 0.31999999
13.375 -13.012 0.059 0.41
13.415 -12.97 0.059 0.40000001
13.491 -12.961 0.057999998 0.34999999
13.473 -12.903 0.059 0.41999999
13.544 -12.89 0.059 0.30000001
13.608 -12.87 0.057999998 0.5
13.768 -12.939 0.057 0.31
13.817 -12.904 0.057 0.47999999
13.737 -12.749 0.057999998 0.28999999
13.733 -12.704 0.057999998 0.37
13.73 -12.622 0.059 0.31
13.788 -12.596 0.059 0.41
13.883 -12.602 0.057999998 0.41999999
13.982 -12.612 0.057999998 0.20999999
14.075 -12.617 0.057 0.5
14.055 -12.519 0.057999998 0.25
14.173 -12.585 0.057 0.47999999
14.196 -12.526 0.057 0.41999999
14.191 -12.443 0.057 0.30000001
14.237 -12.403 0.057 0.47999999
14.398 -12.465 0.056000002 0.31
14.355 -12.349 0.057 0.38
14.407 -12.315 0.057 0.41
14.532 -12.382 0.055 0.36000001
14.534 -12.306 0.056000002 0.41
14.631 -12.309 0.055 0.38
14.749 -12.33 0.054000001 0.38999999
14.686 -12.199 0.055 0.38
14.778 -12.197 0.055 0.27000001
15.028 -12.325 0.052999999 0.52999997
15.126 -12.366 0.052000001 0.31999999
15.057 -12.23 0.052999999 0.40000001
15.126 -12.208 0.052999999 0.44999999
15.199 -12.188 0.052000001 0.38999999
15.096 -12.027 0.054000001 0
61.612999 -48.874001 -0.414 0
61.724998 -48.647999 -0.414 0
61.602001 -48.394001 -0.412 0
61.48 -47.986 -0.40900001 0
61.990002 -48.071999 -0.41299999 0
62.169998 -47.898998 -0.41299999 0.090000004
19.087 -14.493 0.017000001 0.41
19.172001 -14.463 0.017000001 0.25999999
19.077 -14.344 0.017999999 0.16
18.559999 -13.863 0.023 0.5
18.645 -13.836 0.023 0.30000001
18.552999 -13.677 0.024 0
18.698999 -13.695 0.023 0
64.355003 -46.900002 -0.42199999 0
64.716003 -46.852001 -0.42399999 0
18.819 -13.467 0.024 0
17.57 -11.202 0.041999999 0.19
17.583 -11.171 0.041999999 0.18000001
17.596001 -11.102 0.041999999 0.55000001
17.656 -11.063 0.041999999 0.46000001
17.589001 -10.944 0.043000001 0
19.341 -11.496 0.028999999 0.47
19.288 -11.382 0.028999999 0.31
19.242001 -11.274 0.029999999 0.38
19.247 -11.195 0.029999999 0.38
19.252001 -11.158 0.030999999 0.36000001
19.282 -11.094 0.030999999 0.38
19.332001 -11.043 0.029999999 0.30000001
19.374001 -10.986 0.029999999 0.43000001
19.422001 -10.933 0.029999999 0.41
19.472 -10.88 0.029999999 0.44999999
19.573999 -10.857 0.028999999 0.41999999
19.659 -10.864 0.028999999 0.44
19.705999 -10.809 0.028999999 0.2
19.566 -10.652 0.029999999 0.31999999
24.561001 -13.18 -0.014 0.43000001
24.698999 -13.154 -0.015 0.17
24.576 -12.989 -0.013 0.23999999
24.823999 -13.071 -0.015 0.43000001
24.917 -13.02 -0.016000001 0.33000001
24.533001 -12.721 -0.012 0.28999999
23.766001 -12.228 -0.0049999999 0.27000001
23.860001 -12.181 -0.0049999999 0.44999999
24.851999 -12.591 -0.014 0.14
28.513 -14.338 -0.046 0.18000001
24.024 -12.029 -0.0060000001 0.20999999
24.207001 -12.025 -0.0070000002 0.34
28.437 -14.02 -0.044 0.16
24.455 -11.958 -0.0089999996 0.31999999
24.396999 -11.834 -0.0080000004 0.28999999
24.396 -11.739 -0.0070000002 0.31999999
24.464001 -11.63 -0.0080000004 0.51999998
25.142 -11.857 -0.013 0.2
25.042999 -11.714 -0.012 0.33000001
24.528999 -11.379 -0.0070000002 0.27000001
25.261999 -11.623 -0.013 0.20999999
25.158001 -11.48 -0.012 0.27000001
25.072001 -11.393 -0.011 0.37
25.02 -11.275 -0.0099999998 0.34999999
25.629 -11.453 -0.015 0.2
25.666 -11.373 -0.015 0.38999999
25.702 -11.292 -0.015 0.34
29.687 -12.937 -0.048999999 0.28999999
29.245001 -12.634 -0.045000002 0.18000001
29.59 -12.728 -0.048 0
30.601 -13.05 -0.056000002 0.07
30.474001 -12.883 -0.055 0.12
30.643 -12.842 -0.056000002 0.34
30.08 -12.494 -0.050999999 0.22
30.309 -12.478 -0.052000001 0.23999999
30.372 -12.393 -0.052999999 0.25
30.57 -12.417 -0.054000001 0.34999999
30.632999 -12.331 -0.054000001 0.33000001
30.729 -12.258 -0.055 0.30000001
30.757999 -12.157 -0.055 0.20999999
30.809 -12.066 -0.055 0
31.197001 -12.105 -0.057999998 0.16
32.016998 -12.308 -0.064000003 0.20999999
31.909 -12.209 -0.063000001 0.25
31.745001 -12.032 -0.061999999 0.23
32.167 -12.077 -0.064999998 0.16
30.492001 -11.337 -0.050999999 0.18000001
30.343 -11.174 -0.048999999 0.40000001
30.305 -11.052 -0.048 0.33000001
30.289 -10.938 -0.048 0.34
30.27 -10.877 -0.048 0.28999999
30.299999 -10.781 -0.048 0.33000001
30.362 -10.696 -0.048 0.34
30.422001 -10.609 -0.048 0.31999999
30.521999 -10.537 -0.048999999 0.36000001
30.6 -10.456 -0.048999999 0
40.110001 -13.574 -0.12800001 0.12
40.27 -13.558 -0.12899999 0.17
40.014999 -13.332 -0.127 0.13
40.201 -13.254 -0.12800001 0
40.485001 -13.066 -0.12899999 0.31999999
40.466999 -12.92 -0.12899999 0.12
40.334999 -12.738 -0.12800001 0.44
40.84 -12.827 -0.132 0
42.159 -13.097 -0.142 0.14
41.560001 -12.768 -0.13699999 0.19
41.827 -12.706 -0.139 0.34999999
40.958 -12.301 -0.131 0.19
40.876999 -12.137 -0.13 0.16
42.424999 -12.525 -0.14300001 0.15000001
42.256001 -12.331 -0.141 0.36000001
42.375999 -12.222 -0.142 0.19
43.328999 -12.35 -0.149 0.18000001
43.019001 -12.115 -0.146 0
43.438999 -12.087 -0.15000001 0.15000001
44.098999 -12.122 -0.155 0
44.912998 -12.27 -0.161 0
41.410999 -11.032 -0.132 0.31
41.401001 -10.89 -0.132 0.31
41.394001 -10.749 -0.131 0.30000001
41.452999 -10.626 -0.131 0.28
41.455002 -10.487 -0.131 0
45.785999 -11.51 -0.16599999 0.12
45.935001 -11.394 -0.167 0.17
46.116001 -11.285 -0.168 0.31999999
46.265999 -11.168 -0.169 0.20999999
46.540001 -11.08 -0.171 0.15000001
46.550999 -10.928 -0.171 0.31
46.633999 -10.793 -0.171 0.2
46.654999 -10.72 -0.171 0.16
46.370998 -10.502 -0.169 0.13
46.487 -10.375 -0.17 0.14
46.061001 -10.127 -0.16599999 0.22
46.831001 -10.143 -0.17200001 0
46.749001 -9.9720001 -0.171 0
62.34 -13.101 -0.296 0
62.242001 -12.979 -0.29499999 0
60.979 -12.515 -0.285 0
61.995998 -12.521 -0.29300001 0
60.723 -12.065 -0.28200001 0
63.872002 -12.484 -0.30700001 0
63.751999 -12.252 -0.30599999 0
63.955002 -12.083 -0.30700001 0
62.853001 -11.772 -0.29800001 0
65.408997 -12.04 -0.31799999 0
65.879997 -11.913 -0.322 0
66.112 -11.74 -0.324 0.12
66.098999 -11.524 -0.32300001 0
66.107002 -11.311 -0.32300001 0
67.629997 -11.463 -0.33500001 0
67.848999 -11.281 -0.336 0
70.502998 -11.496 -0.35699999 0
70.718002 -11.303 -0.359 0
72.332001 -11.329 -0.37099999 0
72.844002 -11.175 -0.375 0.059999999
72.723999 -10.923 -0.37400001 0
72.782997 -10.815 -0.37400001 0
77.346001 -10.998 -0.41 0
78.807999 -10.702 -0.421 0
78.487 -10.407 -0.41800001 0
78.247002 -10.125 -0.41600001 0
42.668999 -3.881 -0.132 0
58.977001 -5.1880002 -0.26100001 0
58.966999 -5.0929999 -0.26100001 0.039999999
58.999001 -4.9089999 -0.26100001 0.079999998
58.992001 -4.7220001 -0.26100001 0
58.953999 -4.533 -0.25999999 0
64.843002 2.0039999 -0.704 0
64.842003 2.2079999 -0.704 0
48.905998 1.813 -0.47999999 0
42.792999 1.785 -0.39500001 0
42.757 1.918 -0.39399999 0
35.494999 2.0910001 -0.29300001 0
29.127001 2.171 -0.204 0
29.101999 2.2609999 -0.204 0
48.976002 4.0549998 -0.48300001 0
27.131001 2.664 -0.177 0.17
30.117001 3.0079999 -0.219 0.31
21.893 2.2490001 -0.103 0
21.459999 2.2720001 -0.097000003 0
20.128 2.2579999 -0.078000002 0
20.042999 2.312 -0.077 0.039999999
19.068001 2.289 -0.064000003 0
18.378 2.2639999 -0.054000001 0
17.576 2.276 -0.043000001 0.16
17.454 2.316 -0.041000001 0
17.493999 2.3770001 -0.041999999 0
17.26 2.4000001 -0.039000001 0.07
19.209 2.7049999 -0.066 0.20999999
19.198 2.7650001 -0.066 0.12
16.353001 2.404 -0.026000001 0
16.051001 2.411 -0.022 0
15.571 2.388 -0.015 0
24.481001 3.848 -0.142 0.090000004
14.993 2.4189999 -0.0070000002 0
14.709 2.4200001 -0.003 0
14.636 2.4549999 -0.0020000001 0
14.124 2.414 0.0049999999 0
13.914 2.4230001 0.0080000004 0
13.363 2.4119999 0.015 0.23
13.363 2.434 0.015 0.28999999
13.393 2.483 0.015 0.47
27.091999 5.2259998 -0.18099999 0.38999999
27.309 5.3579998 -0.185 0
27.216 5.428 -0.183 0
25.091999 5.125 -0.153 0
25.184999 5.2270002 -0.155 0
23.499001 5.184 -0.132 0
23.011 5.2659998 -0.125 0.37
22.900999 5.316 -0.124 0.27000001
23.003 5.4159999 -0.126 0.67000002
23.254 5.553 -0.13 0
28.285 6.8540001 -0.20200001 0
21.503 5.2399998 -0.105 0
20.900999 5.2319999 -0.096000001 0.12
20.377001 5.3049998 -0.090000004 0.69999999
20.233 5.335 -0.088 0.5
20.014 5.3109999 -0.085000001 0.34999999
19.943001 5.3590002 -0.083999999 0
19.513 5.309 -0.078000002 0
19.612 5.402 -0.079999998 0
14.391 4.177 -0.0040000002 0.40000001
14.345 4.2119999 -0.0040000002 0.16
14.633 4.3470001 -0.0080000004 0
17.195999 5.3200002 -0.046999998 0.13
17.108999 5.3520002 -0.046 0.16
16.972 5.3670001 -0.044 0.75999999
16.945999 5.4180002 -0.044 0.36000001
16.735001 5.408 -0.041000001 0.54000002
16.570999 5.4120002 -0.039000001 0.38999999
16.541 5.46 -0.039000001 0
16.198 5.375 -0.034000002 0.090000004
15.897 5.3299999 -0.028999999 0
15.769 5.342 -0.028000001 0
15.364 5.447 -0.023 0.38
15.2 5.4429998 -0.021 0.60000002
15.434 5.5819998 -0.024 0
7.243 2.6300001 0.097999997 0.1
7.184 2.6340001 0.097999997 0.11
7.1810002 2.6589999 0.097999997 0.5
7.1900001 2.675 0.097999997 0.16
14.768 5.6300001 -0.016000001 0.68000001
14.864 5.7199998 -0.017999999 0
13.855 5.3800001 -0.003 0
13.842 5.4250002 -0.003 0
13.72 5.427 -0.001 0
13.627 5.4400001 -0 0
13.324 5.3909998 0.0040000002 0.16
13.466 5.4980001 0.0020000001 0
13.69 5.6409998 -0.0020000001 0
11.718 5.4390001 0.024 0.23
11.506 5.3839998 0.028000001 0
11.562 5.4330001 0.026000001 0
11.312 5.4889998 0.028999999 0
11.235 5.4949999 0.029999999 0.1
9.2810001 4.5890002 0.059999999 0.30000001
9.1879997 4.5780001 0.061999999 0.54000002
9.2290001 4.6350002 0.061000001 0.19
9.2159996 4.665 0.061000001 0.28
9.2049999 4.6960001 0.061000001 0.14
9.0799999 4.6680002 0.061999999 0
9.2530003 4.7940001 0.059 0
14.969 7.9239998 -0.032000002 0.25
14.889 7.9419999 -0.030999999 0.44
14.996 8.0600004 -0.033 0
10.673 5.8800001 0.035 0.61000001
10.886 6.0430002 0.030999999 0
9.7069998 5.4650002 0.048999999 0
9.651 5.473 0.050000001 0
9.6459999 5.5110002 0.050000001 0
9.6389999 5.527 0.050000001 0
9.5469999 5.5139999 0.050999999 0
9.4799995 5.5149999 0.052000001 0
9.4320002 5.526 0.052000001 0
9.1269999 5.4829998 0.056000002 0.25999999
9.0640001 5.4829998 0.057 0.25
8.8669996 5.402 0.059999999 0
9.6110001 6.4109998 0.044 0
9.6009998 6.6469998 0.041999999 0
9.5539999 6.6589999 0.041999999 0
9.5170002 6.7220001 0.041999999 0.25999999
7.7909999 5.553 0.071000002 0.28999999
7.7610002 5.5679998 0.071999997 0.27000001
7.7030001 5.5630002 0.071999997 0.61000001
7.8759999 5.7259998 0.068999998 0
7.5970001 5.559 0.074000001 0
7.6110001 5.6069999 0.072999999 0
9.6490002 8.0229998 0.029999999 0
9.6009998 8.0340004 0.029999999 0.07
9.54 8.0349998 0.030999999 0.18000001
9.5139999 8.0380001 0.030999999 0
9.4870005 8.0670004 0.030999999 0
6.0469999 5.6409998 0.090000004 0.28999999
5.9980001 5.631 0.090000004 0.36000001
5.9689999 5.6389999 0.090000004 0.37
5.941 5.6479998 0.090999998 0.38
5.9219999 5.6479998 0.090999998 0.38
5.8959999 5.658 0.090999998 0.38999999
5.8670001 5.665 0.090999998 0.38999999
5.8239999 5.6599998 0.092 0.38
5.7989998 5.671 0.092 0.37
5.7670002 5.6750002 0.092 0.37
5.737 5.6810002 0.092 0.36000001
5.7189999 5.6810002 0.093000002 0.34
5.6900001 5.6880002 0.093000002 0.54000002
5.651 5.684 0.093000002 0.12
5.6350002 5.7399998 0.093000002 0.16
7.888 8.1009998 0.046999998 0.41
7.842 8.1040001 0.046999998 0.38
7.8060002 8.092 0.048 0.51999998
7.7620001 8.0979996 0.048 0.19
7.711 8.0939999 0.048999999 0.62
7.8940001 8.3400002 0.045000002 0
6.8850002 8.6339998 0.050999999 0
6.855 8.651 0.050999999 0
6.7989998 8.6359997 0.052000001 0
6.1700001 8.066 0.063000001 0.090000004
6.1110001 8.0410004 0.064000003 0.57999998
6.2319999 8.2550001 0.061000001 0
4.4499998 5.9790001 0.101 0.19
4.441 6.006 0.101 0.54000002
4.349 5.9200001 0.103 0
4.4039998 6.0359998 0.101 0
3.3659999 4.6339998 0.125 0.07
3.3 4.5560002 0.127 0
1.9220001 2.6700001 0.15899999 0
3.2709999 4.5469999 0.127 0
1.896 2.652 0.16 0
1.8839999 2.6530001 0.16 0
1.88 2.665 0.16 0
1.86 2.6530001 0.16 0
1.857 2.658 0.16 0
5.1589999 8.6700001 0.064000003 0
5.1469998 8.7119999 0.064000003 0
5.0939999 8.684 0.064000003 0.12
4.5430002 7.796 0.079000004 0.2
4.5159998 7.8049998 0.079000004 0
4.5430002 7.9099998 0.078000002 0
4.9650002 8.6820002 0.064999998 0
4.9359999 8.6940002 0.064999998 0
5.8610001 11.223 0.028000001 0
5.8179998 11.227 0.028000001 0
5.77 11.22 0.028999999 0
5.7329998 11.235 0.028999999 0
1.326 2.711 0.163 0
1.306 2.6919999 0.164 0
1.302 2.7049999 0.164 0
1.293 2.7090001 0.164 0
1.277 2.6860001 0.164 0
1.272 2.697 0.164 0
1.257 2.6860001 0.164 0
1.26 2.714 0.164 0
1.249 2.7119999 0.164 0
1.23 2.694 0.164 0
1.227 2.7090001 0.164 0
1.217 2.7 0.164 0
1.201 2.6860001 0.164 0
1.193 2.691 0.164 0
1.189 2.704 0.164 0
1.175 2.6949999 0.164 0
1.1569999 2.677 0.16500001 0
1.115 2.599 0.16599999 0
3.4619999 8.7110004 0.074000001 0
3.448 8.7159996 0.074000001 0.090000004
3.3859999 8.7189999 0.074000001 0.37
3.358 8.7279997 0.074000001 0.34999999
3.3269999 8.7290001 0.075000003 0.34999999
3.2939999 8.724 0.075000003 0.44
3.3429999 8.941 0.071999997 0
3.2460001 8.7209997 0.075000003 0
3.2190001 8.7329998 0.075000003 0
3.1849999 8.724 0.075000003 0
3.3110001 11.037 0.044 0
3.273 11.167 0.041999999 0
3.2349999 11.168 0.043000001 0
3.201 11.18 0.043000001 0
3.161 11.175 0.043000001 0
0.60799998 2.6199999 0.168 0
0.60100001 2.628 0.168 0
0.59200001 2.6259999 0.168 0
0.58600003 2.6359999 0.168 0
0.58899999 2.6700001 0.167 0
0.57499999 2.6459999 0.168 0
1.723 8.7390003 0.081 0
1.697 8.7519999 0.081 0.11
1.652 8.7410002 0.081 0.30000001
1.625 8.7460003 0.081 0.34
1.598 8.7530003 0.081 0.34
1.568 8.7460003 0.081 0.36000001
1.5420001 8.757 0.081 0.38999999
1.5549999 9 0.078000002 0
1.497 8.7460003 0.081 0
1.469 8.7469997 0.081 0.07
1.442 8.7550001 0.081 0
1.712 11.088 0.048 0
1.677 11.212 0.046999998 0
1.642 11.218 0.046999998 0
1.6059999 11.213 0.046999998 0
1.571 11.226 0.046999998 0
1.544 11.29 0.046 0
0.13500001 2.6589999 0.168 0
0.125 2.6210001 0.169 0
0.41499999 8.8039999 0.082000002 0
0.118 2.655 0.168 0
0.112 2.7179999 0.167 0.059999999
0.105 2.7920001 0.16599999 0
0.093999997 2.7 0.168 0
0.085000001 2.6830001 0.168 0
0.082000002 2.7049999 0.168 0
0.072999999 2.6989999 0.168 0
0.064000003 2.687 0.168 0
0.056000002 2.681 0.168 0
0.046999998 2.674 0.168 0
0.039000001 2.6960001 0.168 0
0.035 2.7019999 0.168 0
0.026000001 2.694 0.168 0
0.017999999 2.704 0.168 0
0.0089999996 2.7060001 0.168 0
0.001 2.6900001 0.168 0
-0.0080000004 2.71 0.168 0
-0.016000001 2.714 0.168 0
-0.02 2.6919999 0.168 0
-0.028999999 2.7079999 0.168 0
-0.037 2.704 0.168 0
-0.046 2.7 0.168 0
-0.055 2.7090001 0.168 0
-0.063000001 2.721 0.167 0
-0.071000002 2.691 0.168 0
-0.079999998 2.717 0.167 0
-0.083999999 2.6930001 0.168 0
-0.093999997 2.724 0.167 0
-0.101 2.7079999 0.168 0
-0.108 2.678 0.168 0
-0.115 2.6500001 0.168 0
-1.749 11.333 0.045000002 0
-1.785 11.329 0.045000002 0
-1.8200001 11.318 0.045000002 0
-1.8380001 11.321 0.045000002 0
-1.928 11.209 0.046 0
-1.842 9.8850002 0.064999998 0
-1.887 9.9499998 0.064000003 0
-1.906 9.8850002 0.064000003 0
-1.827 8.8839998 0.078000002 0.079999998
-1.8380001 8.8710003 0.079000004 0.36000001
-1.867 8.8669996 0.079000004 0.36000001
-1.897 8.8710003 0.078000002 0.36000001
-1.929 8.8859997 0.078000002 0.33000001
-1.955 8.8690004 0.078000002 0.34
-1.989 8.8920002 0.078000002 0.40000001
-2.0179999 8.8909998 0.078000002 0.31
-2.02 8.835 0.079000004 0
-0.62699997 2.704 0.167 0
-2.063 8.8909998 0.078000002 0
-0.62900001 2.6400001 0.168 0
-0.64399999 2.665 0.167 0
-0.64300001 2.645 0.167 0
-0.65799999 2.6700001 0.167 0
-0.667 2.668 0.167 0
-0.67000002 2.6470001 0.167 0
-0.676 2.6370001 0.167 0
-0.68400002 2.6329999 0.167 0
-0.699 2.6389999 0.167 0
-0.699 2.608 0.168 0
-0.71200001 2.6229999 0.167 0
-0.71799999 2.6110001 0.168 0
-0.73299998 2.632 0.167 0
-0.74000001 2.6259999 0.167 0
-0.75300002 2.6389999 0.167 0
-0.75199997 2.6199999 0.167 0
-0.79100001 2.721 0.16599999 0.13
-0.801 2.723 0.16599999 0.23999999
-0.80599999 2.711 0.16599999 0.25
-0.81900001 2.721 0.16599999 0.25
-0.82800001 2.7190001 0.16599999 0.20999999
-0.83899999 2.724 0.16599999 0.18000001
-0.83899999 2.7090001 0.16599999 0.25
-0.85100001 2.7179999 0.16599999 0.18000001
-0.852 2.694 0.16599999 0.34
-0.86799997 2.7130001 0.16599999 0.2
-0.88300002 2.7290001 0.16500001 0.16
-0.88700002 2.7130001 0.16599999 0.25
-0.89099997 2.697 0.16599999 0.2
-0.898 2.7030001 0.16599999 0.22
-0.91299999 2.7190001 0.16500001 0.16
-0.92199999 2.7179999 0.16500001 0.23
-0.93400002 2.724 0.16500001 0.18000001
-0.935 2.7030001 0.16500001 0.23999999
-0.94700003 2.7090001 0.16500001 0.18000001
-0.95200002 2.697 0.16500001 0.13
-0.96399999 2.714 0.16500001 0.17
-0.96100003 2.681 0.16599999 0.12
-0.986 2.723 0.16500001 0.14
-0.99199998 2.7119999 0.16500001 0.22
-1.001 2.711 0.16500001 0.17
-1.012 2.7149999 0.16500001 0.14
-1.022 2.714 0.16500001 0.17
-1.03 2.711 0.16500001 0.28
-1.031 2.7 0.16500001 0.11
-1.049 2.721 0.16500001 0.16
-1.049 2.697 0.16500001 0.20999999
-1.069 2.7219999 0.16500001 0.15000001
-1.0779999 2.7179999 0.16500001 0.23999999
-1.086 2.7149999 0.16500001 0.19
-1.097 2.717 0.16500001 0.20999999
-1.101 2.7149999 0.16500001 0.18000001
-1.1109999 2.7149999 0.164 0.23
-1.1210001 2.714 0.164 0.18000001
-1.132 2.7179999 0.164 0.22
-1.147 2.7290001 0.164 0.16
-1.158 2.7309999 0.164 0.23999999
-1.156 2.7030001 0.164 0.18000001
-1.164 2.7090001 0.164 0.20999999
-1.179 2.72 0.164 0.18000001
-1.192 2.727 0.164 0.31
-1.194 2.7090001 0.164 0.2
-1.217 2.7360001 0.164 0.17
-1.229 2.7390001 0.164 0.15000001
-1.234 2.7279999 0.164 0.31
-1.237 2.724 0.164 0.25999999
-1.257 2.744 0.163 0.19
-1.262 2.733 0.163 0.18000001
-1.267 2.721 0.164 0.25
-1.274 2.714 0.164 0.18000001
-1.293 2.7309999 0.163 0.22
-1.307 2.7379999 0.163 0.18000001
-1.307 2.727 0.163 0.23999999
-1.321 2.734 0.163 0.18000001
-1.334 2.7390001 0.163 0.23999999
-1.341 2.733 0.163 0.18000001
-1.351 2.73 0.163 0.23999999
-1.367 2.7420001 0.163 0.18000001
-1.374 2.734 0.163 0.23999999
-1.396 2.7550001 0.162 0.17
-1.3890001 2.7309999 0.163 0.33000001
-1.385 2.704 0.163 0.11
-1.403 2.717 0.163 0.079999998
-1.4349999 2.757 0.162 0.14
-1.437 2.74 0.162 0.34
-1.443 2.73 0.162 0.20999999
-1.448 2.7179999 0.162 0.090000004
-1.452 2.7160001 0.162 0.090000004
-1.475 2.7379999 0.162 0.14
-1.484 2.733 0.162 0.12
-1.489 2.723 0.162 0.15000001
-1.512 2.743 0.162 0.090000004
-1.507 2.7160001 0.162 0
-1.525 2.727 0.162 0.13
-1.531 2.7279999 0.162 0.090000004
-1.545 2.7309999 0.162 0
-1.558 2.7349999 0.161 0.13
-1.562 2.7219999 0.162 0.12
-1.576 2.727 0.161 0.090000004
-1.596 2.7409999 0.161 0.19
-1.603 2.733 0.161 0
-1.604 2.7249999 0.161 0
-1.632 2.7520001 0.161 0
-1.63 2.73 0.161 0
-1.641 2.7279999 0.161 0.079999998
-1.665 2.7490001 0.161 0.14
-1.675 2.7449999 0.161 0.23
-1.687 2.7449999 0.16 0.19
-1.688 2.737 0.161 0.22
-1.696 2.73 0.161 0.18000001
