# .PCD v0.7 - Point Cloud Data file format
VERSION 0.7
FIELDS x y z intensity
SIZE 4 4 4 4
TYPE F F F F
COUNT 1 1 1 1
WIDTH 1428
HEIGHT 1
VIEWPOINT 0 0 0 1 0 0 0
POINTS 1428
DATA ascii
0.333 -5.8080001 -1.393 0.41
0.35100001 -5.8109999 -1.3940001 0.31
0.368 -5.7969999 -1.391 0.41
0.38999999 -5.8460002 -1.404 0.31
0.405 -5.79 -1.39 0.43000001
0.41299999 -5.7800002 -1.387 0.31
0.43000001 -5.757 -1.382 0.47999999
0.46700001 -6.013 -1.449 0.23
0.47799999 -5.9169998 -1.424 0.28999999
0.495 -5.8860002 -1.4170001 0.44999999
0.523 -5.9980001 -1.446 0.22
0.58399999 -6.4920001 -1.576 0.28
0.59600002 -6.5110002 -1.581 0.30000001
0.61799997 -6.526 -1.585 0.62
0.62900001 -6.4219999 -1.559 0.23999999
0.63 -6.2290001 -1.5089999 0.19
0.671 -6.4330001 -1.563 0.52999997
0.68400002 -6.3699999 -1.5470001 0.2
0.71899998 -6.5040002 -1.582 0.30000001
0.72299999 -6.447 -1.568 0.63
0.73299998 -6.3470001 -1.5420001 0.20999999
0.77100003 -6.5079999 -1.585 0.28
0.78600001 -6.4569998 -1.572 0.51999998
0.796 -6.368 -1.55 0.25999999
0.83099997 -6.4910002 -1.582 0.38999999
0.83700001 -6.4569998 -1.574 0.41999999
0.85000002 -6.3909998 -1.557 0.25
0.88099998 -6.4759998 -1.58 0.31
0.89700001 -6.441 -1.572 0.56999999
0.91500002 -6.4229999 -1.568 0.34999999
0.94199997 -6.4660001 -1.58 0.28999999
0.958 -6.4320002 -1.572 0.56999999
0.96100003 -6.3829999 -1.559 0.27000001
0.99299997 -6.46 -1.58 0.47999999
0.95300001 -6.0630002 -1.477 0
0.55299997 -3.3770001 -0.76899999 0
0.57700002 -3.3199999 -0.75599998 0
0.57800001 -3.296 -0.75 0
0.58499998 -3.273 -0.74400002 0
0.59500003 -3.2119999 -0.72899997 0
0.60600001 -3.214 -0.73000002 0
0.60699999 -3.1630001 -0.71700001 0
0.61699998 -3.161 -0.71700001 0
0.61500001 -3.122 -0.70700002 0
1.028 -2.9579999 -0.69400001 0
1.0319999 -2.9400001 -0.69 0
1.038 -2.928 -0.68699998 0
1.038 -2.8970001 -0.68000001 0
0.97100002 -2.3529999 -0.54100001 0
0.95999998 -2.3050001 -0.528 0
0.96799999 -2.3039999 -0.52899998 0
0.98100001 -2.3150001 -0.53299999 0
0.995 -2.3280001 -0.537 0
1.225 -2.227 -0.54000002 0
1.238 -2.2349999 -0.54299998 0
1.808 -2.937 -0.77600002 0
1.813 -2.9230001 -0.77399999 0
1.8150001 -2.9059999 -0.76999998 0
1.825 -2.902 -0.77100003 0
1.859 -2.937 -0.78299999 0
1.851 -2.892 -0.77200001 0
2.3329999 -3.497 -0.97299999 0
2.3380001 -3.4820001 -0.97000003 0
2.355 -3.4820001 -0.97299999 0
2.648 -3.3870001 -0.99800003 0
2.674 -3.398 -1.0039999 0
2.688 -3.3940001 -1.006 0
2.7060001 -3.395 -1.0089999 0
2.7219999 -3.3940001 -1.011 0
2.727 -3.378 -1.0089999 0
2.7249999 -3.3540001 -1.0039999 0
1.8279999 -2.158 -0.61500001 0
1.837 -2.155 -0.616 0
1.839 -2.1500001 -0.61500001 0
1.865 -2.154 -0.62 0
1.885 -2.1359999 -0.62 0
1.896 -2.1340001 -0.62199998 0
2.8369999 -2.4389999 -0.852 0
2.822 -2.418 -0.84600002 0
2.8139999 -2.1389999 -0.79900002 0
2.8169999 -2.1270001 -0.79799998 0
2.8299999 -2.1229999 -0.80000001 0
2.8399999 -2.1170001 -0.801 0
2.829 -2.095 -0.79500002 0
2.8010001 -1.972 -0.76999998 0
2.7909999 -1.952 -0.76499999 0
5.7220001 -3.098 -1.573 0.11
5.7270002 -3.0769999 -1.571 0.27000001
5.7350001 -3.0580001 -1.571 0.25
5.7680001 -3.053 -1.5779999 0.25999999
5.7670002 -3.029 -1.575 0.30000001
5.7740002 -3.0090001 -1.574 0.27000001
5.7969999 -2.9979999 -1.5779999 0.25999999
5.7930002 -2.9849999 -1.575 0.25999999
5.809 -2.97 -1.577 0.25999999
5.8340001 -2.96 -1.582 0.27000001
5.8379998 -2.9389999 -1.58 0.27000001
5.8579998 -2.9260001 -1.5829999 0.27000001
5.8629999 -2.9059999 -1.582 0.28999999
5.881 -2.891 -1.585 0.25999999
5.8920002 -2.8859999 -1.587 0.20999999
5.9190001 -2.8759999 -1.592 0.16
5.9099998 -2.849 -1.587 0.51999998
5.9419999 -2.8410001 -1.5930001 0.30000001
5.9790001 -2.836 -1.602 0.31
5.9860001 -2.816 -1.601 0.25999999
6.0019999 -2.8010001 -1.603 0.31999999
6.0149999 -2.7950001 -1.6059999 0.38
6.013 -2.7709999 -1.603 0.31999999
6.0219998 -2.7520001 -1.603 0.27000001
6.0430002 -2.7390001 -1.6059999 0.27000001
6.0570002 -2.723 -1.608 0.25999999
6.0760002 -2.7079999 -1.6109999 0.27000001
6.0879998 -2.691 -1.612 0.2
6.0970001 -2.684 -1.613 0.23
6.131 -2.675 -1.62 0.23999999
6.1370001 -2.655 -1.62 0.57999998
6.1859999 -2.654 -1.631 0.36000001
6.2090001 -2.6400001 -1.635 0.44
6.2150002 -2.6199999 -1.635 0.34999999
6.2350001 -2.6170001 -1.6390001 0.41
6.256 -2.6029999 -1.643 0.38
6.257 -2.5799999 -1.641 0.36000001
6.2709999 -2.563 -1.642 0.40000001
6.2800002 -2.5439999 -1.643 0.30000001
6.2950001 -2.527 -1.645 0.51999998
6.316 -2.5120001 -1.648 0.38
6.2909999 -2.4909999 -1.64 0.19
6.2940001 -2.4690001 -1.6390001 0.28
6.3010001 -2.4489999 -1.6390001 0.23999999
6.3130002 -2.431 -1.64 0.2
6.3169999 -2.4089999 -1.6390001 0.28
6.3299999 -2.392 -1.64 0.23
6.3319998 -2.3699999 -1.6390001 0.18000001
6.3390002 -2.3610001 -1.64 0.25999999
6.348 -2.342 -1.64 0.23
6.3569999 -2.323 -1.641 0.18000001
6.3590002 -2.3010001 -1.6390001 0.27000001
6.3590002 -2.2780001 -1.637 0.23
6.3699999 -2.2590001 -1.638 0.19
6.375 -2.2390001 -1.638 0.25999999
6.3769999 -2.2279999 -1.637 0.23
6.3930001 -2.211 -1.64 0.18000001
6.3909998 -2.188 -1.637 0.27000001
6.3990002 -2.168 -1.638 0.23
6.4099998 -2.1489999 -1.6390001 0.2
6.415 -2.1289999 -1.638 0.25
6.4229999 -2.1199999 -1.64 0.18000001
6.434 -2.1010001 -1.641 0.25
6.4289999 -2.0780001 -1.638 0.20999999
6.4380002 -2.0580001 -1.638 0.18000001
6.4419999 -2.0369999 -1.638 0.25999999
6.4489999 -2.017 -1.638 0.22
6.4590001 -1.998 -1.6390001 0.2
6.4580002 -1.987 -1.638 0.25
6.4660001 -1.967 -1.638 0.23
6.467 -1.9450001 -1.637 0.2
6.4879999 -1.929 -1.641 0.25
6.4899998 -1.9069999 -1.64 0.19
6.4899998 -1.885 -1.638 0.25
6.4959998 -1.865 -1.638 0.2
6.506 -1.857 -1.64 0.25
6.4990001 -1.8329999 -1.637 0.2
6.5029998 -1.812 -1.636 0.23999999
6.5159998 -1.793 -1.638 0.20999999
6.52 -1.772 -1.638 0.2
6.5240002 -1.751 -1.637 0.23999999
6.5430002 -1.7460001 -1.642 0.18000001
6.5370002 -1.722 -1.6390001 0.25
6.5469999 -1.7029999 -1.64 0.19
6.5479999 -1.681 -1.6390001 0.23999999
6.5510001 -1.66 -1.638 0.19
6.5570002 -1.6390001 -1.638 0.23999999
6.579 -1.623 -1.643 0.2
6.559 -1.607 -1.637 0.23999999
6.5599999 -1.586 -1.636 0.18000001
6.5780001 -1.568 -1.6390001 0.23999999
6.5809999 -1.5470001 -1.6390001 0.19
6.5840001 -1.526 -1.638 0.12
6.5890002 -1.505 -1.638 0.20999999
6.586 -1.483 -1.636 0.11
6.586 -1.472 -1.636 0.2
6.598 -1.4529999 -1.638 0.11
6.605 -1.433 -1.638 0.18000001
6.5960002 -1.409 -1.635 0.12
6.6100001 -1.39 -1.637 0.20999999
6.599 -1.3660001 -1.633 0.11
6.6090002 -1.347 -1.635 0.19
6.6129999 -1.337 -1.635 0.11
6.6040001 -1.313 -1.632 0.19
6.6209998 -1.295 -1.635 0.11
6.631 -1.276 -1.637 0.19
6.6290002 -1.2539999 -1.635 0.1
6.6350002 -1.233 -1.636 0.18000001
6.6500001 -1.214 -1.6390001 0.11
6.6430001 -1.202 -1.636 0.17
6.6389999 -1.1799999 -1.6339999 0.050000001
6.652 -1.161 -1.637 0.18000001
6.6459999 -1.138 -1.6339999 0.2
6.6560001 -1.118 -1.636 0.090000004
6.6799998 -1.101 -1.641 0.17
6.6469998 -1.074 -1.632 0.050000001
6.664 -1.066 -1.636 0.18000001
6.664 -1.044 -1.635 0.050000001
6.6570001 -1.022 -1.632 0.16
6.6700001 -1.003 -1.635 0.19
6.6659999 -0.98000002 -1.633 0.039999999
6.6700001 -0.95999998 -1.633 0.15000001
6.6739998 -0.94999999 -1.6339999 0.19
6.6810002 -0.92900002 -1.635 0.18000001
6.678 -0.90700001 -1.633 0.090000004
6.7020001 -0.889 -1.6390001 0.15000001
6.6929998 -0.86699998 -1.636 0.050000001
6.6859999 -0.84399998 -1.633 0.17
6.6939998 -0.824 -1.635 0.2
6.698 -0.81400001 -1.635 0.18000001
6.691 -0.792 -1.633 0.039999999
6.7010002 -0.77200001 -1.635 0.16
6.6900001 -0.74900001 -1.631 0.039999999
6.6999998 -0.72899997 -1.633 0.17
6.6939998 -0.70700002 -1.631 0.050000001
6.7080002 -0.68699998 -1.6339999 0.15000001
6.7030001 -0.676 -1.633 0.050000001
6.7049999 -0.65499997 -1.633 0.17
6.7069998 -0.634 -1.633 0.050000001
6.7049999 -0.61199999 -1.632 0.17
6.7129998 -0.59200001 -1.633 0.2
6.723 -0.57099998 -1.635 0.1
6.7319999 -0.551 -1.637 0.18000001
6.7160001 -0.53899997 -1.633 0.050000001
6.7290001 -0.51899999 -1.636 0.17
6.7069998 -0.49599999 -1.63 0.19
6.7280002 -0.47600001 -1.635 0.1
6.7280002 -0.45500001 -1.6339999 0.18000001
6.7290001 -0.43399999 -1.6339999 0.1
6.7270002 -0.412 -1.633 0.16
6.723 -0.40200001 -1.632 0.050000001
6.7249999 -0.38 -1.632 0.17
6.7319999 -0.36000001 -1.6339999 0.2
6.7399998 -0.33899999 -1.636 0.090000004
6.7319999 -0.317 -1.633 0.16
6.723 -0.296 -1.631 0.050000001
6.7249999 -0.285 -1.631 0.17
6.73 -0.264 -1.632 0.11
6.7389998 -0.243 -1.6339999 0.17
6.7389998 -0.222 -1.6339999 0.20999999
6.7319999 -0.20100001 -1.632 0.1
6.7329998 -0.18000001 -1.632 0.18000001
6.7389998 -0.15899999 -1.6339999 0.1
6.73 -0.148 -1.631 0.17
6.7220001 -0.126 -1.6289999 0.050000001
6.7249999 -0.105 -1.63 0.17
6.7309999 -0.083999999 -1.631 0.2
6.7470002 -0.063000001 -1.635 0.090000004
6.7329998 -0.041999999 -1.632 0.18000001
6.7309999 -0.021 -1.631 0.2
6.7220001 -0.0099999998 -1.6289999 0.090000004
6.526 0.0070000002 -1.65 0.19
6.5240002 0.027000001 -1.65 0.11
6.5310001 0.048 -1.652 0.2
6.5250001 0.068000004 -1.65 0.2
6.533 0.079000004 -1.652 0.090000004
6.5250001 0.098999999 -1.65 0.18000001
6.5250001 0.12 -1.65 0.11
6.5489998 0.141 -1.6569999 0.18000001
6.5310001 0.161 -1.652 0.20999999
6.533 0.18099999 -1.653 0.1
6.527 0.20200001 -1.651 0.19
6.5219998 0.212 -1.65 0.2
6.5310001 0.233 -1.653 0.1
6.552 0.25400001 -1.658 0.17
6.5370002 0.27399999 -1.655 0.20999999
6.533 0.294 -1.654 0.1
6.5430002 0.31600001 -1.6569999 0.17
6.5250001 0.33500001 -1.652 0.050000001
6.5419998 0.34599999 -1.6569999 0.17
6.527 0.366 -1.653 0.050000001
6.5359998 0.38699999 -1.656 0.17
6.5300002 0.40700001 -1.655 0.2
6.527 0.428 -1.654 0.1
6.5219998 0.44800001 -1.653 0.18000001
6.526 0.46900001 -1.655 0.050000001
6.527 0.479 -1.655 0.17
6.5159998 0.49900001 -1.653 0.050000001
6.5339999 0.52100003 -1.658 0.16
6.5279999 0.54100001 -1.6569999 0.2
6.546 0.56400001 -1.6619999 0.16
6.5170002 0.58200002 -1.655 0.050000001
6.5180001 0.59200001 -1.655 0.15000001
6.5180001 0.61299998 -1.656 0.050000001
6.5300002 0.63499999 -1.66 0.16
6.5279999 0.65499997 -1.66 0.19
6.5289998 0.676 -1.661 0.090000004
6.5409999 0.69800001 -1.664 0.16
6.5310001 0.71799999 -1.6619999 0.20999999
6.5349998 0.72899997 -1.664 0.18000001
6.5310001 0.74900001 -1.663 0.23
6.546 0.77200001 -1.668 0.19
6.5300002 0.79000002 -1.664 0.20999999
6.5219998 0.81 -1.663 0.1
6.5419998 0.83399999 -1.669 0.17
6.5320001 0.85299999 -1.6670001 0.20999999
6.527 0.86299998 -1.666 0.1
6.539 0.88599998 -1.67 0.15000001
6.5139999 0.903 -1.664 0.050000001
6.526 0.926 -1.668 0.17
6.5120001 0.94400001 -1.665 0.050000001
6.52 0.96700001 -1.668 0.17
6.5170002 0.98699999 -1.668 0.19
6.5100002 0.99599999 -1.666 0.039999999
6.526 1.02 -1.6720001 0.17
6.5110002 1.038 -1.668 0.050000001
6.5190001 1.061 -1.6720001 0.17
6.506 1.08 -1.669 0.050000001
6.5219998 1.103 -1.674 0.17
6.513 1.123 -1.673 0.18000001
6.5050001 1.132 -1.671 0.039999999
6.5149999 1.155 -1.675 0.15000001
6.513 1.176 -1.675 0.18000001
6.5089998 1.196 -1.675 0.090000004
6.5320001 1.222 -1.683 0.17
6.5089998 1.239 -1.677 0.22
6.5110002 1.25 -1.678 0.16
6.5190001 1.272 -1.682 0.14
6.494 1.288 -1.676 0.38
6.5009999 1.311 -1.679 0.36000001
6.493 1.331 -1.678 0.36000001
6.493 1.352 -1.679 0.41
6.4860001 1.372 -1.678 0.34
6.4879999 1.383 -1.679 0.38999999
6.487 1.404 -1.6799999 0.38
6.487 1.425 -1.682 0.37
6.4770002 1.4450001 -1.6799999 0.33000001
6.4759998 1.466 -1.681 0.41
6.4790001 1.488 -1.683 0.38
6.4699998 1.507 -1.682 0.37
6.4770002 1.52 -1.6849999 0.38
6.467 1.539 -1.683 0.38
6.4689999 1.561 -1.6849999 0.33000001
6.461 1.58 -1.684 0.38999999
6.467 1.603 -1.687 0.34
6.4689999 1.626 -1.689 0.36000001
6.4619999 1.645 -1.689 0.38999999
6.454 1.654 -1.687 0.34
6.4559999 1.676 -1.689 0.38999999
6.447 1.696 -1.688 0.38
6.4460001 1.717 -1.689 0.38
6.4439998 1.738 -1.6900001 0.34
6.4460001 1.76 -1.693 0.33000001
6.3639998 1.7589999 -1.671 0.37
6.4510002 1.794 -1.696 0.25
6.4520001 1.817 -1.698 0.28999999
6.4499998 1.8380001 -1.699 0.11
6.448 1.859 -1.7 0.18000001
6.4419999 1.88 -1.7 0.2
6.4380002 1.901 -1.701 0.1
6.4400001 1.923 -1.7029999 0.18000001
6.4289999 1.931 -1.701 0.050000001
6.4310002 1.9529999 -1.7029999 0.17
6.4299998 1.975 -1.705 0.20999999
6.4219999 1.995 -1.704 0.16
6.4299998 2.02 -1.7079999 0.23999999
6.4169998 2.0380001 -1.706 0.1
6.402 2.0439999 -1.7029999 0.18000001
6.4180002 2.0710001 -1.709 0.19
6.4039998 2.089 -1.707 0.1
6.4029999 2.1110001 -1.709 0.18000001
6.4039998 2.1340001 -1.711 0.20999999
6.4000001 2.155 -1.712 0.1
6.3940001 2.175 -1.712 0.18000001
6.3990002 2.188 -1.715 0.17
6.3850002 2.2060001 -1.712 0.27000001
6.3779998 2.2260001 -1.712 0.34999999
6.3769999 2.2479999 -1.714 0.37
6.355 2.263 -1.71 0.36000001
6.3520002 2.2839999 -1.711 0.38
6.348 2.3050001 -1.712 0.38999999
6.3499999 2.3169999 -1.714 0.31999999
6.3460002 2.3380001 -1.715 0.41999999
6.3400002 2.359 -1.715 0.33000001
6.3309999 2.378 -1.715 0.33000001
6.336 2.4030001 -1.7180001 0.36000001
6.3309999 2.424 -1.719 0.36000001
6.3249998 2.444 -1.719 0.41999999
6.3150001 2.4519999 -1.7180001 0.33000001
6.3169999 2.4749999 -1.72 0.41
6.3210001 2.5 -1.724 0.36000001
6.303 2.516 -1.721 0.34999999
6.3130002 2.543 -1.726 0.37
6.2919998 2.5569999 -1.722 0.38
6.2909999 2.5799999 -1.725 0.38
6.2909999 2.5910001 -1.726 0.37
6.2880001 2.6129999 -1.727 0.38
6.2709999 2.6289999 -1.725 0.34
6.2129998 2.628 -1.71 0.18000001
6.2750001 2.678 -1.7309999 0.18000001
6.2740002 2.701 -1.733 0.22
6.2719998 2.711 -1.733 0.18000001
6.2579999 2.7290001 -1.732 0.050000001
6.2459998 2.747 -1.7309999 0.17
6.2529998 2.7739999 -1.7359999 0.2
6.2459998 2.7939999 -1.7359999 0.1
6.2270002 2.809 -1.733 0.18000001
6.23 2.8340001 -1.737 0.050000001
6.2220001 2.842 -1.7359999 0.17
6.2249999 2.8670001 -1.739 0.19
6.2199998 2.8889999 -1.74 0.18000001
6.2049999 2.9059999 -1.739 0.090000004
6.2049999 2.9289999 -1.7410001 0.090000004
6.1900001 2.9460001 -1.74 0.18000001
6.1950002 2.9719999 -1.744 0.2
6.1849999 2.98 -1.742 0.1
6.1859999 3.0039999 -1.745 0.16
6.1680002 3.0190001 -1.743 0.050000001
6.1599998 3.039 -1.743 0.17
6.1609998 3.0639999 -1.747 0.2
6.1570001 3.086 -1.748 0.1
6.138 3.1010001 -1.745 0.16
6.1440001 3.1159999 -1.749 0.22
6.125 3.131 -1.7460001 0.1
6.1240001 3.154 -1.749 0.17
6.1279998 3.181 -1.753 0.20999999
6.1020002 3.1919999 -1.748 0.1
6.092 3.211 -1.748 0.18000001
6.1009998 3.24 -1.7539999 0.1
6.0869999 3.2449999 -1.751 0.17
6.0970001 3.2750001 -1.758 0.20999999
6.0819998 3.2920001 -1.756 0.1
6.0510001 3.3 -1.75 0.19
6.0630002 3.3310001 -1.756 0.1
6.0440001 3.345 -1.7539999 0.18000001
6.052 3.362 -1.758 0.11
6.04 3.3800001 -1.758 0.2
6.0430002 3.4070001 -1.762 0.11
6.0240002 3.421 -1.7589999 0.19
6.0250001 3.447 -1.763 0.11
6.0149999 3.4660001 -1.763 0.18000001
6.0089998 3.4879999 -1.765 0.22
5.9959998 3.493 -1.762 0.17
5.993 3.517 -1.765 0.23
5.98 3.5339999 -1.7640001 0.18000001
5.974 3.556 -1.766 0.23999999
5.9679999 3.5780001 -1.767 0.20999999
5.9679999 3.6040001 -1.771 0.12
5.9559999 3.609 -1.7690001 0.20999999
5.9390001 3.625 -1.767 0.17
5.941 3.651 -1.772 0.25999999
5.9260001 3.668 -1.771 0.23
5.9000001 3.677 -1.766 0.18000001
5.9200001 3.7149999 -1.776 0.28
5.901 3.73 -1.774 0.23
5.8759999 3.727 -1.767 0.16
5.895 3.7650001 -1.777 0.28
5.8769999 3.779 -1.775 0.23999999
5.8520002 3.789 -1.771 0.16
5.8709998 3.8280001 -1.781 0.28999999
5.862 3.848 -1.7819999 0.22
5.835 3.8570001 -1.777 0.17
5.8559999 3.885 -1.786 0.28999999
5.8330002 3.895 -1.783 0.25
5.8140001 3.9089999 -1.781 0.27000001
5.8119998 3.934 -1.784 0.28
5.8119998 3.961 -1.788 0.28999999
5.7880001 3.9719999 -1.784 0.28
5.7930002 4.0019999 -1.79 0.28999999
5.7820001 4.0079999 -1.788 0.27000001
5.777 4.0310001 -1.791 0.27000001
5.7579999 4.0450001 -1.789 0.23
5.757 4.0710001 -1.793 0.27000001
5.7519999 4.0949998 -1.795 0.36000001
5.7509999 4.1220002 -1.799 0.36000001
5.7309999 4.1339998 -1.7970001 0.25999999
5.723 4.1420002 -1.796 0.20999999
5.7189999 4.1669998 -1.799 0.38
5.7059999 4.1849999 -1.799 0.43000001
5.6880002 4.1989999 -1.798 0.28999999
5.665 4.21 -1.795 0.47999999
5.6209998 4.2049999 -1.784 0.31
5.5970001 4.2140002 -1.781 0.54000002
5.618 4.244 -1.79 0.38999999
5.5819998 4.244 -1.7819999 0.28999999
5.546 4.244 -1.774 0.33000001
5.52 4.2519999 -1.77 0.31999999
5.4889998 4.2550001 -1.7640001 0.34
5.4429998 4.2470002 -1.753 0.31
5.4320002 4.2519999 -1.751 0.27000001
5.4109998 4.263 -1.749 0.27000001
5.3990002 4.2810001 -1.749 0.23
5.401 4.3099999 -1.7539999 0.25999999
5.3990002 4.3369999 -1.7589999 0.34
5.4050002 4.3699999 -1.765 0.38
5.4000001 4.3940001 -1.7690001 0.38
5.3920002 4.401 -1.768 0.36000001
5.3899999 4.428 -1.772 0.23999999
5.3610001 4.4330001 -1.767 0.46000001
5.3569999 4.4580002 -1.771 0.30000001
5.3460002 4.4770002 -1.772 0.46000001
5.3499999 4.5089998 -1.778 0.28999999
5.3309999 4.5219998 -1.776 0.44999999
5.3330002 4.5380001 -1.78 0.40000001
5.3189998 4.5549998 -1.78 0.37
5.316 4.5819998 -1.784 0.40000001
5.3060002 4.6020002 -1.785 0.38
5.289 4.6160002 -1.784 0.41
5.29 4.6469998 -1.79 0.37
5.2709999 4.6599998 -1.788 0.44
5.27 4.6729999 -1.791 0.38999999
5.2389998 4.6750002 -1.785 0.34
5.224 4.6919999 -1.785 0.44999999
5.1919999 4.6929998 -1.778 0.36000001
5.178 4.7090001 -1.778 0.49000001
5.1729999 4.7340002 -1.7819999 0.30000001
5.1539998 4.7470002 -1.781 0.46000001
5.138 4.7470002 -1.777 0.34
5.1370001 4.776 -1.783 0.40000001
5.132 4.8010001 -1.786 0.23
5.1170001 4.8179998 -1.786 0.58999997
5.086 4.8189998 -1.781 0.36000001
5.0819998 4.8460002 -1.785 0.34
5.0650001 4.8600001 -1.784 0.47999999
5.073 4.8829999 -1.79 0.28
5.0619998 4.9029999 -1.7920001 0.55000001
5.0450001 4.9169998 -1.791 0.34
5.0819998 4.9850001 -1.811 0.07
4.4549999 4.3940001 -1.577 0.18000001
4.3860002 4.3520002 -1.556 0.20999999
4.868 4.8649998 -1.747 0.16
5.1339998 5.1490002 -1.852 0.07
4.369 4.4039998 -1.563 0.14
4.2709999 4.3319998 -1.53 0.039999999
4.2610002 4.348 -1.531 0.029999999
4.2350001 4.349 -1.526 0.029999999
4.2399998 4.382 -1.534 0.12
4.8649998 5.0500002 -1.7819999 0.18000001
4.7820001 4.994 -1.755 0.16
4.1020002 4.3060002 -1.493 0.039999999
4.0489998 4.276 -1.477 0
4.027 4.2800002 -1.474 0.059999999
4.0019999 4.2800002 -1.469 0.14
3.9660001 4.2690001 -1.46 0.039999999
3.961 4.276 -1.461 0.07
3.9319999 4.2719998 -1.455 0.039999999
3.9219999 4.2880001 -1.456 0.07
3.8929999 4.283 -1.45 0.079999998
3.8759999 4.2909999 -1.448 0.090000004
3.859 4.2989998 -1.447 0.090000004
3.8410001 4.3070002 -1.4450001 0.16
3.819 4.296 -1.439 0.22
3.8169999 4.3210001 -1.444 0.16
3.78 4.3049998 -1.434 0.25999999
3.7650001 4.3150001 -1.433 0.23
3.7490001 4.3239999 -1.432 0.23
3.7290001 4.329 -1.4299999 0.25999999
3.7130001 4.3369999 -1.428 0.25
3.71 4.348 -1.4299999 0.30000001
3.6900001 4.3520002 -1.427 0.31
3.6700001 4.3559999 -1.425 0.37
3.655 4.3660002 -1.424 0.44999999
3.6470001 4.3850002 -1.427 0.41999999
3.6400001 4.4039998 -1.4299999 0.23
3.628 4.4180002 -1.431 0.28999999
3.631 4.4359999 -1.4349999 0.22
3.619 4.4499998 -1.436 0.11
3.6140001 4.4720001 -1.439 0.19
3.609 4.4959998 -1.444 0.11
3.6170001 4.5339999 -1.4529999 0.18000001
3.5910001 4.5300002 -1.448 0.20999999
3.589 4.5580001 -1.454 0.1
3.6010001 4.5879998 -1.462 0.18000001
3.5899999 4.6040001 -1.464 0.11
3.585 4.6279998 -1.4680001 0.18000001
3.579 4.6500001 -1.471 0.11
3.576 4.6760001 -1.477 0.2
3.576 4.7080002 -1.483 0.11
3.562 4.7189999 -1.483 0.18000001
3.5680001 4.743 -1.49 0.11
3.563 4.7680001 -1.494 0.2
3.563 4.7989998 -1.501 0.2
3.5580001 4.8249998 -1.506 0.23
3.5999999 4.914 -1.5319999 0.039999999
3.5840001 4.9250002 -1.5319999 0.07
3.559 4.9390001 -1.531 0.28
3.5450001 4.9520001 -1.5319999 0.18000001
3.539 4.9770002 -1.536 0.039999999
3.553 5.0310001 -1.551 0
3.572 5.0910001 -1.567 0
3.5650001 5.1160002 -1.572 0
3.5639999 5.132 -1.575 0
3.5480001 5.1430001 -1.575 0
3.5580001 5.1919999 -1.587 0
3.5650001 5.2389998 -1.599 0
3.563 5.2709999 -1.6059999 0
3.5699999 5.3169999 -1.617 0.1
3.5869999 5.3800001 -1.6339999 0.19
3.5680001 5.369 -1.6289999 0.039999999
3.556 5.3889999 -1.631 0.07
3.562 5.4349999 -1.643 0.18000001
3.5380001 5.4349999 -1.6390001 0.20999999
3.7509999 5.8460002 -1.7640001 0.18000001
3.743 5.875 -1.77 0.63
3.7490001 5.9029999 -1.777 0.25
3.721 5.9000001 -1.772 0.51999998
3.7219999 5.9429998 -1.7819999 0.28999999
3.711 5.9679999 -1.786 0.49000001
3.6960001 5.9860001 -1.788 0.31999999
3.665 5.9780002 -1.7819999 0.25
3.652 5.9980001 -1.785 0.31999999
3.6289999 5.9819999 -1.778 0.18000001
3.6140001 6 -1.78 0.44999999
3.595 6.0110002 -1.78 0.27000001
3.5769999 6.0219998 -1.78 0.33000001
3.5550001 6.0289998 -1.778 0.44999999
3.5339999 6.0359998 -1.777 0.37
3.5050001 6.0310001 -1.772 0.5
3.5120001 6.0650001 -1.781 0.31999999
3.4820001 6.0570002 -1.775 0.55000001
3.4690001 6.0780001 -1.778 0.28999999
3.454 6.0960002 -1.781 0.46000001
3.4389999 6.1149998 -1.783 0.28999999
3.418 6.1230001 -1.7819999 0.37
3.4089999 6.152 -1.788 0.17
3.3469999 6.0609999 -1.758 0.44999999
3.3329999 6.0809999 -1.761 0.34
3.316 6.0949998 -1.762 0.60000002
3.3280001 6.1630001 -1.78 0.27000001
3.312 6.1810002 -1.7819999 0.2
3.2750001 6.1589999 -1.772 0.56999999
3.27 6.1960001 -1.781 0.28999999
3.256 6.1929998 -1.778 0.54000002
3.2539999 6.2360001 -1.788 0.33000001
3.2320001 6.2420001 -1.7869999 0.34
3.214 6.256 -1.788 0.41
3.1819999 6.2420001 -1.781 0.44999999
3.164 6.2540002 -1.781 0.33000001
3.148 6.2719998 -1.784 0.44999999
3.138 6.2750001 -1.783 0.31
3.109 6.2680001 -1.778 0.43000001
3.1099999 6.3189998 -1.791 0.41
3.092 6.3319998 -1.7920001 0.31999999
3.072 6.342 -1.7920001 0.41999999
3.0480001 6.3429999 -1.789 0.5
3.0339999 6.3649998 -1.793 0.31999999
3.017 6.3559999 -1.788 0.23999999
3.0039999 6.381 -1.793 0.34
2.9809999 6.3829999 -1.791 0.31
2.9590001 6.3889999 -1.79 0.28999999
2.9430001 6.4070001 -1.793 0.34
2.918 6.4060001 -1.789 0.56999999
2.849 6.3039999 -1.756 0
2.082 4.6490002 -1.261 0
2.063 4.6459999 -1.2589999 0
2.046 4.6479998 -1.257 0
2.0179999 4.6220002 -1.248 0
2.0009999 4.6230001 -1.2460001 0
1.9859999 4.6079998 -1.2410001 0
1.9680001 4.6040001 -1.238 0
1.947 4.5960002 -1.234 0
1.932 4.5999999 -1.233 0
1.9119999 4.5939999 -1.229 0
1.898 4.5999999 -1.229 0
1.875 4.586 -1.224 0
1.867 4.585 -1.223 0
1.854 4.5949998 -1.224 0
1.836 4.592 -1.221 0
1.821 4.5949998 -1.22 0
1.801 4.5890002 -1.217 0
1.788 4.5960002 -1.217 0
1.773 4.5999999 -1.217 0
1.7589999 4.586 -1.212 0
1.744 4.5900002 -1.212 0
1.735 4.6100001 -1.216 0
1.7180001 4.6079998 -1.214 0
1.697 4.5949998 -1.2079999 0
1.686 4.6100001 -1.211 0
1.665 4.599 -1.206 0
1.6950001 4.7519999 -1.248 0
1.633 4.6230001 -1.209 0.050000001
1.633 4.6700001 -1.221 0.039999999
1.607 4.6420002 -1.212 0
1.6 4.6690001 -1.2180001 0
1.564 4.612 -1.201 0.02
1.55 4.5939999 -1.1950001 0.039999999
1.5369999 4.6020002 -1.196 0
1.525 4.6149998 -1.198 0
1.5369999 4.6999998 -1.221 0.050000001
1.489 4.6020002 -1.192 0
1.483 4.6339998 -1.199 0
1.45 4.5799999 -1.183 0.059999999
1.441 4.5749998 -1.181 0.079999998
1.424 4.572 -1.179 0.090000004
1.408 4.5710001 -1.177 0.16
1.391 4.566 -1.174 0.1
1.376 4.5669999 -1.173 0.2
1.362 4.573 -1.174 0.20999999
1.342 4.5570002 -1.168 0.13
1.3329999 4.553 -1.166 0.54000002
1.326 4.5830002 -1.174 0.2
1.321 4.6230001 -1.184 0.16
1.314 4.6529999 -1.191 0
1.285 4.605 -1.176 0
1.271 4.6110001 -1.177 0.059999999
1.263 4.6389999 -1.184 0
1.2539999 4.6339998 -1.182 0
1.2410001 4.645 -1.184 0
1.221 4.6259999 -1.177 0.059999999
1.202 4.6129999 -1.173 0.039999999
1.197 4.6529999 -1.183 0.029999999
1.181 4.6550002 -1.182 0.13
1.156 4.6149998 -1.17 0
1.153 4.6339998 -1.175 0.059999999
1.146 4.6690001 -1.184 0
1.12 4.6220002 -1.17 0
1.1059999 4.631 -1.171 0
1.094 4.6459999 -1.174 0
1.076 4.6339998 -1.17 0.050000001
1.063 4.6430001 -1.1720001 0
1.054 4.6360002 -1.169 0
1.045 4.6669998 -1.177 0.090000004
1.024 4.638 -1.168 0.039999999
1.008 4.6339998 -1.166 0
0.99599999 4.652 -1.17 0.1
0.98000002 4.6479998 -1.168 0
0.96700001 4.6599998 -1.171 0.07
0.99800003 4.8509998 -1.223 0.16
0.99199998 4.9000001 -1.2359999 0
0.96600002 4.8499999 -1.221 0
0.90899998 4.796 -1.204 0.36000001
0.89099997 4.7859998 -1.2 0.60000002
0.889 4.8150001 -1.2079999 0.050000001
0.87199998 4.8109999 -1.206 0.079999998
0.85900003 4.8249998 -1.209 0.11
0.84600002 4.8429999 -1.2130001 0.14
0.83600003 4.8759999 -1.221 0.38
0.81999999 4.8740001 -1.22 0.5
0.80400002 4.8709998 -1.219 0.44999999
0.79299998 4.8499999 -1.2130001 0.63999999
0.778 4.8540001 -1.2130001 0.44
0.76300001 4.8559999 -1.2130001 0.30000001
0.74699998 4.8530002 -1.212 0.34
0.73400003 4.8709998 -1.216 0.25
0.71799999 4.8730001 -1.216 0.50999999
0.70200002 4.868 -1.214 0.46000001
0.69199997 4.8509998 -1.209 0.61000001
0.66500002 4.881 -1.216 0.52999997
0.671 5.053 -1.262 0.07
0.63599998 4.9039998 -1.221 0
0.61299998 4.8390002 -1.2029999 0
0.60699999 4.8509998 -1.206 0
0.59399998 4.8800001 -1.2130001 0
0.58099997 4.9029999 -1.219 0
0.56999999 4.9390001 -1.228 0
0.55699998 4.9640002 -1.235 0
0.54500002 5.0019999 -1.245 0
0.54900002 5.198 -1.2970001 0
0.54699999 5.349 -1.3380001 0.050000001
0.55199999 5.4920001 -1.377 0.14
0.55900002 5.757 -1.449 0.11
0.667 7.1609998 -1.831 0.22
0.64399999 7.1570001 -1.829 0.38
0.61799997 7.1240001 -1.8200001 0.41
0.59600002 7.1259999 -1.8200001 0.40000001
0.57200003 7.1129999 -1.816 0.40000001
0.56 7.1020002 -1.813 0.28
0.53799999 7.1059999 -1.813 0.49000001
0.514 7.0780001 -1.8049999 0.28999999
0.49000001 7.0489998 -1.7970001 0.58999997
0.46399999 6.993 -1.781 0.31
0.43900001 6.9499998 -1.7690001 0.34
0.417 6.9439998 -1.767 0.28
0.40599999 6.9400001 -1.766 0.25999999
0.384 6.9460001 -1.767 0.34
0.36300001 6.9530001 -1.7690001 0.41
0.34099999 6.9569998 -1.77 0.34999999
0.31900001 6.9569998 -1.7690001 0.41
0.29699999 6.9419999 -1.765 0.28999999
0.285 6.9289999 -1.761 0.43000001
0.26199999 6.8969998 -1.752 0.30000001
0.241 6.8940001 -1.751 0.56999999
0.219 6.8990002 -1.752 0.31999999
0.19599999 6.8649998 -1.743 0.44999999
0.175 6.8629999 -1.742 0.37
0.154 6.8850002 -1.748 0.47
0.14300001 6.8889999 -1.749 0.28
0.122 6.915 -1.756 0.56
0.1 6.8860002 -1.748 0.27000001
0.078000002 6.9070001 -1.7539999 0.51999998
0.056000002 6.921 -1.758 0.28
0.035 6.9310002 -1.76 0.51999998
0.013 6.8889999 -1.749 0.28
0.0020000001 6.8769999 -1.745 0.44
-0.018999999 6.8730001 -1.744 0.36000001
-0.041000001 6.8579998 -1.74 0.44999999
-0.061999999 6.848 -1.738 0.34
-0.082999997 6.8340001 -1.734 0.5
-0.105 6.8200002 -1.73 0.28999999
-0.126 6.8239999 -1.7309999 0.49000001
-0.13699999 6.8449998 -1.737 0.34
-0.15800001 6.8210001 -1.7309999 0.40000001
-0.18000001 6.8150001 -1.729 0.43000001
-0.20100001 6.8260002 -1.732 0.41
-0.222 6.8099999 -1.728 0.34
-0.243 6.8049998 -1.727 0.47999999
-0.26499999 6.8039999 -1.727 0.38999999
-0.27599999 6.8119998 -1.729 0.38999999
-0.29300001 6.7119999 -1.7029999 0.30000001
-0.31799999 6.8000002 -1.727 0.34
-0.33899999 6.7909999 -1.725 0.37
-0.361 6.7940001 -1.726 0.46000001
-0.382 6.7909999 -1.725 0.34
-0.40200001 6.7690001 -1.719 0.46000001
-0.412 6.7659998 -1.719 0.27000001
-0.435 6.7820001 -1.723 0.51999998
-0.45500001 6.7649999 -1.719 0.27000001
-0.47499999 6.743 -1.714 0.49000001
-0.498 6.7659998 -1.72 0.41999999
-0.51999998 6.77 -1.722 0.38
-0.54000002 6.763 -1.72 0.46000001
-0.551 6.7600002 -1.72 0.34
-0.57200003 6.7529998 -1.7180001 0.34
-0.59200001 6.7470002 -1.717 0.34
-0.61400002 6.7470002 -1.7180001 0.46000001
-0.63800001 6.7719998 -1.725 0.25
-0.65600002 6.7410002 -1.717 0.61000001
-0.67699999 6.7329998 -1.716 0.22
-0.685 6.7129998 -1.71 0.51999998
-0.704 6.6929998 -1.706 0.28999999
-0.72600001 6.6929998 -1.706 0.5
-0.745 6.6789999 -1.7029999 0.36000001
-0.76700002 6.6849999 -1.705 0.47
-0.79000002 6.6939998 -1.7079999 0.44999999
-0.81 6.6869998 -1.707 0.30000001
-0.81800002 6.6669998 -1.702 0.41999999
-0.83899999 6.6659999 -1.7029999 0.28999999
-0.85799998 6.6479998 -1.698 0.44
-0.88099998 6.6589999 -1.702 0.46000001
-0.903 6.6659999 -1.705 0.33000001
-0.92299998 6.6550002 -1.7029999 0.41
-0.94400001 6.6560001 -1.704 0.34
-0.954 6.645 -1.701 0.38999999
-0.97399998 6.638 -1.7 0.38
-0.99400002 6.631 -1.699 0.34
-1.017 6.6430001 -1.7029999 0.36000001
-1.035 6.619 -1.697 0.38999999
-1.057 6.625 -1.7 0.23
-1.071 6.5799999 -1.688 0.38
-1.082 6.5819998 -1.689 0.5
-1.1059999 6.5960002 -1.694 0.37
-1.125 6.5830002 -1.692 0.28999999
-1.141 6.5560002 -1.6849999 0.46000001
-1.166 6.5739999 -1.691 0.25
-1.1849999 6.5619998 -1.689 0.5
-1.204 6.5510001 -1.687 0.2
-1.2079999 6.5149999 -1.677 0.51999998
-1.224 6.4889998 -1.671 0.40000001
-1.245 6.487 -1.6720001 0.36000001
-1.266 6.4860001 -1.673 0.41
-1.283 6.467 -1.668 0.40000001
-1.299 6.4400001 -1.6619999 0.41
-1.3279999 6.4819999 -1.675 0.38
-1.341 6.493 -1.678 0.31999999
-1.3609999 6.487 -1.678 0.38
-1.383 6.4879999 -1.679 0.34999999
-1.401 6.4710002 -1.676 0.44999999
-1.25 5.7010002 -1.4630001 0.28
-1.2539999 5.6389999 -1.447 0.34999999
-1.261 5.586 -1.433 0.34
-1.249 5.494 -1.408 0.30000001
-1.244 5.3979998 -1.382 0.31999999
-1.249 5.3449998 -1.369 0.27000001
-1.258 5.3060002 -1.359 0.33000001
-1.271 5.2870002 -1.355 0.34999999
-1.283 5.2639999 -1.349 0.33000001
-1.298 5.256 -1.348 0.33000001
-1.307 5.2579999 -1.349 0.31999999
-1.323 5.2519999 -1.349 0.38
-1.342 5.2550001 -1.351 0.36000001
-1.3559999 5.2410002 -1.348 0.30000001
-1.362 5.1999998 -1.3380001 0.23
-1.374 5.1789999 -1.3329999 0.30000001
-1.3940001 5.1890001 -1.337 0.41
-1.4 5.1760001 -1.334 0.30000001
-1.415 5.1700001 -1.334 0.31999999
-1.433 5.1690001 -1.335 0.34999999
-1.452 5.177 -1.3380001 0.44
-1.461 5.145 -1.33 0.30000001
-1.479 5.1479998 -1.3329999 0.34
-1.495 5.1430001 -1.3329999 0.34
-1.506 5.1500001 -1.335 0.38999999
-1.523 5.1469998 -1.336 0.31999999
-1.543 5.1570001 -1.34 0.34
-1.561 5.1560001 -1.341 0.25999999
-1.584 5.1750002 -1.348 0.41
-1.59 5.1350002 -1.3380001 0.28999999
-1.61 5.1430001 -1.341 0.30000001
-1.62 5.1479998 -1.344 0.33000001
-1.631 5.1259999 -1.339 0.25
-1.6440001 5.112 -1.336 0.36000001
-1.664 5.1170001 -1.339 0.27000001
-1.6849999 5.1269999 -1.344 0.43000001
-1.697 5.1090002 -1.34 0.30000001
-1.719 5.1220002 -1.345 0.25999999
-1.729 5.1259999 -1.347 0.47
-1.735 5.092 -1.339 0.25999999
-1.762 5.1170001 -1.348 0.36000001
-1.78 5.1170001 -1.349 0.27000001
-1.803 5.1300001 -1.355 0.34999999
-1.818 5.1199999 -1.354 0.25999999
-1.84 5.1329999 -1.359 0.37
-1.844 5.1170001 -1.355 0.28999999
-1.872 5.1440001 -1.365 0.31999999
-1.901 5.1739998 -1.375 0.41999999
-1.9349999 5.2150002 -1.3890001 0.25999999
-1.982 5.2880001 -1.4119999 0.12
-2.378 6.2709999 -1.699 0.38999999
-2.4119999 6.302 -1.71 0.34999999
-2.4200001 6.2930002 -1.709 0.41
-2.424 6.244 -1.697 0.41
-2.464 6.2880001 -1.712 0.38
-2.4879999 6.2909999 -1.715 0.40000001
-2.5039999 6.2740002 -1.712 0.44999999
-2.506 6.2220001 -1.699 0.34
-2.539 6.2480001 -1.709 0.46000001
-2.572 6.2989998 -1.726 0.31999999
-2.5899999 6.2870002 -1.725 0.38
-2.6099999 6.2810001 -1.725 0.43000001
-2.6570001 6.3369999 -1.744 0.44999999
-2.694 6.3670001 -1.755 0.30000001
-2.707 6.3429999 -1.751 0.38
-2.72 6.3179998 -1.7460001 0.28999999
-2.7260001 6.3049998 -1.743 0.49000001
-2.7509999 6.309 -1.747 0.28999999
-2.76 6.276 -1.74 0.5
-2.7920001 6.2950001 -1.748 0.41
-2.8440001 6.3569999 -1.7690001 0.34999999
-2.872 6.3649998 -1.774 0.38
-2.898 6.369 -1.778 0.41
-2.9159999 6.381 -1.783 0.34
-2.9460001 6.395 -1.79 0.55000001
-2.9860001 6.428 -1.803 0.28
-3.0190001 6.4460001 -1.811 0.54000002
-3.0309999 6.4190001 -1.806 0.36000001
-3.069 6.4460001 -1.817 0.44999999
-3.109 6.4770002 -1.829 0.34
-3.1140001 6.461 -1.826 0.46000001
-3.1470001 6.4770002 -1.834 0.44
-3.171 6.4759998 -1.836 0.31999999
-3.224 6.5320001 -1.8559999 0.18000001
-3.28 6.592 -1.878 0.47
-3.312 6.6040001 -1.8839999 0.27000001
-3.3329999 6.5939999 -1.8839999 0.56
-3.3710001 6.6420002 -1.901 0.28
-3.3859999 6.6209998 -1.897 0.52999997
-3.4070001 6.6100001 -1.897 0.31999999
-3.424 6.5929999 -1.895 0.47
-3.4630001 6.6160002 -1.906 0.36000001
-3.484 6.605 -1.906 0.44999999
-3.503 6.5910001 -1.905 0.44999999
-3.5239999 6.5819998 -1.905 0.34
-3.529 6.566 -1.902 0.44999999
-3.5739999 6.599 -1.916 0.23
-3.5799999 6.5599999 -1.9069999 0.55000001
-3.5910001 6.5320001 -1.902 0.38
-3.6329999 6.5599999 -1.914 0.41
-3.635 6.5149999 -1.904 0.38
-3.638 6.4970002 -1.9 0.47
-3.698 6.5539999 -1.9220001 0.23
-3.704 6.5180001 -1.914 0.55000001
-3.734 6.5229998 -1.919 0.40000001
-3.7490001 6.5009999 -1.916 0.23999999
-3.777 6.5019999 -1.92 0.44999999
-3.8 6.4959998 -1.9220001 0.5
-3.823 6.5110002 -1.928 0.31
-3.8399999 6.4920001 -1.926 0.30000001
-3.8599999 6.48 -1.926 0.23
-3.8859999 6.4780002 -1.929 0.28999999
-3.9059999 6.4640002 -1.929 0.34999999
-3.924 6.4489999 -1.928 0.55000001
-3.8870001 6.3439999 -1.898 0
-3.49 5.6799998 -1.688 0.11
-3.493 5.6459999 -1.681 0.18000001
-3.5039999 5.6240001 -1.677 0.18000001
-3.5179999 5.6079998 -1.676 0
-3.507 5.5510001 -1.661 0.029999999
-3.5280001 5.5469999 -1.663 0.12
-3.5120001 5.4840002 -1.646 0.23
-3.52 5.4770002 -1.646 0.17
-3.527 5.4489999 -1.641 0.2
-3.529 5.4159999 -1.633 0
-3.5139999 5.3559999 -1.618 0.02
-3.5120001 5.3179998 -1.609 0.11
-3.5569999 5.349 -1.622 0.22
-3.5139999 5.2490001 -1.594 0
-3.4920001 5.1810002 -1.575 0
-3.4779999 5.1440001 -1.564 0
-3.4890001 5.125 -1.562 0.029999999
-3.5109999 5.1220002 -1.564 0.039999999
-3.5250001 5.1090002 -1.564 0.039999999
-3.549 5.1090002 -1.567 0.07
-3.5610001 5.0910001 -1.5650001 0.18000001
-3.5139999 5.0089998 -1.54 0.28999999
-3.5050001 4.9629998 -1.528 0.2
-3.516 4.9460001 -1.526 0.27000001
-3.5090001 4.9029999 -1.515 0.23
-3.497 4.855 -1.503 0.18000001
-3.5090001 4.8390002 -1.501 0.25999999
-3.507 4.8049998 -1.493 0.22
-3.507 4.7880001 -1.49 0.23999999
-3.507 4.757 -1.483 0.31
-3.5150001 4.737 -1.48 0.25999999
-3.5369999 4.7350001 -1.483 0.28
-3.5320001 4.698 -1.474 0.28
-3.5439999 4.684 -1.473 0.28
-3.552 4.6630001 -1.47 0.31999999
-3.5569999 4.6550002 -1.469 0.30000001
-3.5710001 4.6430001 -1.469 0.33000001
-3.5810001 4.6259999 -1.467 0.34999999
-3.599 4.619 -1.4680001 0.34999999
-3.6140001 4.6079998 -1.4680001 0.38999999
-3.6329999 4.6030002 -1.47 0.34
-3.655 4.5999999 -1.474 0.36000001
-3.675 4.5960002 -1.476 0.31999999
-3.684 4.592 -1.477 0.31999999
-3.7049999 4.5890002 -1.48 0.30000001
-3.7219999 4.5809999 -1.4809999 0.30000001
-3.7349999 4.5679998 -1.48 0.28999999
-3.763 4.572 -1.4859999 0.28
-3.7820001 4.566 -1.488 0.27000001
-3.8039999 4.5780001 -1.494 0.25999999
-3.8080001 4.553 -1.49 0.19
-3.842 4.5640001 -1.498 0.28999999
-3.8599999 4.5570002 -1.5 0.23999999
-3.878 4.5489998 -1.501 0.2
-3.9089999 4.5560002 -1.508 0.27000001
-3.928 4.5489998 -1.51 0.23
-3.9289999 4.5359998 -1.508 0.19
-3.971 4.5549998 -1.5190001 0.27000001
-3.9890001 4.5469999 -1.521 0.23
-4.0009999 4.5320001 -1.52 0.19
-4.0409999 4.5479999 -1.53 0.25999999
-4.0570002 4.5370002 -1.531 0.23
-4.0809999 4.5349998 -1.535 0.2
-4.1079998 4.5500002 -1.543 0.25
-4.1290002 4.5440001 -1.545 0.20999999
-4.177 4.5679998 -1.559 0.20999999
-4.263 4.6329999 -1.5880001 0.16
-4.2620001 4.6030002 -1.581 0.25
-4.2360001 4.546 -1.5650001 0.22
-4.25 4.5320001 -1.5650001 0.19
-4.224 4.4910002 -1.552 0
-4.2779999 4.5190001 -1.568 0
-4.329 4.5450001 -1.5829999 0
-4.3639998 4.552 -1.59 0
-4.2659998 4.4229999 -1.5470001 0
-4.3299999 4.461 -1.566 0.029999999
-4.4770002 4.5819998 -1.618 0.18000001
-4.4910002 4.5819998 -1.62 0.20999999
-4.527 4.5900002 -1.6289999 0.1
-4.5580001 4.592 -1.635 0.19
-4.6500001 4.6550002 -1.665 0.12
-5.4099998 5.375 -1.949 0.27000001
-5.4359999 5.368 -1.952 0.41
-5.4829998 5.3800001 -1.964 0.34
-5.4710002 5.3509998 -1.956 0.40000001
-5.5040002 5.3499999 -1.962 0.34999999
-5.5320001 5.3439999 -1.967 0.41
-5.5339999 5.3109999 -1.961 0.63
-5.566 5.309 -1.967 0.31
-5.5700002 5.2789998 -1.962 0.51999998
-5.5929999 5.2680001 -1.965 0.40000001
-5.6030002 5.2610002 -1.965 0.33000001
-5.631 5.2540002 -1.969 0.47
-5.677 5.263 -1.98 0.31
-5.6539998 5.2090001 -1.966 0.44999999
-5.6820002 5.2020001 -1.97 0.33000001
-5.7080002 5.1929998 -1.973 0.46000001
-5.7589998 5.2059999 -1.9859999 0.33000001
-5.75 5.1810002 -1.98 0.49000001
-5.7490001 5.1479998 -1.973 0.30000001
-5.7399998 5.1079998 -1.965 0.43000001
-5.7740002 5.105 -1.971 0.28999999
-5.7919998 5.0900002 -1.972 0.50999999
-5.7870002 5.053 -1.964 0.31
-5.8210001 5.0510001 -1.971 0.43000001
-5.848 5.0580001 -1.978 0.28999999
-5.8319998 5.0120001 -1.966 0.49000001
-5.855 5 -1.969 0.40000001
-5.9050002 5.0100002 -1.9809999 0.46000001
-5.9099998 4.9829998 -1.977 0.28999999
-5.9260001 4.9640002 -1.977 0.55000001
-5.934 4.9390001 -1.974 0.38
-5.9559999 4.9419999 -1.98 0.41
-5.9879999 4.9369998 -1.985 0.43000001
-6.02 4.9320002 -1.9910001 0.38999999
-6.039 4.915 -1.992 0.41
-6.0650001 4.9050002 -1.9960001 0.33000001
-6.0689998 4.8769999 -1.992 0.43000001
-6.0910001 4.8629999 -1.994 0.28999999
-6.1139998 4.8649998 -2 0.54000002
-6.1290002 4.8460002 -2 0.43000001
-6.164 4.842 -2.006 0.30000001
-6.165 4.8119998 -2.0020001 0.41999999
-6.1929998 4.802 -2.006 0.27000001
-6.1950002 4.7729998 -2.0020001 0.33000001
-6.1830001 4.7329998 -1.992 0.38999999
-6.1900001 4.723 -1.992 0.41
-6.2080002 4.7059999 -1.993 0.41
-6.204 4.6719999 -1.987 0.28
-6.2470002 4.6739998 -1.9960001 0.50999999
-6.2719998 4.6620002 -2 0.30000001
-6.2589998 4.6220002 -1.9910001 0.56
-6.2859998 4.6110001 -1.995 0.34
-6.2709999 4.585 -1.988 0.55000001
-6.2930002 4.5710001 -1.99 0.38999999
-6.3010001 4.5469999 -1.988 0.5
-6.3639998 4.5619998 -2.0039999 0.33000001
-6.4130001 4.566 -2.016 0.43000001
-6.448 4.5609999 -2.023 0.30000001
-6.4310002 4.5180001 -2.0120001 0.56999999
-6.402 4.4829998 -2 0.31999999
-6.4580002 4.4920001 -2.0139999 0.47999999
-6.4850001 4.4809999 -2.0179999 0.46000001
-6.5009999 4.461 -2.0190001 0.38
-6.5279999 4.4499998 -2.023 0.46000001
-6.527 4.4190001 -2.0179999 0.30000001
-6.5409999 4.3990002 -2.0179999 0.44999999
-6.5749998 4.4070001 -2.027 0.41999999
-6.5710001 4.3740001 -2.0220001 0.47999999
-6.598 4.362 -2.026 0.31999999
-6.5939999 4.3299999 -2.02 0.51999998
-6.6199999 4.3179998 -2.0239999 0.38
-6.6750002 4.323 -2.0369999 0.28999999
-6.6830001 4.2989998 -2.036 0.52999997
-6.6919999 4.289 -2.036 0.30000001
-6.7020001 4.2659998 -2.0350001 0.58999997
-6.7220001 4.2490001 -2.0369999 0.36000001
-6.7509999 4.2379999 -2.043 0.41
-6.7529998 4.21 -2.039 0.41
-6.789 4.2030001 -2.046 0.31999999
-6.796 4.177 -2.0439999 0.46000001
-6.8270001 4.1820002 -2.052 0.22
-6.8299999 4.1539998 -2.049 0.49000001
-6.848 4.1360002 -2.05 0.34
-6.8509998 4.1079998 -2.0469999 0.55000001
-6.8740001 4.0929999 -2.05 0.36000001
-6.8769999 4.0650001 -2.0469999 0.43000001
-6.8969998 4.0479999 -2.049 0.41
-6.9130001 4.0419998 -2.053 0.30000001
-6.9320002 4.0250001 -2.0550001 0.44
-6.9520001 4.007 -2.0569999 0.31
-6.9640002 3.9849999 -2.0569999 0.28
-6.9720001 3.96 -2.0550001 0.28999999
-6.9860001 3.9389999 -2.056 0.28999999
-6.9710002 3.902 -2.0469999 0.33000001
-6.9920001 3.9000001 -2.052 0.28999999
-6.9910002 3.8699999 -2.0480001 0.28
-7 3.846 -2.0469999 0.28
-7.0149999 3.826 -2.0480001 0.27000001
-7.0240002 3.802 -2.0469999 0.28
-7.0310001 3.777 -2.0450001 0.28
-7.0440001 3.756 -2.046 0.27000001
-7.0599999 3.7509999 -2.049 0.25
-7.0510001 3.7179999 -2.043 0.2
-7.0630002 3.6949999 -2.043 0.28999999
-7.0710001 3.671 -2.0420001 0.25
-7.0689998 3.642 -2.0369999 0.2
-7.092 3.6259999 -2.0409999 0.27000001
-7.099 3.6010001 -2.039 0.19
-7.1090002 3.5929999 -2.0409999 0.25
-7.1209998 3.5699999 -2.0409999 0.19
-7.132 3.5480001 -2.0409999 0.25
-7.1409998 3.5250001 -2.04 0.2
-7.119 3.4860001 -2.0309999 0.2
-7.1420002 3.47 -2.0339999 0.28999999
-7.158 3.4630001 -2.0369999 0.19
-7.1729999 3.4430001 -2.0380001 0.23999999
-7.1830001 3.4200001 -2.0380001 0.18000001
-7.191 3.3959999 -2.0369999 0.23
-7.2129998 3.3789999 -2.0409999 0.19
-7.2119999 3.3510001 -2.0369999 0.23
-7.2220001 3.3280001 -2.0369999 0.19
-7.224 3.3150001 -2.036 0.12
-7.2309999 3.2909999 -2.0350001 0.19
-7.2459998 3.27 -2.0369999 0.2
-7.2389998 3.24 -2.0320001 0.039999999
-7.256 3.22 -2.0339999 0
-7.2610002 3.1949999 -2.0320001 0
-7.2620001 3.168 -2.029 0
-7.598 1.8609999 -2.0020001 0
-7.5739999 1.83 -1.994 0.02
-7.5760002 1.8049999 -1.993 0.07
-7.5830002 1.7819999 -1.993 0.18000001
-7.5809999 1.7690001 -1.992 0.23
-7.5770001 1.743 -1.989 0.19
-7.592 1.721 -1.992 0.12
-7.5910001 1.696 -1.99 0.19
-7.5910001 1.671 -1.989 0.11
-7.6040001 1.649 -1.9910001 0.18000001
-7.592 1.6210001 -1.9859999 0.23
-7.5869999 1.608 -1.984 0.19
-7.599 1.585 -1.9859999 0.12
-7.6020002 1.561 -1.985 0.2
-7.6069999 1.5369999 -1.985 0.11
-7.612 1.513 -1.985 0.18000001
-7.6020002 1.4859999 -1.9809999 0.11
-7.6040001 1.462 -1.9809999 0.19
-7.605 1.45 -1.98 0.11
-7.5999999 1.424 -1.978 0.18000001
-7.6139998 1.402 -1.98 0.11
-7.6069999 1.376 -1.977 0.18000001
-7.6129999 1.353 -1.978 0.11
-7.6079998 1.327 -1.975 0.2
-7.619 1.304 -1.977 0.11
-7.6209998 1.28 -1.977 0.19
-7.6230001 1.268 -1.977 0.11
-7.631 1.245 -1.978 0.18000001
-7.6290002 1.22 -1.976 0.22
-7.618 1.194 -1.972 0.1
-7.6329999 1.171 -1.975 0.19
-7.6199999 1.145 -1.97 0.1
-7.6350002 1.135 -1.974 0.18000001
-7.6269999 1.109 -1.971 0.22
-7.6230001 1.084 -1.969 0.1
-7.6199999 1.0599999 -1.967 0.19
-7.6350002 1.0369999 -1.97 0.11
-7.6360002 1.013 -1.97 0.18000001
-7.6300001 0.98799998 -1.967 0.22
-7.6389999 0.977 -1.969 0.18000001
-7.6290002 0.95099998 -1.966 0.23
-7.645 0.92900002 -1.969 0.19
-7.6329999 0.903 -1.965 0.12
-7.6279998 0.87800002 -1.9630001 0.2
-7.6339998 0.85399997 -1.964 0.11
-7.6389999 0.83099997 -1.965 0.20999999
-7.6269999 0.81699997 -1.961 0.11
-7.6290002 0.79299998 -1.961 0.18000001
-7.6259999 0.76899999 -1.959 0.11
-7.6129999 0.74299997 -1.955 0.2
-7.625 0.72000003 -1.9579999 0.11
-7.6230001 0.69599998 -1.957 0.19
-7.618 0.671 -1.955 0.11
-7.605 0.65799999 -1.951 0.2
-7.6230001 0.63599998 -1.955 0.11
-7.6269999 0.61199999 -1.956 0.18000001
-7.6209998 0.58700001 -1.954 0.12
-7.619 0.56300002 -1.952 0.2
-7.6170001 0.53899997 -1.951 0.11
-7.632 0.51599997 -1.955 0.18000001
-7.631 0.50400001 -1.955 0.20999999
-7.6209998 0.479 -1.951 0.18000001
-7.6300001 0.456 -1.954 0.23
-7.6430001 0.43200001 -1.957 0.17
-7.631 0.40799999 -1.9529999 0.23
-7.6490002 0.384 -1.9579999 0.20999999
-7.6389999 0.36000001 -1.955 0.23
-7.6430001 0.34799999 -1.956 0.18000001
-7.6360002 0.324 -1.954 0.23999999
-7.6300001 0.29899999 -1.951 0.18000001
-7.6360002 0.27599999 -1.9529999 0.23999999
-7.6550002 0.252 -1.9579999 0.18000001
-7.6360002 0.228 -1.952 0.23999999
-7.6440001 0.204 -1.955 0.19
-7.6409998 0.192 -1.954 0.25
-7.6550002 0.168 -1.957 0.19
-7.6479998 0.14399999 -1.955 0.25
-7.652 0.12 -1.956 0.18000001
-7.6389999 0.096000001 -1.952 0.23999999
-7.6550002 0.071999997 -1.957 0.18000001
-7.6430001 0.048 -1.954 0.23999999
-7.6490002 0.035999998 -1.955 0.2
-7.6430001 0.012 -1.954 0.12
-7.6409998 -0.012 -1.9529999 0.2
-7.6469998 -0.035999998 -1.955 0.11
-7.6550002 -0.061000001 -1.957 0.18000001
-7.651 -0.085000001 -1.956 0.12
-7.6459999 -0.109 -1.955 0.20999999
-7.638 -0.12 -1.952 0.11
-7.638 -0.14399999 -1.952 0.2
-7.645 -0.169 -1.955 0.11
-7.651 -0.193 -1.956 0.2
-7.6479998 -0.21699999 -1.956 0.17
-7.6570001 -0.241 -1.9579999 0.25999999
-7.6560001 -0.26499999 -1.9579999 0.17
-7.6810002 -0.278 -1.965 0.19
-7.6680002 -0.30199999 -1.962 0.22
-7.6849999 -0.32699999 -1.967 0.2
-7.6680002 -0.34999999 -1.962 0.12
-7.6690001 -0.37400001 -1.9630001 0.18000001
-7.6599998 -0.398 -1.961 0.12
-7.6550002 -0.42199999 -1.96 0.2
-7.6599998 -0.43399999 -1.961 0.11
-7.6570001 -0.458 -1.961 0.2
-7.6609998 -0.48300001 -1.962 0.11
-7.652 -0.50599998 -1.96 0.2
-7.6560001 -0.52999997 -1.962 0.11
-7.6430001 -0.55400002 -1.959 0.19
-7.6560001 -0.579 -1.9630001 0.11
-7.6550002 -0.59100002 -1.9630001 0.18000001
-7.6459999 -0.61400002 -1.961 0.12
-7.6490002 -0.639 -1.962 0.18000001
-7.6490002 -0.66299999 -1.9630001 0.22
-7.6550002 -0.68800002 -1.965 0.19
-7.645 -0.71100003 -1.9630001 0.22
-7.6329999 -0.73400003 -1.96 0.18000001
-7.6339998 -0.74599999 -1.961 0.23
-7.6220002 -0.76899999 -1.9579999 0.18000001
-7.6269999 -0.79400003 -1.96 0.25
-7.6479998 -0.82099998 -1.967 0.19
-7.6279998 -0.84299999 -1.962 0.22
-7.625 -0.86699998 -1.962 0.18000001
-7.6259999 -0.89099997 -1.9630001 0.23
-7.6170001 -0.90200001 -1.961 0.18000001
-7.6240001 -0.92699999 -1.9630001 0.23
-7.619 -0.95099998 -1.9630001 0.18000001
-7.6199999 -0.97500002 -1.964 0.23
-7.6110001 -0.99800003 -1.962 0.19
-7.6040001 -1.022 -1.961 0.23
-7.6199999 -1.048 -1.967 0.19
-7.6090002 -1.059 -1.964 0.23
-7.6009998 -1.082 -1.9630001 0.22
-7.5900002 -1.105 -1.961 0.17
-7.5939999 -1.13 -1.9630001 0.25999999
-7.5830002 -1.153 -1.961 0.20999999
-7.5780001 -1.176 -1.96 0.2
-7.5799999 -1.201 -1.962 0.25
-7.5739999 -1.212 -1.961 0.23
-7.566 -1.235 -1.96 0.18000001
-7.579 -1.262 -1.965 0.25999999
-7.572 -1.285 -1.9630001 0.23999999
-7.5689998 -1.309 -1.964 0.19
-7.5770001 -1.335 -1.967 0.27000001
-7.5609999 -1.357 -1.964 0.23999999
-7.559 -1.369 -1.964 0.2
-7.5580001 -1.393 -1.965 0.27000001
-7.5500002 -1.416 -1.964 0.25
-7.54 -1.439 -1.962 0.2
-7.5409999 -1.464 -1.964 0.27000001
-7.5370002 -1.487 -1.964 0.25
-7.5240002 -1.5089999 -1.962 0.2
-7.533 -1.524 -1.965 0.27000001
-7.5419998 -1.55 -1.969 0.25
-7.533 -1.573 -1.9680001 0.25999999
-7.5170002 -1.594 -1.965 0.25
-7.5120001 -1.618 -1.965 0.25
-7.5159998 -1.643 -1.967 0.27000001
-7.506 -1.654 -1.965 0.27000001
-7.5019999 -1.678 -1.966 0.25999999
-7.5050001 -1.7029999 -1.9680001 0.25999999
-7.4899998 -1.724 -1.965 0.25999999
-7.4829998 -1.747 -1.965 0.25999999
-7.4809999 -1.772 -1.966 0.25
-7.4749999 -1.795 -1.966 0.27000001
-7.4840002 -1.8099999 -1.969 0.25
-7.454 -1.827 -1.962 0.18000001
-7.4629998 -1.854 -1.966 0.28
-7.447 -1.875 -1.9630001 0.25
-7.4569998 -1.903 -1.9680001 0.25999999
-7.4369998 -1.923 -1.964 0.18000001
-7.4310002 -1.946 -1.964 0.28
-7.4250002 -1.957 -1.9630001 0.25
-7.4260001 -1.982 -1.965 0.27000001
-7.4229999 -2.006 -1.966 0.25999999
-7.408 -2.027 -1.9630001 0.20999999
-7.3769999 -2.0439999 -1.957 0.059999999
-7.204 -2.0190001 -1.909 0.029999999
-7.1269999 -2.0220001 -1.89 0.029999999
-7.085 -2.0220001 -1.8789999 0
-6.9629998 -2.01 -1.846 0
-6.9499998 -2.03 -1.844 0
-6.9120002 -2.0420001 -1.835 0
-6.9089999 -2.0650001 -1.836 0
-6.908 -2.0880001 -1.8380001 0
-6.9070001 -2.112 -1.839 0
-6.9159999 -2.1270001 -1.8430001 0
-2.563 -3.4289999 -1.041 0
-4.0019999 -5.4499998 -1.714 0.13
-3.977 -5.4510002 -1.71 0.27000001
-3.974 -5.4650002 -1.7130001 0.50999999
-3.9749999 -5.5029998 -1.721 0.44999999
-3.961 -5.52 -1.723 0.38999999
-3.947 -5.5370002 -1.725 0.28999999
-3.925 -5.5430002 -1.722 0.56
-3.9159999 -5.5679998 -1.727 0.23999999
-3.8840001 -5.5580001 -1.719 0.47999999
-3.8800001 -5.572 -1.722 0.40000001
-3.8659999 -5.5890002 -1.723 0.38999999
-3.8380001 -5.585 -1.7180001 0.34
-3.8150001 -5.5890002 -1.716 0.44
-3.7809999 -5.5770001 -1.7079999 0.33000001
-3.7590001 -5.5830002 -1.706 0.51999998
-3.7550001 -5.5949998 -1.7079999 0.41
-3.7479999 -5.6230001 -1.7130001 0.36000001
-3.7279999 -5.631 -1.712 0.34999999
-3.7030001 -5.632 -1.7079999 0.41
-3.6900001 -5.652 -1.711 0.41
-3.6789999 -5.6729999 -1.714 0.34
-3.635 -5.6440001 -1.701 0.51999998
-3.6199999 -5.6399999 -1.698 0.27000001
-3.598 -5.6440001 -1.696 0.51999998
-3.552 -5.612 -1.682 0.33000001
-3.5510001 -5.6490002 -1.6900001 0.49000001
-3.527 -5.6500001 -1.687 0.31
-3.5009999 -5.6479998 -1.683 0.43000001
-3.4560001 -5.6129999 -1.668 0.28999999
-3.4979999 -5.7020001 -1.6950001 0.55000001
-3.4690001 -5.6950002 -1.689 0.28
-3.4400001 -5.6880002 -1.683 0.49000001
-3.414 -5.6849999 -1.679 0.28999999
-3.4070001 -5.7140002 -1.6849999 0.47999999
-3.3759999 -5.7020001 -1.677 0.52999997
-2.9719999 -5.0500002 -1.469 0.22
-2.9549999 -5.04 -1.465 0.23
-2.9400001 -5.0510001 -1.465 0.27000001
-2.918 -5.0479999 -1.461 0.37
-2.8989999 -5.052 -1.46 0.43000001
-2.895 -5.0819998 -1.466 0.41999999
-2.8870001 -5.1059999 -1.471 0.31
-2.9890001 -5.3080001 -1.5319999 0.12
-3.2119999 -5.7490001 -1.666 0.28
-3.1989999 -5.77 -1.669 0.47999999
-3.184 -5.7849998 -1.671 0.37
-3.154 -5.7729998 -1.664 0.44999999
-3.1359999 -5.7839999 -1.665 0.44999999
-3.1199999 -5.7969999 -1.666 0.31
-3.1040001 -5.789 -1.6619999 0.5
-3.085 -5.7969999 -1.661 0.30000001
-3.0799999 -5.8319998 -1.669 0.38
-3.0320001 -5.7849998 -1.652 0.34
-3.007 -5.7810001 -1.647 0.44999999
