# .PCD v0.7 - Point Cloud Data file format
VERSION 0.7
FIELDS x y z intensity
SIZE 4 4 4 4
TYPE F F F F
COUNT 1 1 1 1
WIDTH 1335
HEIGHT 1
VIEWPOINT 0 0 0 1 0 0 0
POINTS 1335
DATA ascii
-20.896999 51.924 -1.255 0
-6.1479998 15.052 -0.219 0.17
-6.2940001 15.271 -0.226 0
-19.232 46.112 -1.098 0.12
-6.1919999 14.761 -0.213 0.25999999
-6.1919999 14.698 -0.211 0.12
-13.918 32.665001 -0.72100002 0.16
-6.4840002 15.121 -0.22400001 0.18000001
-6.5500002 15.143 -0.226 0.1
-6.586 15.097 -0.22499999 0.14
-20.305 46.016998 -1.107 0.17
-20.468 45.994999 -1.108 0
-20.58 46.049999 -1.1109999 0.13
-6.7470002 14.888 -0.221 0.47
-6.711 14.686 -0.21600001 0.25
-6.7010002 14.544 -0.213 0.41999999
-6.7420001 14.514 -0.213 0.25
-6.6350002 14.168 -0.20299999 0.31999999
-7.7080002 16.382 -0.26699999 0.23999999
-6.8969998 14.547 -0.215 0.27000001
-6.9380002 14.516 -0.215 0.28999999
-6.8319998 14.179 -0.206 0.31
-6.9510002 14.312 -0.20999999 0.23
-7.1069999 14.515 -0.21699999 0.33000001
-6.9819999 14.148 -0.207 0.44
-7.0289998 14.187 -0.208 0.23
-6.9759998 13.97 -0.20200001 0.14
-7.1090002 14.125 -0.208 0.17
-7.2789998 14.35 -0.215 0.5
-7.1869998 14.061 -0.207 0.28999999
-7.2750001 14.121 -0.20999999 0.18000001
-7.6100001 14.657 -0.226 0.27000001
-7.5679998 14.521 -0.222 0.28999999
-7.6789999 14.621 -0.226 0.56999999
-7.4959998 14.166 -0.213 0.18000001
-7.6939998 14.43 -0.222 0.44
-7.6240001 14.191 -0.215 0.27000001
-7.6279998 14.093 -0.213 0.43000001
-7.5960002 13.929 -0.20900001 0.18000001
-7.4289999 13.573 -0.199 0.47999999
-7.5310001 13.657 -0.20200001 0.28999999
-7.5159998 13.53 -0.199 0.28999999
-7.5770001 13.539 -0.2 0.34
-7.724 13.7 -0.205 0.28999999
-7.8870001 13.886 -0.212 0.23
-8.6859999 15.177 -0.25099999 0.30000001
-8.6999998 15.146 -0.25099999 0.34999999
-8.0139999 13.854 -0.213 0.33000001
-7.7459998 13.298 -0.197 0.18000001
-6.8730001 11.719 -0.15000001 0.41
-6.9590001 11.78 -0.152 0.22
-6.8959999 11.592 -0.147 0.34
-6.9089999 11.531 -0.146 0.37
-6.9070001 11.487 -0.145 0.23
-6.9390001 11.459 -0.145 0.56999999
-7.0710001 11.594 -0.149 0.28999999
-7.2059999 11.731 -0.154 0.28999999
-7.2719998 11.754 -0.156 0.38999999
-7.1890001 11.54 -0.15000001 0.23
-7.191 11.463 -0.148 0.57999998
-7.5019999 11.917 -0.162 0.23
-7.198 11.357 -0.146 0.23999999
-10.081 15.776 -0.28299999 0.51999998
-7.5029998 11.672 -0.15700001 0.25
-10.137 15.645 -0.28099999 0.40000001
-10.566 16.194 -0.29899999 0.25
-7.5710001 11.538 -0.155 0.19
-7.5650001 11.489 -0.154 0.40000001
-9.2659998 13.967 -0.23199999 0.27000001
-9.302 13.926 -0.23199999 0.46000001
-9.408 13.99 -0.235 0.22
-9.4890003 14.015 -0.237 0.28999999
-9.4779997 13.904 -0.234 0.37
-9.552 13.918 -0.235 0.49000001
-10.768 15.632 -0.28999999 0.34
-10.826 15.611 -0.29100001 0.25999999
-10.881 15.586 -0.29100001 0.2
-10.94 15.566 -0.29100001 0.47
-11.154 15.763 -0.29899999 0.36000001
-11.277 15.832 -0.30199999 0.27000001
-9.9799995 13.923 -0.242 0.31999999
-11.317 15.73 -0.301 0.18000001
-11.259 15.547 -0.296 0.43000001
-10.501 14.408 -0.25999999 0.31999999
-10.496 14.307 -0.25799999 0.2
-10.511 14.234 -0.257 0.2
-11.645 15.661 -0.30399999 0.38999999
-11.603 15.503 -0.30000001 0.2
-18.337999 24.396999 -0.59100002 0.23
-18.35 24.254999 -0.588 0.16
-18.524 24.323999 -0.59299999 0.20999999
-18.621 24.292999 -0.59299999 0.27000001
-18.424 23.881001 -0.58200002 0.19
-18.341999 23.621 -0.57499999 0.31999999
-9.5649996 12.259 -0.20100001 0.23999999
-9.6269999 12.219 -0.20100001 0.31
-12.609 15.888 -0.324 0.19
-12.641 15.827 -0.32300001 0.19
-12.749 15.859 -0.32600001 0.13
-12.747 15.755 -0.324 0.37
-12.701 15.648 -0.32100001 0.25
-12.745 15.602 -0.32100001 0.31
-10.117 12.314 -0.211 0.19
-12.963 15.666 -0.32600001 0.25999999
-12.959 15.562 -0.32300001 0.25
-10.287 12.282 -0.213 0.23
-11.725 13.905 -0.27000001 0.23
-11.755 13.853 -0.26899999 0.40000001
-11.765 13.821 -0.26899999 0.40000001
-11.828 13.806 -0.26899999 0.41
-11.855 13.75 -0.26899999 0.40000001
-11.929 13.748 -0.27000001 0.36000001
-11.975 13.714 -0.27000001 0.5
-12.011 13.669 -0.27000001 0.36000001
-12.097 13.679 -0.271 0.23
-12.141 13.685 -0.27200001 0.19
-19.891001 22.254999 -0.574 0.17
-19.903 22.128 -0.57099998 0.23
-20.542999 22.695 -0.59399998 0.12
-20.518999 22.525999 -0.58999997 0.14
-21.275 23.208 -0.616 0.12
-13.302 14.433 -0.30700001 0.28999999
-13.309 14.396 -0.30700001 0.23
-13.335 14.334 -0.30599999 0.36000001
-13.428 14.343 -0.308 0.27000001
-13.492 14.321 -0.308 0.41999999
-13.474 14.212 -0.30599999 0.28
-14.334 15.022 -0.33700001 0.2
-14.528 15.177 -0.34299999 0.19
-21.822001 22.636 -0.61500001 0.15000001
-21.976999 22.653 -0.61799997 0.14
-22.153 22.691 -0.62199998 0.34999999
-21.871 22.261999 -0.60900003 0.27000001
-22.097 22.351 -0.61500001 0.2
-22.337999 22.452999 -0.62099999 0.16
-22.25 22.295 -0.61699998 0.22
-22.402 22.306999 -0.62 0.2
-22.627001 22.389 -0.625 0.23
-13.433 13.141 -0.285 0.47999999
-13.569 13.191 -0.289 0.17
-13.57 13.109 -0.287 0.28999999
-13.457 12.959 -0.28200001 0.30000001
-13.456 12.877 -0.28099999 0.28
-13.576 12.91 -0.28400001 0.25999999
-13.53 12.786 -0.28099999 0.41
-13.775 12.935 -0.28799999 0.36000001
-13.868 12.941 -0.28999999 0.33000001
-13.944 12.93 -0.29100001 0.37
-13.876 12.827 -0.28799999 0.28
-13.866 12.737 -0.28600001 0.47
-14.002 12.781 -0.28999999 0.28
-13.928 12.634 -0.28600001 0.20999999
-13.966 12.588 -0.28600001 0.31999999
-13.95 12.495 -0.28400001 0.27000001
-13.994 12.455 -0.28400001 0.27000001
-13.987 12.409 -0.28299999 0.25999999
-13.954 12.302 -0.28 0.54000002
-23.704 20.742001 -0.61699998 0.2
-23.917999 20.797001 -0.62199998 0.25
-23.982 20.721001 -0.62199998 0.20999999
-24.030001 20.631001 -0.62099999 0.15000001
-15.851 13.535 -0.33899999 0.28999999
-15.908 13.539 -0.34 0.40000001
-15.921 13.465 -0.33899999 0.34999999
-15.966 13.417 -0.33899999 0.30000001
-15.941 13.311 -0.33700001 0.34999999
-16.024 13.295 -0.338 0.37
-24.68 20.327999 -0.62900001 0.30000001
-24.774 20.275999 -0.63 0.22
-25.028999 20.417999 -0.63800001 0.16
-25.038 20.294001 -0.63599998 0.18000001
-25.125 20.233999 -0.63700002 0.31999999
-25.240999 20.198 -0.63800001 0.25999999
-25.4 20.194 -0.64099997 0.25999999
-25.459 20.111 -0.64099997 0.28999999
-25.530001 20.037001 -0.64200002 0.30000001
-25.611 20.035999 -0.64300001 0.30000001
-25.747 20.011999 -0.64600003 0.23999999
-25.816 19.936001 -0.64600003 0.30000001
-25.924 19.889999 -0.64700001 0.31
-26.059999 19.864 -0.64999998 0.31999999
-26.212999 19.851 -0.653 0.31999999
-26.299 19.785999 -0.65399998 0.31
-26.375 19.778999 -0.65499997 0.30000001
-26.487 19.733 -0.65700001 0.27000001
-26.594 19.683001 -0.65799999 0.31
-26.731001 19.653999 -0.66100001 0.34999999
-26.870001 19.627001 -0.66299999 0.25999999
-26.99 19.584999 -0.66500002 0.28999999
-27.136 19.559999 -0.66799998 0.27000001
-27.207001 19.547001 -0.66900003 0.31999999
-27.311001 19.492001 -0.67000002 0.31999999
-27.441 19.454 -0.67199999 0.27000001
-27.52 19.381001 -0.67299998 0.25999999
-27.634001 19.332001 -0.67500001 0.36000001
-19.632999 13.652 -0.419 0.23999999
-19.738001 13.633 -0.421 0.23
-28.035999 19.285999 -0.68300003 0.38
-28.132999 19.223 -0.68400002 0.17
-19.591 13.306 -0.41299999 0.33000001
-19.673 13.271 -0.414 0.18000001
-19.787001 13.258 -0.41600001 0.44
-19.750999 13.144 -0.414 0.20999999
-19.832001 13.108 -0.41499999 0.27000001
-19.913 13.117 -0.417 0.20999999
-20.089001 13.052 -0.41999999 0.57999998
-29.273001 18.875 -0.704 0.23
-29.361 18.801001 -0.704 0.28
-16.548 10.537 -0.30700001 0.23
-16.781 10.611 -0.31299999 0.23999999
-16.886999 10.641 -0.31600001 0.27000001
-16.851 10.544 -0.31400001 0.31
-16.818001 10.45 -0.31200001 0.28999999
-17.011999 10.497 -0.317 0.20999999
-16.938999 10.379 -0.31299999 0.43000001
-17.025 10.357 -0.315 0.25999999
-16.955999 10.243 -0.31200001 0.40000001
-16.914 10.181 -0.31 0.27000001
-17.061001 10.197 -0.31400001 0.38
-17.163 10.185 -0.31600001 0.34999999
-17.128 10.091 -0.31400001 0.41
-17.146 10.029 -0.31299999 0.31999999
-17.212 9.9960003 -0.31400001 0.25
-17.184 9.9440002 -0.31299999 0.38999999
-17.165001 9.8610001 -0.31099999 0.31999999
-17.086 9.7449999 -0.308 0.28
-17.016001 9.6339998 -0.30500001 0.31
-16.933001 9.5170002 -0.30199999 0.40000001
-17.052999 9.5139999 -0.30500001 0.31999999
-17.141001 9.4919996 -0.30599999 0.43000001
-17.250999 9.5170002 -0.30899999 0.31
-17.207001 9.4230003 -0.30700001 0.37
-17.577 9.5539999 -0.317 0.23999999
-17.625 9.5080004 -0.317 0.46000001
-17.733999 9.4949999 -0.31999999 0.31
-17.802 9.46 -0.32100001 0.31999999
-18.062 9.5249996 -0.32800001 0.36000001
-17.923 9.415 -0.32300001 0.30000001
-18.089001 9.4300003 -0.32699999 0.33000001
-19.184999 9.9230003 -0.359 0.23
-19.107 9.8070002 -0.35499999 0.20999999
-19.386 9.8730001 -0.36300001 0.20999999
-19.396999 9.802 -0.36199999 0.28999999
-19.354 9.7040005 -0.36000001 0.23999999
-19.746 9.8610001 -0.37099999 0.12
-19.296 9.5620003 -0.35699999 0.19
-19.443001 9.5579996 -0.36000001 0.2
-19.813999 9.6630001 -0.37 0.18000001
-19.735001 9.5480003 -0.36700001 0.28
-19.622 9.4180002 -0.36300001 0.38
-19.82 9.4359999 -0.368 0.28999999
-19.995001 9.4809999 -0.37200001 0.27000001
-20.056999 9.4329996 -0.373 0.30000001
-19.941999 9.3030005 -0.36899999 0.23
-19.691999 9.1110001 -0.361 0.22
-19.562 8.9770002 -0.35699999 0.34999999
-19.716 8.9720001 -0.36000001 0.090000004
-26.767 12.07 -0.56099999 0.14
-26.764 12.018 -0.56 0.23999999
-26.705 11.891 -0.55800003 0.18000001
-26.726 11.799 -0.55699998 0.14
-21.561001 9.4440002 -0.40900001 0.36000001
-26.955 11.699 -0.56199998 0.25999999
-24.096001 10.371 -0.479 0.22
-24.124001 10.338 -0.47999999 0.22
-24.165001 10.266 -0.47999999 0.38
-24.226999 10.203 -0.48100001 0.18000001
-24.229 10.114 -0.47999999 0.47
-24.167 9.9989996 -0.477 0.23
-24.226 9.934 -0.47799999 0
-28.122 11.425 -0.58700001 0.13
-28.388 11.481 -0.59399998 0.20999999
-28.500999 11.422 -0.59600002 0.17
-26.516001 10.532 -0.53899997 0.28
-25.344999 9.9759998 -0.50599998 0.13
-25.417 9.9119997 -0.50700003 0.43000001
-25.41 9.8179998 -0.50599998 0.36000001
-25.503 9.7620001 -0.50700003 0.25
-25.546 9.7320004 -0.50800002 0.31999999
-28.715 10.833 -0.59600002 0.19
-25.615999 9.5749998 -0.50800002 0.31999999
-25.641001 9.4919996 -0.50800002 0.20999999
-27.281 10.001 -0.55299997 0.37
-27.046 9.8179998 -0.546 0.23999999
-27.052 9.7250004 -0.54500002 0.23999999
-27.052 9.677 -0.54500002 0.18000001
-27.15 9.6160002 -0.546 0.41999999
-27.718 9.7180004 -0.56099999 0.15000001
-27.722 9.6219997 -0.56099999 0.40000001
-27.612 9.4870005 -0.55699998 0.2
-27.85 9.4709997 -0.56199998 0.23999999
-27.982 9.4180002 -0.565 0.17
-28.511 9.5450001 -0.579 0.33000001
-28.570999 9.4659996 -0.57999998 0.20999999
-28.632999 9.3859997 -0.58099997 0.12
-31.697001 10.278 -0.66399997 0.079999998
-28.358 9.1000004 -0.57200003 0.17
-28.472 9.0380001 -0.574 0.30000001
-28.165001 8.8430004 -0.565 0.22
-28.280001 8.8299999 -0.56800002 0.18000001
-28.044001 8.6599998 -0.56099999 0
-34.740002 10.602 -0.74199998 0
-34.831001 10.51 -0.74400002 0.079999998
-28.565001 8.5270004 -0.57300001 0.16
-28.611 8.4429998 -0.57300001 0.20999999
-28.597 8.3409996 -0.57200003 0.36000001
-30.622999 8.8780003 -0.62699997 0.18000001
-30.403999 8.7110004 -0.62 0.25999999
-30.382 8.6020002 -0.61900002 0.19
-30.615999 8.5640001 -0.62400001 0.20999999
-30.319 8.3789997 -0.616 0.13
-30.01 8.1920004 -0.60600001 0.15000001
-30.518999 8.2790003 -0.62 0.14
-30.091 8.0620003 -0.60799998 0.18000001
-30.027 7.9439998 -0.60500002 0.20999999
-30.299 7.914 -0.61199999 0.37
-30.384001 7.8340001 -0.61400002 0.18000001
-30.271 7.704 -0.61000001 0.27000001
-30.344 7.6209998 -0.611 0.1
-30.497 7.6079998 -0.61500001 0.19
-30.441 7.493 -0.61299998 0.25999999
-30.42 7.3860002 -0.61199999 0
-37.021999 8.8610001 -0.78799999 0
-33.965 8.0190001 -0.70499998 0
-36.009998 8.3800001 -0.759 0
-40.922001 9.3839998 -0.88999999 0.059999999
-35.819 8.158 -0.75300002 0.090000004
-42.733002 9.5869999 -0.93699998 0.079999998
-35.550999 7.8629999 -0.745 0
-43.277 9.4239998 -0.94999999 0
-44.235001 9.4860001 -0.97500002 0
-44.263 9.3470001 -0.97500002 0
-44.48 9.2469997 -0.98000002 0.12
-44.959 9.2720003 -0.99199998 0
-46.182999 9.3730001 -1.024 0.1
-47.188999 9.4219999 -1.05 0
-47.428001 9.3149996 -1.056 0
-43.655998 8.434 -0.95499998 0
-46.286999 8.79 -1.024 0
-46.355999 8.6520004 -1.025 0.13
-39.403 7.2940001 -0.83999997 0
-39.477001 7.1799998 -0.84200001 0
-39.668999 7.086 -0.84600002 0
-43.167 7.5689998 -0.93800002 0
-43.297001 7.4510002 -0.94099998 0
-43.384998 7.3260002 -0.94300002 0.039999999
-43.391998 7.1869998 -0.94199997 0
-43.369999 7.1129999 -0.94099998 0.12
-43.554001 7.0029998 -0.94599998 0.090000004
-43.740002 6.8920002 -0.94999999 0.15000001
-43.526001 6.7179999 -0.94400001 0
-43.549 6.5819998 -0.94400001 0
-43.473999 6.4310002 -0.94099998 0
-43.410999 6.2820001 -0.93900001 0
-43.352001 6.204 -0.93699998 0
-46.598999 6.5180001 -1.022 0
-46.556 6.3629999 -1.021 0
-43.749001 5.8410001 -0.94599998 0
-43.962002 5.7290001 -0.95099998 0
-55.398998 7.0349998 -1.252 0
-55.903 6.921 -1.2640001 0
-55.918999 6.8330002 -1.2640001 0
-56.276001 6.697 -1.273 0
-56.320999 6.5229998 -1.274 0
-56.223999 6.3330002 -1.271 0
-56.365002 6.1700001 -1.274 0
-56.312 5.9850001 -1.272 0
-56.174999 5.7919998 -1.268 0
-56.521 5.7379999 -1.277 0
-65.500999 6.4380002 -1.512 0
-65.129997 6.1950002 -1.501 0
-65.266998 6.0009999 -1.505 0
-65.092003 5.7789998 -1.499 0
-66.094002 5.658 -1.525 0
-66.168999 5.4549999 -1.527 0
-69.003998 5.579 -1.601 0
-69.121002 5.3699999 -1.603 0
-69.589996 5.1859999 -1.615 0
-69.785004 4.98 -1.62 0
-69.745003 4.757 -1.618 0
-38.263 2.079 -0.79500002 0.22
-38.320999 1.961 -0.796 0.23
-38.297001 1.839 -0.79500002 0.64999998
-38.294998 1.719 -0.79500002 0.31999999
-38.290001 1.658 -0.79500002 0.36000001
-38.280998 1.5369999 -0.79400003 0.34
-38.235001 1.415 -0.79299998 0.28999999
-38.248001 1.295 -0.79299998 0.36000001
-38.230999 1.174 -0.79299998 0.34
-38.195 1.053 -0.792 0.34
-38.167999 0.93300003 -0.79100001 0.34
-38.409 0.87800002 -0.79699999 0
-38.262001 0.75400001 -0.79299998 0
-39.619999 0.65600002 -0.829 0
-40.041 0.537 -0.83999997 0
-74.653999 -10.226 -1.76 0
-73.744003 -10.337 -1.737 0
-72.637001 -10.414 -1.709 0
-70.634003 -10.353 -1.6569999 0
-69.433998 -10.399 -1.626 0
-68.192001 -10.432 -1.594 0
-65.143997 -10.069 -1.5140001 0
-64.236 -10.135 -1.4910001 0
-63.874001 -10.284 -1.482 0
-61.120998 -10.037 -1.411 0
-60.112999 -10.065 -1.385 0
-59.146999 -10.094 -1.36 0
-57.687 -10.031 -1.322 0
-57.082001 -10.018 -1.307 0
-56.432999 -10.086 -1.29 0
-55.754002 -10.145 -1.273 0
-53.235001 -9.8590002 -1.207 0
-52.400002 -9.8739996 -1.186 0
-51.452 -9.8620005 -1.161 0
-50.605999 -9.8649998 -1.14 0
-49.183998 -9.6669998 -1.102 0
-48.328999 -9.6560001 -1.081 0
-47.409 -9.6269999 -1.057 0.07
-46.743999 -9.6450005 -1.04 0.13
-45.883999 -9.6169996 -1.018 0.22
-45.448002 -9.6750002 -1.007 0.25
-45.088001 -9.7460003 -0.99800003 0.19
-44.473 -9.6859999 -0.98199999 0.090000004
-43.115002 -9.5310001 -0.94700003 0
-42.161999 -9.4589996 -0.92199999 0.07
-41.130001 -9.3629999 -0.89499998 0.079999998
-40.73 -9.4060001 -0.88499999 0.14
-40.452999 -9.4759998 -0.87900001 0.23
-39.946999 -9.4890003 -0.866 0.16
-39.779999 -9.5159998 -0.86199999 0.14
-38.626999 -9.368 -0.83200002 0.13
-38.439999 -9.4499998 -0.82800001 0.34
-38.157001 -9.507 -0.82099998 0.19
-37.641998 -9.5050001 -0.80800003 0.25
-37.319 -9.5480003 -0.80000001 0.18000001
-36.792 -9.5360003 -0.78600001 0.31999999
-36.330002 -9.4770002 -0.77399999 0.18000001
-36.082001 -9.533 -0.76800001 0.14
-35.737 -9.5620003 -0.75999999 0.17
-35.076 -9.5030003 -0.74299997 0.20999999
-34.839001 -9.5559998 -0.73699999 0.18000001
-34.537998 -9.5900002 -0.73000002 0.20999999
-33.931999 -9.4779997 -0.71399999 0.15000001
-33.487999 -9.4680004 -0.70300001 0.34
-33.237 -9.5089998 -0.69700003 0.19
-32.931 -9.5340004 -0.68900001 0.38
-32.522999 -9.526 -0.67900002 0.18000001
-32.091999 -9.5089998 -0.66799998 0.25999999
-31.742001 -9.5139999 -0.65899998 0.2
-31.18 -9.3979998 -0.64499998 0.23
-31.179001 -9.5050001 -0.64499998 0.20999999
-30.870001 -9.5159998 -0.63800001 0.18000001
-30.714001 -9.5740004 -0.634 0.38999999
-30.507999 -9.6149998 -0.62900001 0.2
-30.236 -9.6339998 -0.62300003 0.34
-29.804001 -9.599 -0.61199999 0.2
-29.474001 -9.5430002 -0.60299999 0.30000001
-29.339001 -9.6009998 -0.60000002 0.28
-29.079 -9.6169996 -0.59399998 0.23999999
-28.641001 -9.5719995 -0.583 0.27000001
-28.325001 -9.5649996 -0.57499999 0.23999999
-28.162001 -9.6090002 -0.57099998 0.30000001
-28.024 -9.6599998 -0.56800002 0.31999999
-27.85 -9.6490002 -0.56400001 0.28999999
-27.653999 -9.6780005 -0.55900002 0.31
-27.507 -9.7229996 -0.55599999 0.27000001
-27.152 -9.6940002 -0.54699999 0.28
-26.927999 -9.7089996 -0.542 0.25999999
-26.841 -9.7729998 -0.54000002 0.30000001
-26.594 -9.7779999 -0.53399998 0.27000001
-26.396999 -9.7519999 -0.52899998 0.34
-26.021999 -9.7060003 -0.51999998 0.23
-25.752001 -9.698 -0.51300001 0.28999999
-25.6 -9.7320004 -0.509 0.30000001
-25.362 -9.7329998 -0.50400001 0.28999999
-25.231001 -9.7729998 -0.50099999 0.31999999
-24.913 -9.7399998 -0.493 0.28999999
-24.712 -9.7060003 -0.48800001 0.30000001
-24.728001 -9.802 -0.48899999 0.36000001
-24.247999 -9.6990004 -0.47600001 0.25999999
-24.101999 -9.7290001 -0.47299999 0.31999999
-24.000999 -9.776 -0.47099999 0.28999999
-23.815001 -9.7869997 -0.46700001 0.28999999
-23.691 -9.7799997 -0.46399999 0.38999999
-23.444 -9.7639999 -0.458 0.28
-23.295 -9.7880001 -0.454 0.30000001
-23.202 -9.8339996 -0.45199999 0.34
-23.055 -9.8579998 -0.449 0.28999999
-22.91 -9.8809996 -0.44600001 0.34
-22.775 -9.9069996 -0.44299999 0.37
-22.473 -9.8179998 -0.435 0.27000001
-22.278 -9.816 -0.43000001 0.30000001
-22.155001 -9.8450003 -0.42699999 0.28999999
-22.055 -9.8830004 -0.426 0.38
-21.875999 -9.8859997 -0.421 0.27000001
-21.756001 -9.9139996 -0.419 0.31
-21.559999 -9.9060001 -0.414 0.30000001
-21.281 -9.8179998 -0.40599999 0.27000001
-21.103001 -9.816 -0.40200001 0.28999999
-21.027 -9.8610001 -0.40099999 0.41999999
-20.929001 -9.8950005 -0.39899999 0.31
-20.771999 -9.901 -0.39500001 0.36000001
-20.632999 -9.9139996 -0.39199999 0.30000001
-20.546 -9.9519997 -0.391 0.36000001
-20.381001 -9.9110003 -0.38600001 0.37
-20.195 -9.8990002 -0.382 0.25999999
-20.059999 -9.9110003 -0.37900001 0.38
-19.975 -9.9469995 -0.377 0.31
-19.801001 -9.9379997 -0.373 0.27000001
-19.672001 -9.9510002 -0.37 0.36000001
-19.535 -9.9589996 -0.36700001 0.31
-19.464001 -9.9610004 -0.36500001 0.38
-19.287001 -9.9469995 -0.361 0.34
-19.164 -9.9589996 -0.35800001 0.38
-19.028 -9.9650002 -0.35499999 0.31
-18.875999 -9.9610004 -0.352 0.31999999
-18.833 -10.013 -0.35100001 0.36000001
-18.761999 -10.052 -0.34999999 0.30000001
-18.646 -10.027 -0.347 0.31999999
-18.537001 -10.044 -0.345 0.38
-18.346001 -10.014 -0.34 0.28999999
-18.25 -10.036 -0.338 0.33000001
-18.155001 -10.059 -0.33700001 0.31999999
-17.924999 -10.004 -0.331 0.31999999
-17.9 -10.027 -0.33000001 0.30000001
-17.714001 -9.9960003 -0.32600001 0.41
-17.516001 -9.9560003 -0.32100001 0.31
-17.457001 -9.9960003 -0.31999999 0.30000001
-17.365999 -10.016 -0.31799999 0.34
-17.271 -10.034 -0.31600001 0.34999999
-17.162001 -10.042 -0.31400001 0.34999999
-17.091 -10.037 -0.31200001 0.34
-17.002001 -10.057 -0.31 0.38999999
-16.959999 -10.104 -0.31 0.43000001
-16.797001 -10.078 -0.30599999 0.27000001
-16.531 -9.9879999 -0.29899999 0.34999999
-16.459999 -10.016 -0.29800001 0.38999999
-16.408001 -10.056 -0.29699999 0.31
-16.372 -10.069 -0.296 0.34
-16.302999 -10.097 -0.29499999 0.34999999
-16.125 -10.057 -0.29100001 0.34999999
-16.046 -10.078 -0.289 0.38
-15.958 -10.093 -0.28799999 0.28999999
-15.844 -10.09 -0.285 0.31999999
-15.743 -10.095 -0.28299999 0.31
-15.674 -10.085 -0.28099999 0.46000001
-15.61 -10.114 -0.28 0.34
-15.48 -10.098 -0.27700001 0.34999999
-15.436 -10.139 -0.27700001 0.38999999
-15.329 -10.138 -0.27500001 0.31
-15.139 -10.08 -0.27000001 0.38999999
-15.063 -10.098 -0.26800001 0.36000001
-14.972 -10.071 -0.266 0.27000001
-14.853 -10.059 -0.26300001 0.41
-14.734 -10.045 -0.25999999 0.38
-14.618 -10.034 -0.25799999 0.40000001
-14.552 -10.056 -0.257 0.41
-14.478 -10.072 -0.255 0.34999999
-14.338 -10.041 -0.252 0.31999999
-14.321 -10.063 -0.252 0.47999999
-14.18 -10.03 -0.248 0.28
-14.099 -10.04 -0.24699999 0.41999999
-13.951 -10 -0.243 0.31999999
-13.97 -10.08 -0.244 0.40000001
-13.843 -10.054 -0.241 0.31999999
-13.733 -10.008 -0.23800001 0.31
-13.624 -9.9940004 -0.236 0.41999999
-13.593 -10.037 -0.236 0.44
-13.526 -10.053 -0.235 0.33000001
-13.48 -10.085 -0.234 0.34999999
-13.396 -10.087 -0.233 0.40000001
-13.308 -10.087 -0.23100001 0.36000001
-13.24 -10.068 -0.229 0.31999999
-13.195 -10.1 -0.229 0.38
-13.051 -10.054 -0.22499999 0.38999999
-12.957 -10.046 -0.223 0.38
-12.854 -10.031 -0.22 0.34999999
-12.823 -10.072 -0.22 0.34
-12.741 -10.072 -0.219 0.40000001
-12.715 -10.085 -0.21799999 0.37
-12.662 -10.107 -0.21799999 0.38
-12.61 -10.13 -0.21699999 0.33000001
-12.524 -10.126 -0.215 0.41
-12.434 -10.118 -0.213 0.37
-12.344 -10.109 -0.211 0.36000001
-12.277 -10.119 -0.20999999 0.36000001
-12.241 -10.121 -0.20900001 0.31
-12.152 -10.112 -0.208 0.38999999
-12.093 -10.127 -0.207 0.37
-12.018 -10.129 -0.205 0.38
-11.933 -10.121 -0.20299999 0.40000001
-11.851 -10.116 -0.20200001 0.33000001
-11.786 -10.124 -0.2 0.36000001
-11.744 -10.121 -0.2 0.36000001
-11.655 -10.108 -0.198 0.37
-11.561 -10.09 -0.19499999 0.37
-11.498 -10.099 -0.19400001 0.38
-11.44 -10.111 -0.193 0.38
-11.396 -10.136 -0.193 0.34999999
-11.331 -10.142 -0.192 0.41
-11.247 -10.099 -0.189 0.38
-11.175 -10.098 -0.18799999 0.38
-11.074 -10.069 -0.186 0.36000001
-10.938 -10.008 -0.182 0.31999999
-10.902 -10.038 -0.182 0.38
-10.85 -10.053 -0.18099999 0.38999999
-10.79 -10.03 -0.17900001 0.44999999
-10.702 -10.01 -0.177 0.31
-10.651 -10.026 -0.177 0.43000001
-10.63 -10.069 -0.177 0.38999999
-10.549 -10.055 -0.175 0.37
-10.454 -10.027 -0.17299999 0.38
-10.391 -10.029 -0.17200001 0.36000001
-10.323 -9.9960003 -0.17 0.31999999
-10.285 -10.021 -0.17 0.38999999
-10.208 -10.008 -0.168 0.41999999
-10.142 -10.007 -0.167 0.38
-10.116 -10.044 -0.167 0.38
-10.071 -10.062 -0.16599999 0.33000001
-10.011 -10.065 -0.16500001 0.44999999
-10.005 -10.091 -0.16599999 0.27000001
-9.948 -10.096 -0.16500001 0.47
-9.8769999 -10.087 -0.163 0.28999999
-9.8299999 -10.103 -0.163 0.40000001
-9.7360001 -10.069 -0.16 0.38999999
-9.6599998 -10.053 -0.15899999 0.36000001
-9.6079998 -10.062 -0.15800001 0.34
-9.6040001 -10.09 -0.15899999 0.43000001
-9.559 -10.105 -0.15800001 0.40000001
-9.5340004 -10.142 -0.15800001 0.30000001
-9.4720001 -10.14 -0.15700001 0.46000001
-9.3940001 -10.12 -0.155 0.33000001
-9.3439999 -10.13 -0.155 0.33000001
-9.2799997 -10.124 -0.153 0.44
-9.2309999 -10.102 -0.152 0.34999999
-9.2089996 -10.143 -0.153 0.38
-9.1529999 -10.145 -0.152 0.43000001
-9.0559998 -10.1 -0.149 0.31999999
-9.0469999 -10.154 -0.15000001 0.31999999
-9.0109997 -10.178 -0.15000001 0.41
-8.9259996 -10.146 -0.148 0.33000001
-8.8570004 -10.098 -0.146 0.40000001
-8.8129997 -10.113 -0.145 0.40000001
-8.7659998 -10.122 -0.14399999 0.38
-8.7040005 -10.115 -0.14300001 0.38
-8.6630001 -10.131 -0.14300001 0.38999999
-8.5749998 -10.093 -0.141 0.38
-8.5530005 -10.099 -0.14 0.40000001
-8.5120001 -10.115 -0.14 0.34
-8.4610004 -10.118 -0.139 0.41999999
-8.3990002 -10.108 -0.138 0.34
-8.3559999 -10.12 -0.13699999 0.44999999
-8.3000002 -10.117 -0.13699999 0.36000001
-8.2720003 -10.148 -0.13699999 0.41
-8.2379999 -10.139 -0.13600001 0.34
-8.1660004 -10.115 -0.134 0.41
-8.1129999 -10.114 -0.133 0.34
-8.052 -10.102 -0.132 0.41
-8.0109997 -10.116 -0.132 0.33000001
-7.9499998 -10.104 -0.131 0.44
-7.9130001 -10.122 -0.13 0.36000001
-7.882 -10.116 -0.13 0.38
-7.8319998 -10.117 -0.12899999 0.37
-7.7979999 -10.138 -0.12899999 0.38
-7.744 -10.134 -0.12800001 0.37
-7.6690001 -10.101 -0.126 0.40000001
-7.652 -10.144 -0.127 0.36000001
-7.6149998 -10.129 -0.126 0.44999999
-7.585 -10.154 -0.126 0.43000001
-7.5430002 -10.165 -0.125 0.34
-7.4640002 -10.124 -0.123 0.36000001
-7.4239998 -10.136 -0.123 0.36000001
-7.3600001 -10.116 -0.121 0.38999999
-7.3130002 -10.118 -0.121 0.43000001
-7.2740002 -10.097 -0.12 0.36000001
-7.2399998 -10.116 -0.12 0.38
-7.1999998 -10.128 -0.119 0.43000001
-7.1490002 -10.122 -0.118 0.37
-7.105 -10.128 -0.118 0.38999999
-7.0700002 -10.146 -0.118 0.34
-7.0040002 -10.119 -0.116 0.33000001
-6.9759998 -10.111 -0.116 0.38999999
-6.9349999 -10.12 -0.115 0.30000001
-6.8829999 -10.112 -0.114 0.55000001
-6.8319998 -10.105 -0.113 0.27000001
-6.803 -10.13 -0.113 0.27000001
-6.743 -10.11 -0.112 0.47
-6.71 -10.129 -0.112 0.43000001
-6.6989999 -10.147 -0.112 0.37
-6.6550002 -10.149 -0.112 0.33000001
-6.5900002 -10.12 -0.11 0.31999999
-6.5669999 -10.154 -0.111 0.38
-6.5380001 -10.179 -0.111 0.40000001
-6.4860001 -10.168 -0.11 0.44
-6.4419999 -10.17 -0.109 0.27000001
-6.4200001 -10.169 -0.109 0.41
-6.3730001 -10.166 -0.108 0.38999999
-6.3299999 -10.167 -0.108 0.38999999
-6.2719998 -10.144 -0.106 0.43000001
-6.2090001 -10.115 -0.105 0.34
-6.1929998 -10.16 -0.106 0.41
-6.1570001 -10.172 -0.105 0.37
-6.131 -10.165 -0.105 0.37
-6.0760002 -10.146 -0.104 0.37
-6.026 -10.134 -0.103 0.34
-5.9990001 -10.162 -0.103 0.43000001
-5.947 -10.146 -0.102 0.38
-5.9450002 -10.217 -0.103 0.40000001
-5.9239998 -10.217 -0.103 0.31999999
-5.8790002 -10.213 -0.103 0.30000001
-5.8260002 -10.195 -0.101 0.36000001
-5.7930002 -10.212 -0.101 0.38999999
-5.7379999 -10.188 -0.1 0.37
-5.7179999 -10.229 -0.101 0.34
-5.6459999 -10.173 -0.098999999 0.31999999
-5.6240001 -10.171 -0.097999997 0.43000001
-5.5890002 -10.184 -0.097999997 0.36000001
-5.5619998 -10.21 -0.097999997 0.43000001
-5.4970002 -10.166 -0.097000003 0.38999999
-5.4590001 -10.172 -0.096000001 0.34999999
-5.421 -10.179 -0.096000001 0.36000001
-5.3930001 -10.203 -0.096000001 0.36000001
-5.3390002 -10.139 -0.093999997 0.40000001
-5.2919998 -10.127 -0.093000002 0.36000001
-5.283 -10.188 -0.094999999 0.34
-5.2490001 -10.199 -0.093999997 0.44999999
-5.1880002 -10.161 -0.093000002 0.36000001
-5.1430001 -10.15 -0.092 0.31
-5.1160002 -10.175 -0.092 0.41
-5.085 -10.154 -0.090999998 0.36000001
-5.0630002 -10.19 -0.092 0.34
-5.027 -10.197 -0.092 0.30000001
-4.994 -10.211 -0.092 0.44
-4.934 -10.169 -0.090000004 0.31
-4.8969998 -10.174 -0.090000004 0.34999999
-4.8860002 -10.192 -0.090000004 0.38999999
-4.8499999 -10.2 -0.090000004 0.38999999
-4.8119998 -10.201 -0.089000002 0.38999999
-4.7909999 -10.239 -0.090000004 0.40000001
-4.7360001 -10.205 -0.089000002 0.31
-4.691 -10.193 -0.088 0.46000001
-4.6789999 -10.251 -0.089000002 0.25
-4.6110001 -10.144 -0.086000003 0.47999999
-4.5900002 -10.182 -0.086999997 0.36000001
-4.566 -10.215 -0.086999997 0.44
-4.513 -10.181 -0.086000003 0.36000001
-4.474 -10.181 -0.085000001 0.37
-4.4439998 -10.199 -0.085000001 0.36000001
-4.401 -10.187 -0.085000001 0.36000001
-4.3930001 -10.214 -0.085000001 0.38
-4.3449998 -10.189 -0.083999999 0.40000001
-4.3010001 -10.175 -0.082999997 0.33000001
-4.2690001 -10.188 -0.082999997 0.38999999
-4.2389998 -10.205 -0.082999997 0.38999999
-4.1999998 -10.202 -0.082999997 0.23
-4.1440001 -10.156 -0.081 0.47999999
-4.1529999 -10.225 -0.082999997 0.34999999
-4.0999999 -10.185 -0.082000002 0.41
-4.0760002 -10.218 -0.082000002 0.31
-4.0440001 -10.231 -0.082000002 0.41
-4.0029998 -10.223 -0.082000002 0.34
-3.9679999 -10.226 -0.081 0.41
-3.921 -10.201 -0.079999998 0.41
-3.902 -10.198 -0.079999998 0.34
-3.832 -10.111 -0.077 0.41999999
-3.829 -10.2 -0.079000004 0.34
-3.8080001 -10.242 -0.079999998 0.34
-3.7809999 -10.267 -0.081 0.38999999
-3.744 -10.265 -0.079999998 0.43000001
-3.724 -10.26 -0.079999998 0.28
-3.6930001 -10.277 -0.079999998 0.43000001
-3.6489999 -10.255 -0.079000004 0.25999999
-3.5999999 -10.217 -0.078000002 0.38
-3.5599999 -10.206 -0.077 0.38
-3.5190001 -10.191 -0.075999998 0.34
-3.4760001 -10.171 -0.075999998 0.43000001
-3.4649999 -10.192 -0.075999998 0.41
-3.431 -10.195 -0.075999998 0.34999999
-3.4030001 -10.219 -0.075999998 0.38
-3.3570001 -10.188 -0.075000003 0.34
-3.325 -10.197 -0.075000003 0.46000001
-3.29 -10.197 -0.075000003 0.28999999
-3.2639999 -10.229 -0.075000003 0.40000001
-3.2460001 -10.226 -0.075000003 0.38999999
-3.201 -10.194 -0.074000001 0.34999999
-3.1630001 -10.185 -0.072999999 0.36000001
-3.132 -10.199 -0.072999999 0.31999999
-3.082 -10.149 -0.071999997 0.37
-3.043 -10.136 -0.071000002 0.31
-3.02 -10.174 -0.071999997 0.46000001
-2.9990001 -10.164 -0.071999997 0.28999999
-2.971 -10.185 -0.071999997 0.44999999
-2.9330001 -10.175 -0.071000002 0.38
-2.9059999 -10.199 -0.071999997 0.38999999
-2.8740001 -10.21 -0.071999997 0.41999999
-2.8329999 -10.188 -0.071000002 0.34
-2.823 -10.212 -0.071999997 0.38
-2.796 -10.24 -0.071999997 0.40000001
-2.7639999 -10.249 -0.071999997 0.30000001
-2.73 -10.252 -0.071999997 0.41
-2.6949999 -10.251 -0.071999997 0.33000001
-2.6559999 -10.234 -0.071000002 0.47
-2.6210001 -10.23 -0.071000002 0.28999999
-2.5840001 -10.149 -0.068000004 0.44
-2.566 -10.216 -0.07 0.38
-2.5350001 -10.225 -0.07 0.38999999
-2.497 -10.212 -0.068999998 0.37
-2.461 -10.202 -0.068999998 0.38999999
-2.427 -10.202 -0.068999998 0.31
-2.395 -10.21 -0.068999998 0.41999999
-2.3840001 -10.235 -0.068999998 0.27000001
-2.345 -10.211 -0.068000004 0.47999999
-2.316 -10.234 -0.068999998 0.38999999
-2.283 -10.237 -0.068999998 0.43000001
-2.244 -10.213 -0.068000004 0.38
-2.2160001 -10.238 -0.068000004 0.33000001
-2.1670001 -10.167 -0.066 0.34
-2.1389999 -10.109 -0.064999998 0.37
-2.1099999 -10.134 -0.064999998 0.41
-2.092 -10.205 -0.067000002 0.31999999
-2.0569999 -10.198 -0.067000002 0.40000001
-2.0220001 -10.188 -0.066 0.36000001
-1.989 -10.189 -0.066 0.37
-1.973 -10.192 -0.066 0.41
-1.942 -10.206 -0.066 0.38
-1.892 -10.112 -0.064000003 0.28
-1.8710001 -10.182 -0.064999998 0.43000001
-1.84 -10.192 -0.064999998 0.38
-1.8049999 -10.182 -0.064999998 0.37
-1.776 -10.202 -0.064999998 0.31999999
-1.762 -10.216 -0.066 0.43000001
-1.725 -10.196 -0.064999998 0.38
-1.6950001 -10.209 -0.064999998 0.38999999
-1.655 -10.165 -0.064000003 0.38999999
-1.625 -10.184 -0.064000003 0.31999999
-1.5880001 -10.16 -0.063000001 0.44999999
-1.5599999 -10.188 -0.064000003 0.2
-1.545 -10.197 -0.064000003 0.52999997
-1.513 -10.203 -0.064000003 0.28999999
-1.482 -10.212 -0.064000003 0.47
-1.448 -10.207 -0.064000003 0.34
-1.414 -10.197 -0.064000003 0.41
-1.382 -10.2 -0.064000003 0.34
-1.35 -10.208 -0.064000003 0.46000001
-1.3329999 -10.202 -0.064000003 0.34
-1.303 -10.218 -0.064000003 0.37
-1.272 -10.23 -0.064000003 0.37
-1.2410001 -10.25 -0.064000003 0.31999999
-1.207 -10.238 -0.064000003 0.38
-1.175 -10.244 -0.064000003 0.43000001
-1.1569999 -10.23 -0.064000003 0.31999999
-1.123 -10.209 -0.063000001 0.38999999
-1.098 -10.279 -0.064999998 0.38
-1.063 -10.26 -0.064000003 0.37
-1.029 -10.245 -0.064000003 0.36000001
-1 -10.282 -0.064999998 0.37
-0.96499997 -10.254 -0.064000003 0.41999999
-0.94800001 -10.251 -0.064000003 0.34
-0.91500002 -10.244 -0.063000001 0.41
-0.87699997 -10.179 -0.061999999 0.30000001
-0.85299999 -10.274 -0.064000003 0.34999999
-0.82099998 -10.276 -0.064000003 0.41999999
-0.787 -10.259 -0.064000003 0.38
-0.755 -10.263 -0.064000003 0.34
-0.73900002 -10.27 -0.064000003 0.41
-0.70499998 -10.247 -0.063000001 0.30000001
-0.67199999 -10.233 -0.063000001 0.44999999
-0.64099997 -10.259 -0.063000001 0.36000001
-0.60500002 -10.201 -0.061999999 0.43000001
-0.57499999 -10.239 -0.063000001 0.33000001
-0.54299998 -10.229 -0.061999999 0.44
-0.52399999 -10.186 -0.061000001 0.38999999
-0.49200001 -10.179 -0.061000001 0.41
-0.46000001 -10.187 -0.061000001 0.31
-0.42899999 -10.22 -0.061999999 0.38999999
-0.39700001 -10.217 -0.061999999 0.37
-0.36500001 -10.217 -0.061999999 0.38
-0.34799999 -10.197 -0.061000001 0.33000001
-0.31600001 -10.19 -0.061000001 0.37
-0.28400001 -10.187 -0.061000001 0.37
-0.25099999 -10.166 -0.059999999 0.46000001
-0.22 -10.183 -0.061000001 0.27000001
-0.18799999 -10.209 -0.061999999 0.50999999
-0.156 -10.212 -0.061999999 0.27000001
-0.14 -10.23 -0.061999999 0.37
-0.108 -10.21 -0.061999999 0.31999999
-0.075999998 -10.205 -0.061000001 0.34999999
-0.044 -10.213 -0.061999999 0.38
-0.012 -10.193 -0.061000001 0.36000001
0.02 -10.183 -0.061000001 0.41
0.052000001 -10.143 -0.059999999 0.31999999
0.068000004 -10.169 -0.059999999 0.41
0.1 -10.209 -0.061000001 0.36000001
0.133 -10.216 -0.061999999 0.37
0.16500001 -10.25 -0.063000001 0.34999999
0.197 -10.227 -0.061999999 0.38
0.23 -10.244 -0.061999999 0.43000001
0.26199999 -10.236 -0.061999999 0.30000001
0.278 -10.231 -0.061999999 0.37
0.30899999 -10.21 -0.061999999 0.38999999
0.34099999 -10.215 -0.061999999 0.41999999
0.37200001 -10.19 -0.061000001 0.46000001
0.40400001 -10.175 -0.061000001 0.31999999
0.43700001 -10.21 -0.061999999 0.34
0.45199999 -10.181 -0.061000001 0.34999999
0.484 -10.17 -0.061000001 0.41
0.51599997 -10.166 -0.061000001 0.31999999
0.54900002 -10.186 -0.061000001 0.38999999
0.579 -10.155 -0.059999999 0.38
0.611 -10.149 -0.059999999 0.37
0.64300001 -10.153 -0.061000001 0.28999999
0.66100001 -10.19 -0.061999999 0.34
0.69199997 -10.174 -0.061000001 0.34
0.727 -10.205 -0.061999999 0.28
0.759 -10.209 -0.061999999 0.44999999
0.79000002 -10.194 -0.061999999 0.33000001
0.824 -10.21 -0.061999999 0.36000001
0.85699999 -10.219 -0.063000001 0.38999999
0.87300003 -10.214 -0.063000001 0.38
0.90399998 -10.207 -0.061999999 0.33000001
0.935 -10.184 -0.061999999 0.40000001
0.96600002 -10.175 -0.061999999 0.41999999
0.99900001 -10.186 -0.061999999 0.31999999
1.034 -10.211 -0.063000001 0.38999999
1.0650001 -10.192 -0.061999999 0.37
1.086 -10.236 -0.064000003 0.33000001
1.12 -10.254 -0.064000003 0.33000001
1.152 -10.248 -0.064000003 0.41
1.182 -10.221 -0.064000003 0.36000001
1.214 -10.223 -0.064000003 0.37
1.248 -10.233 -0.064000003 0.38999999
1.266 -10.243 -0.064000003 0.41
1.299 -10.243 -0.064000003 0.34
1.3279999 -10.217 -0.064000003 0.38
1.359 -10.209 -0.064000003 0.38999999
1.398 -10.248 -0.064999998 0.34
1.429 -10.238 -0.064999998 0.34999999
1.466 -10.265 -0.066 0.40000001
1.485 -10.282 -0.066 0.37
1.516 -10.274 -0.066 0.30000001
1.552 -10.291 -0.067000002 0.40000001
1.587 -10.301 -0.067000002 0.36000001
1.618 -10.293 -0.067000002 0.43000001
1.65 -10.285 -0.067000002 0.38
1.6849999 -10.292 -0.067000002 0.44999999
1.693 -10.24 -0.066 0.33000001
1.735 -10.294 -0.067000002 0.36000001
1.77 -10.304 -0.068000004 0.33000001
1.807 -10.326 -0.068999998 0.41
1.834 -10.289 -0.068000004 0.2
1.86 -10.248 -0.067000002 0.56999999
1.904 -10.305 -0.068999998 0.34999999
1.931 -10.359 -0.07 0.36000001
1.962 -10.345 -0.07 0.40000001
2.0009999 -10.372 -0.071000002 0.31999999
2.036 -10.379 -0.071000002 0.47999999
2.076 -10.408 -0.071999997 0.28999999
2.1099999 -10.409 -0.071999997 0.37
2.132 -10.433 -0.072999999 0.31999999
2.1619999 -10.411 -0.072999999 0.5
2.198 -10.422 -0.072999999 0.31999999
2.223 -10.38 -0.071999997 0.47999999
2.263 -10.406 -0.072999999 0.34
2.2939999 -10.393 -0.072999999 0.34
2.3280001 -10.391 -0.072999999 0.38
2.3499999 -10.409 -0.074000001 0.44
2.382 -10.4 -0.072999999 0.40000001
2.4159999 -10.4 -0.074000001 0.31999999
2.4489999 -10.394 -0.074000001 0.36000001
2.484 -10.394 -0.074000001 0.38999999
2.526 -10.423 -0.075000003 0.28
2.553 -10.392 -0.074000001 0.47
2.5739999 -10.409 -0.075000003 0.31
2.609 -10.409 -0.075000003 0.30000001
2.6400001 -10.393 -0.075000003 0.36000001
2.6789999 -10.412 -0.075999998 0.38999999
2.7160001 -10.419 -0.075999998 0.33000001
2.75 -10.414 -0.075999998 0.36000001
2.786 -10.419 -0.075999998 0.40000001
2.8010001 -10.411 -0.075999998 0.34999999
2.8369999 -10.413 -0.077 0.38
2.8759999 -10.427 -0.077 0.34
2.9059999 -10.409 -0.077 0.43000001
2.9489999 -10.434 -0.078000002 0.30000001
2.98 -10.419 -0.078000002 0.46000001
2.994 -10.407 -0.078000002 0.36000001
3.033 -10.416 -0.078000002 0.44999999
3.0710001 -10.426 -0.079000004 0.34
3.1040001 -10.416 -0.079000004 0.38
3.1429999 -10.429 -0.079000004 0.38999999
3.1819999 -10.439 -0.079999998 0.40000001
3.2179999 -10.438 -0.079999998 0.38999999
3.2320001 -10.425 -0.079999998 0.41
3.277 -10.453 -0.081 0.38999999
3.3069999 -10.435 -0.081 0.38
3.348 -10.45 -0.081 0.41999999
3.3900001 -10.469 -0.082000002 0.40000001
3.431 -10.482 -0.082999997 0.31
3.4619999 -10.52 -0.083999999 0.34999999
3.5 -10.524 -0.083999999 0.34999999
3.5280001 -10.498 -0.083999999 0.34999999
3.572 -10.519 -0.085000001 0.33000001
3.6129999 -10.532 -0.086000003 0.37
3.6470001 -10.523 -0.086000003 0.31999999
3.681 -10.515 -0.086000003 0.44
3.7090001 -10.539 -0.086999997 0.38
3.737 -10.514 -0.086000003 0.38999999
3.77 -10.503 -0.086000003 0.31999999
3.8080001 -10.504 -0.086999997 0.47
3.8340001 -10.473 -0.086000003 0.28
3.8970001 -10.543 -0.088 0.34
3.9330001 -10.537 -0.089000002 0.44999999
3.9449999 -10.519 -0.088 0.38
3.9860001 -10.527 -0.089000002 0.34
4.0219998 -10.522 -0.089000002 0.38
4.0500002 -10.497 -0.089000002 0.38999999
4.0939999 -10.512 -0.089000002 0.31999999
4.1269999 -10.501 -0.089000002 0.47999999
4.165 -10.499 -0.090000004 0.40000001
4.1830001 -10.498 -0.090000004 0.36000001
4.2309999 -10.52 -0.090999998 0.40000001
4.2659998 -10.512 -0.090999998 0.37
4.309 -10.523 -0.092 0.37
4.362 -10.557 -0.093000002 0.31
4.381 -10.51 -0.092 0.41999999
4.401 -10.511 -0.092 0.33000001
4.4499998 -10.535 -0.093000002 0.38
4.4980001 -10.556 -0.093999997 0.36000001
4.5409999 -10.564 -0.094999999 0.31999999
4.566 -10.531 -0.094999999 0.44999999
4.605 -10.53 -0.094999999 0.41
4.665 -10.576 -0.097000003 0.31999999
4.7140002 -10.643 -0.098999999 0.38
4.7249999 -10.577 -0.097000003 0.41
4.7719998 -10.593 -0.097999997 0.38
4.7950001 -10.555 -0.097999997 0.37
4.835 -10.556 -0.097999997 0.31999999
4.8410001 -10.483 -0.096000001 0.43000001
4.928 -10.581 -0.1 0.38
4.9400001 -10.565 -0.098999999 0.33000001
4.9530001 -10.506 -0.097999997 0.28
4.9819999 -10.483 -0.097999997 0.46000001
5.0489998 -10.537 -0.1 0.36000001
5.0960002 -10.55 -0.101 0.34
5.1430001 -10.563 -0.102 0.38999999
5.1609998 -10.514 -0.101 0.41999999
5.2129998 -10.58 -0.103 0.38
5.283 -10.637 -0.105 0.37
5.2989998 -10.584 -0.104 0.38
5.3709998 -10.644 -0.106 0.40000001
5.414 -10.647 -0.107 0.40000001
5.4629998 -10.66 -0.108 0.30000001
5.4580002 -10.609 -0.106 0.46000001
5.4879999 -10.586 -0.106 0.31
5.5149999 -10.557 -0.106 0.5
5.5770001 -10.594 -0.107 0.38999999
5.6290002 -10.612 -0.109 0.34
5.6789999 -10.624 -0.109 0.38
5.724 -10.627 -0.11 0.43000001
5.7449999 -10.627 -0.11 0.38999999
5.802 -10.653 -0.112 0.33000001
5.848 -10.657 -0.112 0.41
5.8969998 -10.667 -0.113 0.36000001
5.941 -10.666 -0.114 0.36000001
6.006 -10.704 -0.115 0.38999999
6.033 -10.673 -0.115 0.38999999
6.073 -10.704 -0.116 0.30000001
6.0949998 -10.665 -0.116 0.46000001
6.158 -10.696 -0.117 0.30000001
6.1929998 -10.68 -0.117 0.47
6.2350001 -10.675 -0.118 0.31
6.276 -10.667 -0.118 0.43000001
6.3080001 -10.646 -0.118 0.40000001
6.3410001 -10.663 -0.119 0.44
6.4109998 -10.703 -0.121 0.43000001
6.434 -10.666 -0.12 0.31999999
6.52 -10.731 -0.123 0.40000001
6.5650001 -10.729 -0.123 0.36000001
6.6079998 -10.724 -0.124 0.37
6.6399999 -10.737 -0.124 0.41999999
6.6789999 -10.725 -0.125 0.31999999
6.7129998 -10.705 -0.125 0.47
6.776 -10.73 -0.126 0.34
6.8249998 -10.732 -0.127 0.40000001
6.8590002 -10.712 -0.127 0.38
6.8899999 -10.686 -0.127 0.37
6.9850001 -10.796 -0.131 0.33000001
7.0120001 -10.763 -0.13 0.37
7.059 -10.761 -0.131 0.44
7.1040001 -10.756 -0.131 0.33000001
7.152 -10.755 -0.132 0.44999999
7.1900001 -10.739 -0.132 0.34
7.2719998 -10.788 -0.13500001 0.36000001
7.29 -10.778 -0.13500001 0.36000001
7.3720002 -10.824 -0.13699999 0.40000001
7.4190001 -10.821 -0.13699999 0.40000001
7.4710002 -10.824 -0.138 0.38999999
7.5100002 -10.807 -0.138 0.36000001
7.5609999 -10.808 -0.139 0.41
7.632 -10.836 -0.141 0.33000001
7.677 -10.863 -0.142 0.38
7.7639999 -10.914 -0.145 0.36000001
7.7540002 -10.828 -0.14300001 0.38999999
7.869 -10.915 -0.146 0.37
7.9499998 -10.955 -0.148 0.36000001
7.8629999 -10.764 -0.14300001 0.41999999
8.0279999 -10.953 -0.149 0.34999999
8.0860004 -10.96 -0.15000001 0.43000001
8.158 -10.984 -0.152 0.34
8.2180004 -10.993 -0.153 0.41
8.29 -11.017 -0.155 0.43000001
8.3380003 -11.008 -0.155 0.34
8.4250002 -11.05 -0.15800001 0.34
8.4540005 -11.053 -0.15800001 0.43000001
8.4809999 -11.015 -0.15800001 0.33000001
8.5450001 -11.027 -0.15899999 0.5
8.6129999 -11.042 -0.16 0.30000001
8.6789999 -11.056 -0.162 0.47
8.7620001 -11.09 -0.164 0.36000001
8.8599997 -11.14 -0.16599999 0.41
8.9370003 -11.201 -0.169 0.40000001
9.026 -11.24 -0.171 0.36000001
9.1230001 -11.288 -0.17399999 0.34999999
9.1859999 -11.293 -0.175 0.34999999
9.2609997 -11.312 -0.176 0.38999999
9.3079996 -11.297 -0.177 0.34
9.3369999 -11.26 -0.177 0.43000001
9.3179998 -11.201 -0.175 0.36000001
9.4540005 -11.292 -0.17900001 0.38
9.4980001 -11.272 -0.18000001 0.31
9.5690002 -11.284 -0.18099999 0.41
9.6409998 -11.297 -0.183 0.40000001
9.724 -11.321 -0.184 0.36000001
9.7700005 -11.339 -0.186 0.38999999
9.8409996 -11.349 -0.18700001 0.41
9.9440002 -11.395 -0.19 0.33000001
10.01 -11.398 -0.191 0.33000001
10.071 -11.395 -0.192 0.38999999
10.127 -11.385 -0.193 0.34999999
10.255 -11.456 -0.19599999 0.36000001
10.358 -11.535 -0.2 0.33000001
10.452 -11.566 -0.20200001 0.36000001
10.452 -11.493 -0.2 0.38
10.56 -11.539 -0.20299999 0.31
10.759 -11.681 -0.20900001 0.30000001
10.884 -11.743 -0.213 0.38999999
10.967 -11.794 -0.215 0.31999999
11.127 -11.891 -0.22 0.36000001
11.179 -11.872 -0.221 0.37
11.208 -11.828 -0.22 0.43000001
11.227 -11.774 -0.22 0.31
11.378 -11.857 -0.22400001 0.34999999
11.46 -11.867 -0.22499999 0.38999999
11.48 -11.85 -0.226 0.28
11.696 -11.997 -0.23199999 0.31
11.812 -12.04 -0.235 0.38999999
11.911 -12.066 -0.237 0.31999999
12.037 -12.116 -0.241 0.47999999
8.0129995 -8.0279999 -0.090999998 0.2
8.0299997 -7.994 -0.090999998 0.34
12.26 -12.148 -0.245 0.30000001
12.214 -12.026 -0.242 0.30000001
12.466 -12.197 -0.25 0.44999999
12.567 -12.219 -0.252 0.34
12.701 -12.271 -0.25600001 0.47
13.19 -12.663 -0.27200001 0.17
8.3549995 -7.9840002 -0.097000003 0.17
13.934 -13.25 -0.29699999 0.2
21.014999 -19.84 -0.54900002 0.23
21.059999 -19.757 -0.54799998 0.28999999
21.23 -19.792 -0.55199999 0.25999999
21.341 -19.77 -0.55400002 0.18000001
21.282 -19.591999 -0.55000001 0.43000001
21.299 -19.483999 -0.54799998 0.25999999
21.92 -19.988001 -0.56900001 0.11
21.011 -19.040001 -0.53500003 0.16
21.985001 -19.796 -0.56699997 0.22
22.046 -19.726 -0.56699997 0.14
22.344 -19.865999 -0.57499999 0.25999999
22.433001 -19.82 -0.57599998 0.20999999
22.459999 -19.780001 -0.57599998 0.11
22.547001 -19.732 -0.57700002 0.16
22.629999 -19.679001 -0.57700002 0.16
22.709999 -19.624001 -0.57800001 0.1
22.806999 -19.582001 -0.579 0.15000001
22.882999 -19.524 -0.57999998 0.1
22.974001 -19.476 -0.58099997 0.15000001
23.024 -19.457001 -0.58099997 0.1
23.122999 -19.417 -0.583 0.15000001
23.202999 -19.358999 -0.583 0.1
23.297001 -19.313999 -0.58399999 0.15000001
23.382999 -19.261 -0.58499998 0.1
23.471001 -19.209999 -0.58600003 0.15000001
23.548 -19.15 -0.58700001 0.090000004
23.617001 -19.145 -0.588 0.14
23.695999 -19.086 -0.58899999 0.090000004
23.787001 -19.035999 -0.58999997 0.14
23.872999 -18.982 -0.59100002 0.090000004
23.964001 -18.931999 -0.59200001 0.14
24.052999 -18.879999 -0.59299999 0.090000004
24.1 -18.856001 -0.59299999 0
24.183001 -18.798 -0.59399998 0
24.275 -18.747999 -0.59500003 0
24.364 -18.695 -0.59600002 0
24.448 -18.636999 -0.597 0
24.540001 -18.586 -0.59799999 0
8.1499996 -6.1339998 -0.061000001 0.28
8.3669996 -6.256 -0.068000004 0
24.858999 -18.400999 -0.602 0.050000001
24.941 -18.34 -0.60299999 0.14
25.018 -18.275999 -0.60299999 0.090000004
25.122 -18.231001 -0.60500002 0.11
8.375 -6.059 -0.064999998 0
25.235001 -18.132 -0.60600001 0.039999999
25.309999 -18.066 -0.60600001 0.090000004
25.370001 -17.988001 -0.60600001 0.090000004
25.457001 -17.93 -0.60699999 0.090000004
25.546 -17.872999 -0.60799998 0.090000004
25.625 -17.809 -0.60900003 0.090000004
25.679001 -17.787001 -0.61000001 0.090000004
25.77 -17.73 -0.611 0.090000004
25.849001 -17.665001 -0.61199999 0.090000004
25.927 -17.599001 -0.61199999 0.079999998
26.014999 -17.540001 -0.61299998 0.090000004
26.087 -17.469 -0.61400002 0.090000004
26.187 -17.417 -0.61500001 0.14
26.261999 -17.408001 -0.61699998 0.22
26.370001 -17.360001 -0.61900002 0.16
26.42 -17.274 -0.61799997 0.36000001
26.490999 -17.202 -0.61900002 0.25
26.504 -17.093 -0.61799997 0.25999999
26.635 -17.059 -0.62 0.23
26.747999 -17.011999 -0.62199998 0.14
15.919 -10.102 -0.287 0.5
26.819 -16.881001 -0.62199998 0.25
26.903 -16.816 -0.62300003 0.25999999
26.971001 -16.740999 -0.62300003 0.27000001
27.045 -16.669001 -0.62400001 0.28
27.15 -16.617001 -0.625 0.28
27.214001 -16.538 -0.62599999 0.28
27.266001 -16.511 -0.62699997 0.27000001
27.368 -16.455 -0.62800002 0.28
27.431 -16.375999 -0.62800002 0.25999999
27.474001 -16.285 -0.62800002 0.30000001
27.546 -16.211 -0.62900001 0.28
27.601999 -16.127001 -0.62900001 0.28999999
27.688 -16.061001 -0.63 0.28
27.746 -16.037001 -0.63099998 0.28999999
27.847 -15.979 -0.63300002 0.25999999
27.893999 -15.889 -0.63200003 0.30000001
27.982 -15.823 -0.634 0.27000001
28.059 -15.751 -0.634 0.28999999
28.082001 -15.648 -0.634 0.28999999
28.160999 -15.634 -0.63499999 0.25999999
28.231001 -15.557 -0.63599998 0.27000001
28.309999 -15.484 -0.63700002 0.27000001
28.409 -15.423 -0.63800001 0.28
28.455999 -15.333 -0.63800001 0.28999999
28.525 -15.254 -0.639 0.30000001
28.601 -15.18 -0.63999999 0.30000001
28.614 -15.129 -0.639 0.30000001
28.667 -15.042 -0.63999999 0.30000001
28.775999 -14.984 -0.64099997 0.28
28.868999 -14.917 -0.64300001 0.27000001
28.910999 -14.824 -0.64300001 0.27000001
29.007 -14.758 -0.64399999 0.25999999
29.025 -14.71 -0.64399999 0.28
29.121 -14.644 -0.64499998 0.28
29.127001 -14.533 -0.64399999 0.28
29.207001 -14.458 -0.64499998 0.31
29.247 -14.363 -0.64499998 0.28
29.355 -14.302 -0.64700001 0.25999999
29.448 -14.233 -0.648 0.25
29.541 -14.221 -0.64999998 0.28
29.589001 -14.13 -0.64999998 0.31
29.68 -14.059 -0.65200001 0.28999999
29.74 -13.973 -0.65200001 0.25
29.837999 -13.905 -0.65399998 0.28
29.815001 -13.78 -0.65200001 0.30000001
29.886999 -13.7 -0.653 0.27000001
29.955999 -13.674 -0.65399998 0.25999999
30.125999 -13.638 -0.65799999 0.25999999
30.138 -13.529 -0.65700001 0.30000001
30.278999 -13.478 -0.66000003 0.27000001
30.200001 -13.33 -0.65600002 0.28
30.115999 -13.18 -0.653 0.31999999
30.214001 -13.11 -0.65399998 0.27000001
30.233999 -13.062 -0.65399998 0.27000001
30.334 -12.992 -0.65600002 0.27000001
30.483 -12.943 -0.65899998 0.25999999
30.504999 -12.839 -0.65799999 0.25999999
30.566 -12.752 -0.65899998 0.17
30.613001 -12.659 -0.65899998 0.44999999
30.653 -12.619 -0.66000003 0.23999999
30.784 -12.56 -0.662 0.23999999
30.836 -12.468 -0.66299999 0.18000001
30.875 -12.371 -0.66299999 0.43000001
30.945 -12.287 -0.66399997 0.23999999
31.219999 -12.282 -0.67000002 0.2
31.32 -12.208 -0.67199999 0.40000001
31.278 -12.135 -0.67000002 0.23
31.205 -11.994 -0.667 0.25
31.312 -11.923 -0.66900003 0.18000001
31.465 -11.868 -0.67199999 0.43000001
31.572001 -11.795 -0.67400002 0.25
31.68 -11.722 -0.676 0.27000001
31.834999 -11.665 -0.67900002 0.27000001
31.872 -11.622 -0.68000001 0.28999999
31.957001 -11.54 -0.68099999 0.20999999
32.118 -11.484 -0.685 0.41
32.338001 -11.448 -0.69 0.22
32.563 -11.412 -0.69499999 0.17
32.723 -11.353 -0.699 0.41999999
32.952 -11.316 -0.704 0.23
33.146999 -11.325 -0.70899999 0.27000001
33.294998 -11.259 -0.71200001 0.17
33.554001 -11.229 -0.71799999 0.44999999
33.594002 -11.125 -0.71799999 0.23999999
33.869999 -11.098 -0.72500002 0.27000001
34.040001 -11.036 -0.72799999 0.25999999
34.229 -11.037 -0.73299998 0.27000001
34.360001 -10.96 -0.736 0.25999999
34.57 -10.908 -0.741 0.22
34.740002 -10.841 -0.74400002 0.40000001
34.948002 -10.786 -0.74900001 0.2
35.115002 -10.717 -0.75300002 0.36000001
35.396 -10.68 -0.759 0.20999999
35.629002 -10.69 -0.76499999 0.25
26.648001 -7.9109998 -0.51999998 0.16
36.459 -10.689 -0.78600001 0.31999999
36.938 -10.703 -0.79799998 0.2
37.480999 -10.733 -0.81199998 0.2
37.654999 -10.654 -0.81599998 0
38.166 -10.669 -0.829 0.14
38.578999 -10.719 -0.83899999 0.23
