# .PCD v0.7 - Point Cloud Data file format
VERSION 0.7
FIELDS x y z intensity
SIZE 4 4 4 4
TYPE F F F F
COUNT 1 1 1 1
WIDTH 1438
HEIGHT 1
VIEWPOINT 0 0 0 1 0 0 0
POINTS 1438
DATA ascii
19.642 -11.504 -1.891 0.16
19.662001 -11.433 -1.8890001 0.16
19.681 -11.361 -1.888 0.16
19.681999 -11.321 -1.886 0.16
19.691 -11.244 -1.883 0.23
19.725 -11.181 -1.883 0.23999999
19.746 -11.111 -1.881 0.25
19.756001 -11.035 -1.8789999 0.11
19.785999 -10.97 -1.878 0.16
19.82 -10.908 -1.878 0.28999999
19.806 -10.86 -1.875 0.25999999
19.815001 -10.784 -1.872 0.25999999
19.837 -10.715 -1.8710001 0.25
19.851 -10.642 -1.869 0.23999999
19.870001 -10.572 -1.868 0.1
19.898001 -10.507 -1.867 0.15000001
19.910999 -10.474 -1.867 0.23
19.959999 -10.42 -1.868 0.25
20.007999 -10.365 -1.87 0.18000001
20.052999 -10.309 -1.8710001 0.18000001
20.089001 -10.247 -1.872 0.23
20.103001 -10.175 -1.87 0.25
20.112 -10.1 -1.867 0.28999999
20.128 -10.069 -1.867 0.30000001
20.17 -10.011 -1.869 0.34
20.181999 -9.9379997 -1.867 0.28999999
20.186001 -9.8610001 -1.864 0.28999999
20.209999 -9.7939997 -1.863 0.19
20.208 -9.7150002 -1.86 0.28
20.23 -9.6470003 -1.859 0.23999999
20.226999 -9.6070004 -1.857 0.11
20.25 -9.54 -1.8559999 0.16
20.264999 -9.4700003 -1.855 0.16
20.297001 -9.4069996 -1.855 0.16
20.312 -9.3360004 -1.854 0.16
20.327999 -9.2670002 -1.852 0.16
20.351999 -9.1999998 -1.852 0.17
20.341 -9.1569996 -1.849 0.16
20.358 -9.0880003 -1.848 0.16
20.382999 -9.0220003 -1.848 0.16
20.408001 -8.9569998 -1.847 0.15000001
20.474001 -8.9090004 -1.851 0.17
20.486 -8.8380003 -1.85 0.31999999
20.493 -8.7650003 -1.848 0.31999999
20.468 -8.7159996 -1.844 0.46000001
20.497999 -8.6520004 -1.844 0.36000001
20.459 -8.5600004 -1.837 0.54000002
20.434 -8.474 -1.832 0.41999999
20.483 -8.4189997 -1.834 0.20999999
20.535999 -8.3660002 -1.837 0.16
20.565001 -8.302 -1.837 0.16
20.572001 -8.2679996 -1.837 0.16
20.587 -8.1990004 -1.836 0.16
20.605 -8.1309996 -1.835 0.16
20.642 -8.0710001 -1.836 0.14
20.687 -8.0139999 -1.8380001 0.17
20.683001 -7.9369998 -1.835 0.31
20.683001 -7.8629999 -1.8329999 0.30000001
20.655001 -7.8150001 -1.829 0.44
20.673 -7.7480001 -1.8279999 0.36000001
20.66 -7.6690001 -1.824 0.51999998
20.650999 -7.592 -1.821 0.44999999
20.639 -7.5139999 -1.818 0.27000001
20.711 -7.467 -1.822 0.17
20.725 -7.3979998 -1.822 0.17
20.739 -7.3660002 -1.822 0.17
20.739 -7.2930002 -1.8200001 0.17
20.757999 -7.2270002 -1.819 0.17
20.757999 -7.1539998 -1.817 0.17
20.816 -7.1009998 -1.8200001 0.15000001
20.858999 -7.0419998 -1.822 0.19
20.862 -6.9699998 -1.821 0.30000001
20.853001 -6.9310002 -1.819 0.31999999
20.825001 -6.849 -1.814 0.43000001
20.833 -6.7789998 -1.813 0.36000001
20.811001 -6.6989999 -1.808 0.55000001
20.792 -6.6209998 -1.8049999 0.33000001
20.778 -6.5450001 -1.801 0.47
20.834999 -6.4910002 -1.8049999 0.25999999
20.851 -6.46 -1.8049999 0.25
20.868999 -6.3940001 -1.8049999 0.25
20.886999 -6.3280001 -1.8049999 0.23999999
20.905001 -6.2620001 -1.8049999 0.25999999
20.902 -6.1890001 -1.803 0.11
20.938 -6.1279998 -1.804 0.16
20.988001 -6.072 -1.807 0.17
20.986 -6.0349998 -1.806 0.25
20.978001 -5.9619999 -1.803 0.33000001
20.974001 -5.8889999 -1.801 0.34
20.969 -5.8169999 -1.799 0.43000001
20.966 -5.7449999 -1.7970001 0.34
20.944 -5.6680002 -1.793 0.50999999
20.924 -5.6279998 -1.79 0.36000001
20.903 -5.552 -1.7869999 0.25999999
20.965 -5.4970002 -1.791 0.17
20.988001 -5.4330001 -1.7920001 0.23
20.999001 -5.3660002 -1.791 0.23999999
21.006001 -5.2969999 -1.79 0.23999999
21.014999 -5.2290001 -1.789 0.23999999
21.003 -5.191 -1.788 0.11
21.037001 -5.1300001 -1.789 0.15000001
21.094 -5.073 -1.793 0.16
21.101999 -5.0050001 -1.7920001 0.23
21.09 -4.9330001 -1.79 0.34999999
21.073 -4.8590002 -1.7869999 0.36000001
21.086 -4.7919998 -1.786 0.38999999
21.08 -4.756 -1.785 0.38
21.056 -4.6810002 -1.781 0.41999999
21.041 -4.6079998 -1.779 0.50999999
21.024 -4.5349998 -1.776 0.31
21.011 -4.4629998 -1.773 0.34
21.059999 -4.4050002 -1.777 0.25
21.09 -4.342 -1.778 0.25
21.094999 -4.3080001 -1.778 0.25999999
21.096001 -4.2399998 -1.777 0.27000001
21.108 -4.1729999 -1.777 0.11
21.118999 -4.1059999 -1.776 0.17
21.127001 -4.039 -1.776 0.28
21.173 -3.9790001 -1.779 0.19
21.174 -3.9100001 -1.778 0.28999999
21.145 -3.8710001 -1.775 0.31
21.150999 -3.803 -1.774 0.23
21.150999 -3.734 -1.773 0.34999999
21.136999 -3.664 -1.771 0.43000001
21.118999 -3.592 -1.768 0.41
21.108999 -3.5220001 -1.766 0.27000001
21.01 -3.438 -1.756 0.52999997
21.077999 -3.415 -1.762 0.23
21.106001 -3.3510001 -1.763 0.30000001
21.129999 -3.2869999 -1.7640001 0.25
21.153999 -3.223 -1.766 0.27000001
21.160999 -3.1559999 -1.765 0.27000001
21.149 -3.086 -1.763 0.27000001
21.146 -3.052 -1.763 0.2
21.135 -2.983 -1.761 0.17
21.191999 -2.9230001 -1.765 0.18000001
21.216999 -2.858 -1.767 0.20999999
21.212 -2.79 -1.765 0.23999999
21.198999 -2.72 -1.763 0.31999999
21.174 -2.6500001 -1.76 0.37
21.172001 -2.582 -1.7589999 0.34
21.142 -2.5439999 -1.756 0.46000001
21.118999 -2.474 -1.753 0.41999999
21.094999 -2.404 -1.75 0.47999999
21.09 -2.3369999 -1.749 0.28
20.955 -2.2550001 -1.7359999 0.55000001
21.059 -2.1989999 -1.745 0.25
21.063999 -2.1659999 -1.745 0.30000001
21.093 -2.102 -1.747 0.27000001
21.099001 -2.036 -1.747 0.25
21.1 -1.969 -1.747 0.25999999
21.09 -1.902 -1.745 0.25
21.084 -1.834 -1.744 0.25
21.087999 -1.768 -1.744 0.25
21.128 -1.738 -1.747 0.19
21.118999 -1.67 -1.7460001 0.20999999
21.129 -1.604 -1.747 0.25999999
21.129999 -1.538 -1.7460001 0.23
21.087 -1.4680001 -1.742 0.49000001
21.077 -1.401 -1.74 0.28999999
21.049999 -1.332 -1.738 0.51999998
21.054001 -1.299 -1.738 0.28999999
21.007999 -1.23 -1.733 0.51999998
20.992001 -1.163 -1.7309999 0.31
20.948 -1.095 -1.727 0.54000002
20.934999 -1.028 -1.725 0.33000001
20.903999 -0.96100003 -1.722 0.30000001
20.919001 -0.89600003 -1.723 0.2
20.938999 -0.86299998 -1.725 0.28
20.938999 -0.79799998 -1.725 0.25
20.941999 -0.73199999 -1.725 0.25
20.93 -0.66600001 -1.724 0.25
20.93 -0.60000002 -1.723 0.25999999
20.912001 -0.53299999 -1.722 0.25
20.909 -0.46799999 -1.721 0.11
20.938 -0.435 -1.724 0.17
20.961 -0.37 -1.726 0.22
20.948 -0.30399999 -1.725 0.23999999
20.937 -0.23800001 -1.723 0.28999999
20.924 -0.17200001 -1.722 0.28
20.9 -0.106 -1.72 0.44
20.882999 -0.039999999 -1.7180001 0.38
20.861 -0.0080000004 -1.716 0.44
19.493 0.017000001 -1.714 0.25999999
19.518999 0.078000002 -1.717 0.23999999
19.506001 0.139 -1.716 0.18000001
19.549999 0.20100001 -1.72 0.25
19.547001 0.26199999 -1.72 0.36000001
19.535999 0.324 -1.719 0.31999999
19.516001 0.354 -1.717 0.38999999
19.493 0.41499999 -1.715 0.36000001
19.485001 0.47600001 -1.714 0.47999999
19.486 0.537 -1.714 0.38
19.450001 0.597 -1.711 0.5
19.448 0.65799999 -1.711 0.37
19.408001 0.71799999 -1.707 0.52999997
19.371 0.74699998 -1.704 0.47999999
19.355 0.80699998 -1.7029999 0.47
19.289 0.86500001 -1.696 0.18000001
19.26 0.92400002 -1.694 0.46000001
19.362 0.99000001 -1.704 0.23999999
19.386999 1.053 -1.707 0.27000001
19.343 1.081 -1.7029999 0.25
19.368 1.143 -1.705 0.38
19.332001 1.202 -1.702 0.2
19.289 1.26 -1.698 0.41999999
19.295 1.322 -1.699 0.25
19.274 1.381 -1.698 0.27000001
19.275999 1.442 -1.698 0.25999999
19.278999 1.503 -1.699 0.25999999
19.249001 1.531 -1.696 0.28999999
19.238001 1.591 -1.696 0.31
19.249001 1.653 -1.697 0.25
19.236 1.7130001 -1.697 0.30000001
19.212999 1.771 -1.6950001 0.25999999
19.216999 1.8329999 -1.696 0.30000001
19.200001 1.862 -1.6950001 0.22
19.195999 1.9220001 -1.6950001 0.31
19.184 1.982 -1.694 0.44
19.202999 2.0450001 -1.697 0.34
19.177 2.1029999 -1.6950001 0.28999999
19.166 2.1630001 -1.694 0.38999999
19.153999 2.2219999 -1.694 0.28999999
19.101 2.2460001 -1.689 0.31999999
19.059999 2.302 -1.686 0.34
19.028999 2.359 -1.683 0.28
18.945999 2.4089999 -1.676 0.30000001
18.885 2.4619999 -1.67 0.31999999
18.872 2.52 -1.67 0.28
18.856001 2.579 -1.669 0.28
18.844 2.6070001 -1.668 0.28
18.822001 2.664 -1.6670001 0.27000001
18.839001 2.727 -1.67 0.28
18.809 2.783 -1.6670001 0.28
18.806 2.8429999 -1.668 0.28999999
18.804001 2.9030001 -1.669 0.28999999
18.774 2.9590001 -1.6670001 0.28
18.757 2.987 -1.665 0.28
18.761 3.0480001 -1.6670001 0.28
18.747999 3.1059999 -1.666 0.28999999
18.738001 3.165 -1.666 0.25
18.708 3.22 -1.664 0.30000001
18.691999 3.2780001 -1.664 0.27000001
18.698 3.3399999 -1.665 0.28
18.684 3.3670001 -1.665 0.28
18.667999 3.425 -1.664 0.28
18.645 3.4820001 -1.663 0.28999999
18.639999 3.5409999 -1.663 0.27000001
18.622999 3.599 -1.663 0.28
18.610001 3.6570001 -1.663 0.27000001
18.614 3.7179999 -1.664 0.27000001
18.59 3.744 -1.6619999 0.28999999
18.577999 3.802 -1.6619999 0.28
18.552999 3.858 -1.661 0.28999999
18.533001 3.914 -1.66 0.28999999
18.521999 3.973 -1.661 0.28
18.504 4.0300002 -1.66 0.27000001
18.485001 4.0869999 -1.659 0.28999999
18.475 4.1149998 -1.659 0.28
18.455999 4.1719999 -1.658 0.27000001
18.457001 4.2329998 -1.66 0.28999999
18.451 4.2919998 -1.661 0.28999999
18.455 4.355 -1.6619999 0.27000001
18.455 4.4159999 -1.664 0.25999999
18.476999 4.4829998 -1.6670001 0.27000001
18.474001 4.513 -1.668 0.27000001
18.471001 4.5739999 -1.669 0.28999999
18.472 4.6350002 -1.67 0.28
18.454 4.6929998 -1.67 0.23
18.381001 4.7350001 -1.664 0.28
18.311001 4.7789998 -1.659 0.36000001
18.384001 4.8600001 -1.668 0.44999999
18.374001 4.888 -1.6670001 0.34
18.382 4.9520001 -1.67 0.30000001
18.351 5.0050001 -1.668 0.38
18.334999 5.0630002 -1.668 0.27000001
18.311001 5.118 -1.6670001 0.31999999
18.297001 5.1760001 -1.668 0.36000001
18.235001 5.2210002 -1.663 0.31999999
18.209999 5.244 -1.661 0.28999999
18.191 5.3010001 -1.661 0.28999999
18.139999 5.348 -1.6569999 0.28999999
18.094 5.3959999 -1.654 0.27000001
18.07 5.4510002 -1.654 0.27000001
18.052999 5.5079999 -1.654 0.28
18.039 5.5650001 -1.654 0.25999999
18.018999 5.5900002 -1.653 0.27000001
18.003 5.6469998 -1.653 0.27000001
17.961 5.6960001 -1.651 0.25999999
17.912001 5.743 -1.647 0.19
17.9 5.8010001 -1.648 0.47999999
17.917 5.869 -1.652 0.18000001
7.2069998 2.369 -0.54500002 0.2
7.1859999 2.375 -0.54299998 0.23
7.1750002 2.3959999 -0.54299998 0.33000001
7.1539998 2.414 -0.54100001 0.34
7.1479998 2.437 -0.54100001 0.28999999
7.1690001 2.47 -0.54400003 0.20999999
7.474 2.6289999 -0.57800001 0.57999998
7.2690001 2.569 -0.55699998 0.22
17.722 6.3649998 -1.649 0.30000001
17.691 6.4159999 -1.648 0.28999999
17.683001 6.4770002 -1.65 0.30000001
17.676001 6.5370002 -1.651 0.30000001
17.653999 6.592 -1.651 0.28
17.631001 6.6469998 -1.651 0.31
17.636999 6.6810002 -1.652 0.28999999
17.614 6.7350001 -1.652 0.30000001
17.599001 6.7930002 -1.653 0.28999999
17.572001 6.8460002 -1.652 0.28999999
17.549999 6.901 -1.652 0.28
17.525999 6.9559999 -1.652 0.28999999
17.495001 6.9749999 -1.65 0.28999999
17.469 7.0279999 -1.649 0.28999999
17.448999 7.0840001 -1.65 0.28
17.434 7.1420002 -1.65 0.28
17.391001 7.1880002 -1.648 0.28
17.371 7.243 -1.648 0.30000001
17.362 7.3039999 -1.65 0.28
17.367001 7.3379998 -1.652 0.25999999
17.363001 7.401 -1.654 0.20999999
17.343 7.4569998 -1.654 0.41999999
17.312 7.5079999 -1.653 0.25
17.309999 7.572 -1.656 0.25999999
17.290001 7.6279998 -1.656 0.27000001
17.27 7.684 -1.656 0.25999999
17.274 7.7179999 -1.658 0.27000001
17.259001 7.777 -1.659 0.27000001
17.226999 7.8280001 -1.658 0.27000001
17.216999 7.888 -1.66 0.25999999
17.201 7.947 -1.661 0.27000001
17.172001 7.9990001 -1.661 0.25999999
17.160999 8.0600004 -1.6619999 0.25999999
17.139999 8.0819998 -1.661 0.23999999
17.122999 8.1400003 -1.6619999 0.18000001
17.103001 8.1969995 -1.663 0.43000001
17.084 8.2539997 -1.663 0.25
17.046 8.3009996 -1.6619999 0.25
17.037001 8.3640003 -1.664 0.23999999
16.993 8.408 -1.6619999 0.18000001
16.993999 8.4420004 -1.664 0.43000001
16.98 8.5019999 -1.665 0.25
16.962 8.5600004 -1.666 0.23999999
16.931999 8.6110001 -1.666 0.18000001
16.922001 8.6730003 -1.668 0.41999999
16.896999 8.7270002 -1.668 0.25
16.872999 8.7819996 -1.668 0.19
16.862 8.8100004 -1.669 0.38999999
8.2360001 4.3540001 -0.71499997 0.19
8.1709995 4.3530002 -0.70899999 0.51999998
8.1140003 4.355 -0.704 0.31999999
8.0480003 4.3520002 -0.69800001 0.47999999
7.9899998 4.3369999 -0.69300002 0.46000001
7.9239998 4.3330002 -0.68699998 0.34999999
7.8720002 4.3369999 -0.68199998 0.37
7.8270001 4.3439999 -0.67900002 0.30000001
7.7490001 4.3319998 -0.67199999 0.40000001
7.6939998 4.3330002 -0.667 0.40000001
7.6440001 4.336 -0.66299999 0.34999999
7.5669999 4.3080001 -0.65499997 0.31999999
7.5910001 4.3540001 -0.65899998 0.38
7.6440001 4.4159999 -0.667 0.31999999
7.7030001 4.4829998 -0.67500001 0.63999999
7.652 4.4860001 -0.671 0.17
7.6570001 4.5209999 -0.67299998 0.44999999
7.7129998 4.6030002 -0.68199998 0.58999997
7.756 4.6620002 -0.68900001 0.36000001
7.8099999 4.7620001 -0.69800001 0.51999998
7.8660002 4.8299999 -0.70599997 0.27000001
7.8670001 4.8649998 -0.708 0.56999999
7.7930002 4.8530002 -0.70099998 0.54000002
15.948 10.034 -1.651 0.16
15.914 10.047 -1.648 0.38
15.894 10.105 -1.65 0.20999999
15.852 10.148 -1.649 0.25
15.815 10.195 -1.648 0.20999999
15.775 10.239 -1.647 0.22
15.733 10.282 -1.646 0.2
15.71 10.302 -1.645 0.23
15.676 10.35 -1.645 0.20999999
15.648 10.403 -1.645 0.20999999
15.61 10.449 -1.645 0.19
15.581 10.5 -1.645 0.28
15.549 10.55 -1.645 0.27000001
15.514 10.597 -1.645 0.11
15.499 10.623 -1.645 0.16
15.455 10.664 -1.6440001 0.16
15.405 10.701 -1.642 0.1
15.355 10.738 -1.64 0.18000001
15.331 10.793 -1.641 0.20999999
15.297 10.841 -1.641 0.20999999
15.251 10.881 -1.64 0.15000001
15.26 10.923 -1.643 0.25
15.198 10.951 -1.64 0.43000001
15.144 10.985 -1.637 0.38
15.134 11.05 -1.64 0.41
15.094 11.094 -1.64 0.25
15.046 11.132 -1.638 0.25999999
15.011 11.179 -1.638 0.27000001
14.989 11.199 -1.638 0.27000001
14.955 11.247 -1.638 0.28
14.909 11.286 -1.636 0.28999999
14.883 11.34 -1.638 0.28999999
14.836 11.378 -1.636 0.28999999
14.808 11.431 -1.637 0.25
14.766 11.472 -1.636 0.18000001
14.729 11.481 -1.6339999 0.43000001
14.691 11.526 -1.6339999 0.25
14.663 11.578 -1.635 0.19
14.612 11.613 -1.633 0.38999999
14.573 11.656 -1.633 0.23
14.555 11.717 -1.635 0.2
14.499 11.748 -1.633 0.38
14.475 11.765 -1.632 0.22
8.1420002 6.6459999 -0.83200002 0.15000001
8.0869999 6.6440001 -0.82800001 0.30000001
8.0570002 6.6620002 -0.82700002 0.38
8.0349998 6.6859999 -0.82599998 0.33000001
8.0200005 6.7160001 -0.82700002 0.47
8.0349998 6.7719998 -0.83200002 0.31
14.162 11.999 -1.623 0.25
14.118 12.038 -1.622 0.23999999
14.075 12.079 -1.622 0.18000001
14.028 12.115 -1.62 0.41999999
14.005 12.172 -1.622 0.22
13.962 12.212 -1.622 0.13
13.982 12.268 -1.627 0
13.9 12.274 -1.6210001 0
13.857 12.314 -1.6210001 0.07
13.833 12.37 -1.623 0.14
13.793 12.412 -1.622 0.16
13.751 12.453 -1.622 0.15000001
13.698 12.484 -1.62 0.33000001
13.692 12.518 -1.622 0.23999999
13.651 12.559 -1.622 0.2
13.614 12.605 -1.622 0.40000001
13.573 12.646 -1.622 0.23
13.545 12.7 -1.624 0.20999999
13.507 12.744 -1.624 0.36000001
13.471 12.79 -1.624 0.2
13.446 12.807 -1.624 0.25
13.406 12.849 -1.624 0.20999999
13.379 12.904 -1.626 0.2
13.329 12.937 -1.624 0.36000001
13.29 12.981 -1.625 0.23
13.239 13.012 -1.623 0.19
13.196 13.051 -1.623 0.40000001
13.172 13.069 -1.622 0.23999999
13.135 13.115 -1.623 0.25999999
13.088 13.15 -1.622 0.27000001
13.051 13.196 -1.623 0.27000001
12.996 13.222 -1.6210001 0.27000001
12.96 13.269 -1.622 0.27000001
12.914 13.305 -1.6210001 0.27000001
12.879 13.311 -1.619 0.30000001
12.848 13.363 -1.6210001 0.28999999
12.801 13.397 -1.62 0.28999999
12.749 13.427 -1.618 0.25
12.701 13.462 -1.618 0.22
12.641 13.483 -1.615 0.18000001
12.564 13.484 -1.61 0.15000001
12.465 13.421 -1.599 0.33000001
12.395 13.429 -1.595 0.25
12.336 13.45 -1.592 0.25999999
12.282 13.476 -1.591 0.27000001
12.222 13.495 -1.5880001 0.28999999
12.156 13.507 -1.585 0.28
12.099 13.529 -1.582 0.27000001
12.068 13.537 -1.581 0.28
11.998 13.544 -1.577 0.28999999
11.953 13.578 -1.577 0.27000001
11.891 13.593 -1.574 0.28999999
11.853 13.637 -1.574 0.28999999
11.802 13.665 -1.573 0.30000001
11.761 13.703 -1.574 0.28999999
11.733 13.714 -1.573 0.31
11.684 13.745 -1.572 0.28999999
11.626 13.763 -1.569 0.28999999
11.563 13.777 -1.566 0.28
11.514 13.805 -1.5650001 0.30000001
11.45 13.817 -1.562 0.28999999
11.39 13.833 -1.5599999 0.28999999
11.352 13.831 -1.557 0.28999999
11.299 13.855 -1.556 0.28
11.255 13.889 -1.556 0.25999999
11.206 13.918 -1.5549999 0.27000001
11.155 13.944 -1.554 0.27000001
11.095 13.959 -1.551 0.27000001
11.061 14.006 -1.553 0.27000001
11.025 14.006 -1.551 0.25999999
10.976 14.035 -1.55 0.27000001
10.93 14.066 -1.549 0.28999999
10.875 14.086 -1.548 0.28999999
10.829 14.118 -1.5470001 0.28
10.765 14.127 -1.544 0.28
10.713 14.15 -1.543 0.27000001
10.685 14.16 -1.5420001 0.27000001
10.63 14.179 -1.54 0.28
10.576 14.2 -1.539 0.28
10.524 14.223 -1.538 0.28999999
10.473 14.247 -1.5369999 0.28999999
10.407 14.251 -1.533 0.28
10.343 14.257 -1.53 0.28999999
10.328 14.283 -1.531 0.28999999
10.282 14.314 -1.531 0.30000001
10.225 14.33 -1.529 0.30000001
10.184 14.367 -1.53 0.30000001
10.144 14.407 -1.53 0.28999999
10.104 14.447 -1.531 0.31999999
10.062 14.484 -1.5319999 0.30000001
10.042 14.503 -1.5319999 0.28
9.9919996 14.528 -1.5319999 0.30000001
9.9510002 14.566 -1.5319999 0.28999999
9.8970003 14.585 -1.531 0.28999999
9.8269997 14.58 -1.527 0.23999999
9.7650003 14.587 -1.524 0.25999999
9.7279997 14.631 -1.526 0.33000001
9.7150002 14.662 -1.527 0.38
9.6949997 14.732 -1.5319999 0.34
9.6409998 14.751 -1.531 0.58999997
9.5950003 14.781 -1.531 0.41
9.5340004 14.789 -1.528 0.27000001
9.4989996 14.836 -1.53 0.27000001
9.4429998 14.852 -1.529 0.28999999
9.4200001 14.867 -1.529 0.28
9.3669996 14.886 -1.527 0.25
9.3190002 14.914 -1.527 0.27000001
9.2729998 14.945 -1.527 0.28
9.2250004 14.972 -1.527 0.28999999
9.1660004 14.981 -1.525 0.28999999
9.1149998 15.003 -1.524 0.28
9.0950003 15.024 -1.525 0.28
9.0439997 15.046 -1.524 0.27000001
9 15.081 -1.525 0.28999999
8.9449997 15.095 -1.523 0.28
8.8999996 15.127 -1.524 0.28
8.8529997 15.156 -1.524 0.28
8.8129997 15.198 -1.525 0.28
8.7930002 15.218 -1.526 0.28
8.7519999 15.258 -1.528 0.28
8.7200003 15.313 -1.531 0.27000001
8.6789999 15.353 -1.5319999 0.25999999
8.6590004 15.43 -1.538 0.23999999
8.6260004 15.485 -1.541 0.19
8.5799999 15.518 -1.541 0.43000001
8.5620003 15.543 -1.543 0.25
8.5240002 15.589 -1.545 0.2
8.4619999 15.593 -1.5420001 0.36000001
8.4280005 15.648 -1.546 0.2
8.3769999 15.671 -1.545 0.34
8.3369999 15.714 -1.5470001 0.19
8.2860003 15.737 -1.5470001 0.23
8.2600002 15.747 -1.546 0.19
8.2139997 15.779 -1.5470001 0.22
8.1709995 15.818 -1.548 0.19
8.1260004 15.854 -1.55 0.20999999
8.0839996 15.895 -1.551 0.18000001
8.0430002 15.937 -1.553 0.12
8.0120001 16.000999 -1.557 0.18000001
7.9949999 16.030001 -1.559 0.27000001
7.9530001 16.072001 -1.561 0.19
7.9000001 16.091999 -1.561 0.18000001
7.8499999 16.118 -1.561 0.18000001
7.7989998 16.141001 -1.561 0.16
7.7509999 16.173 -1.561 0.1
7.697 16.190001 -1.561 0.15000001
7.6690001 16.197001 -1.5599999 0.090000004
7.6269999 16.239 -1.562 0.14
7.5700002 16.25 -1.561 0.090000004
7.5139999 16.263 -1.559 0.090000004
7.4710002 16.304001 -1.561 0.14
7.415 16.316999 -1.5599999 0.090000004
7.3670001 16.347 -1.561 0.15000001
7.3400002 16.357 -1.561 0.23
7.283 16.367001 -1.559 0.25999999
7.2379999 16.405001 -1.561 0.25999999
7.1849999 16.424 -1.561 0.25999999
7.1360002 16.454 -1.561 0.25999999
7.092 16.492001 -1.563 0.25999999
7.0440001 16.524 -1.564 0.25
7.0289998 16.559999 -1.567 0.25999999
6.9829998 16.597 -1.568 0.25
6.9310002 16.621 -1.569 0.25999999
6.8800001 16.643999 -1.569 0.25
6.8340001 16.681999 -1.571 0.25999999
6.777 16.691 -1.569 0.25999999
6.7270002 16.719999 -1.5700001 0.25999999
6.6960001 16.716999 -1.569 0.25999999
6.6539998 16.766001 -1.572 0.25999999
6.6009998 16.787001 -1.572 0.25
6.5570002 16.83 -1.574 0.25
6.5110002 16.867001 -1.576 0.11
6.4710002 16.921 -1.579 0.17
6.4239998 16.958 -1.581 0.28
6.402 16.981001 -1.582 0.27000001
6.3460002 16.993 -1.582 0.27000001
6.2919998 17.013 -1.582 0.25
6.244 17.048 -1.5829999 0.25
6.1919999 17.070999 -1.5829999 0.25999999
6.1479998 17.118999 -1.586 0.23999999
6.0949998 17.138 -1.586 0.11
6.0700002 17.155001 -1.587 0.16
6.0219998 17.191 -1.589 0.23
5.9809999 17.247 -1.5930001 0.23999999
5.9310002 17.277 -1.594 0.23999999
5.8850002 17.32 -1.597 0.25
5.8340001 17.35 -1.598 0.25999999
5.7839999 17.382 -1.599 0.25999999
5.7579999 17.393999 -1.6 0.11
5.711 17.434999 -1.602 0.16
5.6560001 17.452999 -1.602 0.12
5.6040001 17.478001 -1.603 0.16
5.5479999 17.493999 -1.602 0.12
5.4980001 17.525999 -1.604 0.17
5.4419999 17.542 -1.604 0.28999999
5.4229999 17.577 -1.607 0.2
5.3649998 17.586 -1.6059999 0.2
5.3070002 17.593 -1.605 0.22
5.256 17.625 -1.6059999 0.27000001
5.204 17.653 -1.608 0.18000001
5.1550002 17.690001 -1.61 0.20999999
5.1069999 17.733 -1.612 0.18000001
5.053 17.754999 -1.613 0.31999999
5.0380001 17.811001 -1.618 0.18000001
4.9829998 17.83 -1.618 0.34999999
4.9330001 17.867001 -1.62 0.19
4.8769999 17.882999 -1.62 0.36000001
4.8309999 17.934 -1.624 0.23
4.783 17.982 -1.627 0.19
4.7610002 18.014999 -1.63 0.40000001
4.7090001 18.045 -1.632 0.25
4.652 18.059999 -1.632 0.27000001
4.6009998 18.094999 -1.6339999 0.27000001
4.5500002 18.135 -1.636 0.25999999
4.494 18.155001 -1.637 0.28
4.4390001 18.174999 -1.637 0.28
4.3829999 18.191999 -1.638 0.28999999
4.355 18.205 -1.638 0.28999999
4.302 18.233999 -1.64 0.28999999
4.244 18.243999 -1.64 0.28999999
4.1900001 18.274 -1.641 0.28999999
4.1350002 18.297001 -1.642 0.28999999
4.0780001 18.313999 -1.643 0.28
4.0250001 18.348 -1.645 0.28999999
4.0019999 18.379999 -1.647 0.31
3.9419999 18.382 -1.646 0.30000001
3.881 18.379 -1.645 0.33000001
3.8210001 18.381001 -1.6440001 0.31999999
3.7539999 18.344999 -1.6390001 0.30000001
3.6919999 18.337 -1.637 0.30000001
3.628 18.316999 -1.6339999 0.28999999
3.589 18.266001 -1.628 0.28
3.526 18.252001 -1.626 0.37
3.47 18.268999 -1.626 0.34
3.418 18.309 -1.6289999 0.23999999
3.358 18.308001 -1.628 0.38
3.3050001 18.341999 -1.63 0.38
3.2479999 18.354 -1.631 0.33000001
3.2149999 18.337999 -1.628 0.30000001
3.1570001 18.344 -1.628 0.30000001
3.096 18.332001 -1.626 0.27000001
3.039 18.347 -1.626 0.31
2.9820001 18.361 -1.627 0.28
2.9219999 18.356001 -1.626 0.31
2.8610001 18.346001 -1.624 0.31
2.832 18.344 -1.623 0.28999999
2.7709999 18.334999 -1.6210001 0.28999999
2.7149999 18.351999 -1.622 0.31999999
2.6600001 18.375999 -1.624 0.28999999
2.599 18.363001 -1.6210001 0.30000001
2.543 18.386 -1.623 0.30000001
2.4860001 18.398001 -1.623 0.30000001
2.4560001 18.396 -1.623 0.30000001
2.3970001 18.396 -1.622 0.30000001
2.3369999 18.379999 -1.62 0.28
2.279 18.385 -1.619 0.31999999
2.2219999 18.398001 -1.62 0.30000001
2.1630001 18.396999 -1.619 0.31
2.1029999 18.386 -1.617 0.28
2.0739999 18.382999 -1.617 0.28999999
2.0150001 18.382 -1.6160001 0.31999999
1.956 18.375999 -1.615 0.28999999
1.897 18.374001 -1.614 0.31999999
1.837 18.354 -1.612 0.27000001
1.779 18.358 -1.6109999 0.31999999
1.72 18.341999 -1.609 0.31
1.689 18.320999 -1.607 0.28
1.6289999 18.304001 -1.605 0.28999999
1.569 18.278999 -1.602 0.30000001
1.5089999 18.254 -1.599 0.30000001
1.45 18.239 -1.597 0.28999999
1.39 18.202 -1.5930001 0.30000001
1.331 18.18 -1.59 0.31999999
1.299 18.132999 -1.585 0.30000001
1.238 18.084999 -1.58 0.31
1.178 18.033001 -1.575 0.25999999
1.1210001 18.028999 -1.574 0.30000001
1.061 17.973 -1.568 0.28999999
1.002 17.927 -1.563 0.36000001
0.93599999 17.749001 -1.546 0.25999999
0.91299999 17.84 -1.554 0.31999999
0.82700002 17.214001 -1.493 0.28999999
0.78399998 17.465 -1.517 0.27000001
0.72799999 17.452 -1.515 0.28
0.676 17.511 -1.521 0.28999999
0.62199998 17.539 -1.524 0.25999999
0.56699997 17.547001 -1.524 0.27000001
0.51499999 17.686001 -1.538 0.33000001
0.48800001 17.688999 -1.538 0.31
0.43200001 17.673 -1.536 0.27000001
0.37599999 17.67 -1.536 0.28
0.32100001 17.671 -1.536 0.30000001
0.26499999 17.672001 -1.536 0.28
0.20900001 17.646999 -1.533 0.30000001
0.18099999 17.646999 -1.533 0.28999999
0.126 17.624001 -1.531 0.28999999
0.071000002 17.614 -1.53 0.28999999
0.015 17.636 -1.5319999 0.31999999
-0.039999999 17.628 -1.531 0.28
-0.096000001 17.652 -1.534 0.30000001
-0.15099999 17.671 -1.536 0.30000001
-0.17900001 17.673 -1.536 0.31
-0.235 17.676001 -1.536 0.30000001
-0.28999999 17.679001 -1.5369999 0.28999999
-0.34599999 17.677999 -1.5369999 0.30000001
-0.40200001 17.688999 -1.538 0.31
-0.45699999 17.676001 -1.5369999 0.31
-0.51300001 17.677999 -1.5369999 0.30000001
-0.54100001 17.681 -1.5369999 0.31
-0.59600002 17.677999 -1.5369999 0.31999999
-0.65100002 17.662001 -1.536 0.31999999
-0.70599997 17.656 -1.535 0.30000001
-0.76200002 17.669001 -1.5369999 0.28999999
-0.81699997 17.641001 -1.534 0.34
-0.87300003 17.65 -1.536 0.25999999
-0.92900002 17.657 -1.5369999 0.28
-0.95700002 17.66 -1.5369999 0.37
-1.012 17.650999 -1.536 0.36000001
-1.0650001 17.618 -1.533 0.41999999
-1.119 17.580999 -1.53 0.36000001
-1.171 17.542999 -1.527 0.38
-1.225 17.524 -1.525 0.38999999
-1.279 17.506001 -1.524 0.40000001
-1.303 17.452 -1.5190001 0.43000001
-1.3559999 17.427999 -1.517 0.40000001
-1.416 17.481001 -1.522 0.34999999
-1.473 17.506001 -1.525 0.41999999
-1.527 17.492001 -1.524 0.36000001
-1.575 17.412001 -1.517 0.41
-1.6 17.385 -1.515 0.40000001
-1.656 17.388 -1.515 0.41
-1.711 17.393 -1.516 0.34
-1.7640001 17.365999 -1.5140001 0.47
-1.817 17.35 -1.513 0.38999999
-1.873 17.351999 -1.5140001 0.36000001
-1.925 17.33 -1.512 0.38999999
-1.976 17.291 -1.5089999 0.37
-2 17.261999 -1.507 0.43000001
-2.053 17.243999 -1.505 0.34999999
-2.1029999 17.205 -1.502 0.37
-2.158 17.207001 -1.503 0.37
-2.21 17.184 -1.502 0.41
-2.2590001 17.136999 -1.498 0.41
-2.312 17.125999 -1.497 0.38
-2.332 17.073 -1.492 0.40000001
-2.3840001 17.054001 -1.4910001 0.41
-2.438 17.045 -1.4910001 0.41
-2.493 17.047001 -1.492 0.40000001
-2.5480001 17.051001 -1.493 0.38999999
-2.598 17.018999 -1.4910001 0.40000001
-2.648 16.990999 -1.489 0.38
-2.6730001 16.976999 -1.488 0.41
-2.7290001 16.982 -1.489 0.41999999
-2.7820001 16.976 -1.489 0.43000001
-2.835 16.965 -1.489 0.30000001
-2.8789999 16.896999 -1.483 0.41999999
-2.9319999 16.892 -1.484 0.41
-2.9790001 16.849001 -1.48 0.37
-3.0039999 16.834999 -1.479 0.38999999
-3.062 16.854 -1.482 0.38999999
-3.1110001 16.823 -1.48 0.38
-3.1589999 16.784 -1.477 0.41
-3.211 16.77 -1.477 0.34
-3.266 16.771999 -1.478 0.38
-3.3180001 16.761 -1.478 0.34
-3.336 16.715 -1.474 0.46000001
-3.3900001 16.708 -1.474 0.31999999
-3.4330001 16.655001 -1.47 0.43000001
-3.4920001 16.674999 -1.473 0.31999999
-3.5369999 16.629 -1.47 0.41999999
-3.5869999 16.610001 -1.469 0.38
-3.645 16.624001 -1.471 0.41
-3.6689999 16.607 -1.47 0.40000001
-3.7179999 16.580999 -1.469 0.38999999
-3.763 16.539 -1.466 0.41
-3.816 16.531 -1.466 0.34999999
-3.8610001 16.490999 -1.4630001 0.43000001
-3.921 16.514 -1.467 0.41
-3.9760001 16.513 -1.4680001 0.41
-4.0009999 16.503 -1.4680001 0.41999999
-4.0539999 16.496 -1.4680001 0.38999999
-4.1030002 16.469999 -1.467 0.38
-4.151 16.443001 -1.466 0.40000001
-4.2030001 16.431999 -1.466 0.38
-4.2550001 16.419001 -1.466 0.38999999
-4.3049998 16.402 -1.465 0.38999999
-4.329 16.389 -1.465 0.38
-4.381 16.377001 -1.465 0.43000001
-4.4250002 16.337 -1.462 0.34999999
-4.48 16.336 -1.464 0.41999999
-4.5339999 16.33 -1.464 0.33000001
-4.5669999 16.252001 -1.4579999 0.41999999
-4.625 16.261 -1.46 0.38999999
-4.6389999 16.215 -1.456 0.34999999
-4.6929998 16.208 -1.457 0.41
-4.7399998 16.181999 -1.456 0.41
-4.8010001 16.201 -1.46 0.38
-4.8579998 16.205 -1.461 0.40000001
-4.914 16.207001 -1.4630001 0.37
-4.9460001 16.129999 -1.457 0.38
-4.9749999 16.134001 -1.4579999 0.41999999
-5.0229998 16.108999 -1.457 0.36000001
-5.0739999 16.094999 -1.457 0.38999999
-5.105 16.02 -1.451 0.34
-5.1659999 16.034 -1.454 0.46000001
-5.2150002 16.014 -1.454 0.31999999
-5.2280002 15.886 -1.442 0.47999999
-5.2740002 15.942 -1.449 0.36000001
-5.3460002 15.99 -1.456 0.41999999
-5.3800001 15.924 -1.451 0.34
-5.4219999 15.884 -1.448 0.40000001
-5.4660001 15.852 -1.447 0.30000001
-5.5289998 15.871 -1.451 0.46000001
-5.579 15.853 -1.451 0.40000001
-5.619 15.809 -1.448 0.36000001
-5.6399999 15.791 -1.447 0.38999999
-5.6750002 15.732 -1.442 0.41
-5.7270002 15.722 -1.443 0.31999999
-5.7659998 15.676 -1.4400001 0.44
-5.842 15.728 -1.448 0.38
-5.8959999 15.723 -1.449 0.41
-5.9330001 15.671 -1.446 0.40000001
-5.9499998 15.643 -1.444 0.34999999
-6.0040002 15.637 -1.4450001 0.47999999
-6.053 15.616 -1.4450001 0.31999999
-6.105 15.606 -1.446 0.43000001
-6.1719999 15.632 -1.451 0.40000001
-6.2080002 15.579 -1.447 0.40000001
-6.2470002 15.535 -1.444 0.41
-6.2820001 15.551 -1.447 0.36000001
-6.3379998 15.548 -1.449 0.43000001
-6.3920002 15.543 -1.451 0.38
-6.434 15.506 -1.449 0.31999999
-6.4580002 15.427 -1.442 0.44999999
-6.4970002 15.385 -1.4400001 0.38
-6.5450001 15.362 -1.4400001 0.47
-6.5949998 15.412 -1.446 0.25
-6.6129999 15.32 -1.439 0.56
-6.6609998 15.3 -1.439 0.36000001
-6.7210002 15.306 -1.442 0.40000001
-6.7690001 15.285 -1.442 0.38
-6.7930002 15.211 -1.436 0.38999999
-6.848 15.206 -1.438 0.38999999
-6.8569999 15.162 -1.434 0.34999999
-6.927 15.188 -1.439 0.47999999
-6.974 15.166 -1.439 0.34999999
-7.0489998 15.202 -1.446 0.38999999
-7.0840001 15.152 -1.443 0.38
-7.1459999 15.161 -1.446 0.38
-7.1890001 15.129 -1.4450001 0.38
-7.2210002 15.136 -1.447 0.38
-7.3099999 15.197 -1.456 0.47
-7.3210001 15.099 -1.448 0.28999999
-7.4180002 15.178 -1.459 0.38
-7.46 15.142 -1.4579999 0.37
-7.507 15.118 -1.4579999 0.41999999
-7.5599999 15.105 -1.459 0.31999999
-7.5700002 15.067 -1.456 0.44999999
-7.652 15.11 -1.4630001 0.34999999
-7.6560001 15.001 -1.454 0.41
-7.684 14.94 -1.45 0.36000001
-7.7420001 14.939 -1.452 0.38
-7.7550001 14.849 -1.4450001 0.38999999
-7.822 14.863 -1.45 0.41
-7.8390002 14.839 -1.448 0.36000001
-7.908 14.856 -1.4529999 0.43000001
-7.9419999 14.809 -1.45 0.36000001
-8.0050001 14.813 -1.454 0.37
-8.0550003 14.795 -1.454 0.41
-8.1090002 14.784 -1.456 0.40000001
-8.1549997 14.756 -1.456 0.38999999
-8.1929998 14.77 -1.459 0.38999999
-8.2530003 14.768 -1.461 0.31
-8.2930002 14.732 -1.46 0.44
-8.3199997 14.671 -1.456 0.34
-8.3990002 14.703 -1.4630001 0.38999999
-8.4320002 14.653 -1.46 0.37
-8.467 14.607 -1.4579999 0.34
-8.5360003 14.62 -1.4630001 0.41
-8.5970001 14.672 -1.47 0.34
-8.5539999 14.494 -1.4529999 0.41999999
-8.6219997 14.505 -1.457 0.34999999
-8.6750002 14.491 -1.459 0.41
-8.7069998 14.442 -1.456 0.40000001
-8.8149996 14.516 -1.4680001 0.38
-8.8710003 14.506 -1.47 0.37
-8.8940001 14.492 -1.47 0.38
-8.8809996 14.371 -1.459 0.37
-8.9680004 14.408 -1.467 0.36000001
-9.0220003 14.395 -1.469 0.34999999
-9.1730003 14.533 -1.488 0.36000001
-9.1350002 14.374 -1.473 0.38
-9.1110001 14.238 -1.46 0.38999999
-9.1490002 14.247 -1.4630001 0.36000001
-9.2200003 14.258 -1.4680001 0.40000001
-9.3059998 14.292 -1.475 0.38
-9.401 14.34 -1.484 0.33000001
-9.4379997 14.298 -1.483 0.46000001
-9.4630003 14.239 -1.479 0.33000001
-9.3990002 14.047 -1.46 0.23999999
-9.5319996 14.197 -1.479 0.43000001
-9.5249996 14.092 -1.47 0.34
-9.552 14.035 -1.467 0.37
-9.6260004 14.049 -1.473 0.37
-9.6739998 14.024 -1.473 0.38999999
-9.7259998 14.005 -1.475 0.34999999
-9.743 13.937 -1.47 0.43000001
-9.724 13.863 -1.4630001 0.34999999
-9.7709999 13.837 -1.464 0.41
-9.8280001 13.826 -1.466 0.36000001
-9.9420004 13.894 -1.478 0.38
-9.9350004 13.791 -1.469 0.38999999
-9.9969997 13.786 -1.472 0.34
-10.029 13.74 -1.471 0.38
-10.064 13.742 -1.473 0.41
-10.095 13.694 -1.471 0.38999999
-10.145 13.672 -1.472 0.38
-10.172 13.618 -1.469 0.37
-10.187 13.549 -1.465 0.44999999
-10.23 13.519 -1.465 0.27000001
-10.267 13.478 -1.464 0.47999999
-10.313 13.495 -1.4680001 0.34
-10.308 13.402 -1.46 0.41999999
-10.349 13.368 -1.46 0.41999999
-10.411 13.36 -1.4630001 0.38999999
-10.47 13.349 -1.466 0.34999999
-10.467 13.26 -1.459 0.43000001
-10.55 13.278 -1.466 0.38
-10.578 13.271 -1.467 0.38
-10.645 13.269 -1.471 0.34
-10.683 13.231 -1.47 0.46000001
-10.734 13.209 -1.472 0.38999999
-10.766 13.163 -1.47 0.36000001
-10.808 13.131 -1.47 0.41
-10.834 13.079 -1.4680001 0.38999999
-10.861 13.069 -1.469 0.37
-10.917 13.053 -1.471 0.38
-10.981 13.046 -1.475 0.37
-11.025 13.015 -1.475 0.41999999
-11.085 13.003 -1.478 0.34999999
-11.148 12.994 -1.4809999 0.43000001
-11.212 12.986 -1.485 0.36000001
-11.235 12.929 -1.482 0.37
-11.272 12.931 -1.485 0.38
-11.323 12.908 -1.4859999 0.38999999
-11.385 12.896 -1.489 0.38999999
-11.422 12.857 -1.489 0.41
-11.452 12.809 -1.487 0.38
-11.512 12.795 -1.49 0.44999999
-11.518 12.721 -1.485 0.31
-11.621 12.794 -1.497 0.30000001
-11.665 12.762 -1.498 0.41999999
-11.682 12.7 -1.495 0.41999999
-11.727 12.669 -1.495 0.38
-11.77 12.635 -1.4960001 0.41999999
-11.841 12.632 -1.5 0.31
-11.899 12.615 -1.503 0.43000001
-11.949 12.628 -1.507 0.34999999
-11.984 12.584 -1.507 0.43000001
-12.066 12.591 -1.513 0.47
-12.096 12.543 -1.511 0.40000001
-12.142 12.512 -1.512 0.27000001
-12.203 12.497 -1.515 0.36000001
-12.217 12.472 -1.515 0.41
-12.269 12.446 -1.516 0.34
-12.324 12.423 -1.5190001 0.49000001
-12.332 12.353 -1.5140001 0.31999999
-12.351 12.295 -1.512 0.44999999
-12.426 12.292 -1.517 0.41
-12.523 12.31 -1.525 0.40000001
-12.58 12.289 -1.527 0.37
-12.629 12.298 -1.531 0.41
-12.679 12.27 -1.533 0.38
-12.722 12.234 -1.533 0.38999999
-12.756 12.19 -1.533 0.40000001
-12.776 12.132 -1.53 0.40000001
-12.85 12.126 -1.535 0.38999999
-12.895 12.092 -1.536 0.41
-12.935 12.091 -1.539 0.41
-12.99 12.066 -1.541 0.34
-13.012 12.011 -1.539 0.46000001
-13.071 11.99 -1.5420001 0.38
-13.138 11.976 -1.546 0.38
-13.185 11.942 -1.5470001 0.44999999
-13.227 11.905 -1.548 0.38999999
-13.253 11.891 -1.549 0.41999999
-13.339 11.892 -1.5549999 0.31999999
-13.39 11.862 -1.557 0.36000001
-13.426 11.819 -1.557 0.33000001
-13.47 11.783 -1.558 0.36000001
-13.501 11.736 -1.557 0.34
-13.541 11.696 -1.557 0.30000001
-13.547 11.664 -1.556 0.31
-13.549 11.592 -1.551 0.25999999
-13.631 11.588 -1.557 0.27000001
-13.664 11.542 -1.557 0.28
-13.722 11.517 -1.559 0.31999999
-13.755 11.472 -1.559 0.33000001
-13.765 11.407 -1.556 0.28999999
-13.758 11.365 -1.553 0.28
-13.746 11.282 -1.5470001 0.27000001
-13.764 11.225 -1.544 0.28999999
-13.826 11.203 -1.548 0.28
-13.917 11.205 -1.5549999 0.27000001
-14 11.199 -1.561 0.28
-14.056 11.171 -1.563 0.31999999
-13.992 11.085 -1.553 0.27000001
-14.082 11.084 -1.5599999 0.30000001
-14.121 11.044 -1.561 0.31
-14.047 10.915 -1.5470001 0.23999999
-13.452 10.386 -1.469 0.28
-13.507 10.361 -1.472 0.30000001
-13.598 10.363 -1.479 0.20999999
-13.627 10.351 -1.4809999 0.31999999
-13.667 10.315 -1.482 0.33000001
-13.715 10.283 -1.484 0.38999999
-13.808 10.285 -1.4910001 0.31
-13.877 10.269 -1.495 0.5
-13.935 10.244 -1.499 0.31999999
-14.022 10.24 -1.505 0.23
-14.451 10.518 -1.5549999 0.25
-14.559 10.527 -1.5650001 0.34
-14.361 10.315 -1.5369999 0.23
-14.468 10.323 -1.546 0.22
-14.521 10.293 -1.548 0.31999999
-14.518 10.222 -1.544 0.40000001
-14.48 10.127 -1.535 0.38
-14.451 10.04 -1.528 0.34
-14.462 10.014 -1.528 0.31
-14.439 9.9309998 -1.521 0.31
-14.46 9.8789997 -1.52 0.38999999
-14.496 9.8369999 -1.521 0.34
-14.542 9.8009996 -1.522 0.31
-14.611 9.7810001 -1.527 0.47
-14.747 9.8050003 -1.539 0.31999999
-14.703 9.743 -1.5319999 0.34
-14.77 9.7200003 -1.5369999 0.38999999
-14.857 9.7110004 -1.543 0.34
-14.895 9.6680002 -1.544 0.31999999
-14.918 9.6169996 -1.543 0.37
-14.968 9.5830002 -1.546 0.38
-15.067 9.5799999 -1.554 0.34999999
-15.067 9.5469999 -1.552 0.38
-15.149 9.5319996 -1.558 0.34
-15.189 9.4910002 -1.559 0.36000001
-15.255 9.4650002 -1.563 0.34999999
-15.328 9.4440002 -1.568 0.41
-15.378 9.408 -1.571 0.41
-15.416 9.3649998 -1.572 0.44999999
-15.477 9.3690004 -1.577 0.43000001
-15.565 9.3549995 -1.5829999 0.31
-15.63 9.3269997 -1.5880001 0.31999999
-15.692 9.2969999 -1.591 0.41
-15.722 9.2489996 -1.591 0.36000001
-15.772 9.2110004 -1.594 0.43000001
-15.865 9.1990004 -1.601 0.34
-15.915 9.1949997 -1.605 0.43000001
-15.986 9.1680002 -1.61 0.34999999
-16.025999 9.125 -1.6109999 0.41
-16.094999 9.0970001 -1.6160001 0.36000001
-16.087 9.026 -1.612 0.36000001
-16.122 8.9790001 -1.612 0.38
-16.160999 8.934 -1.614 0.43000001
-16.285 8.9689999 -1.626 0.40000001
-16.386 8.9580002 -1.6339999 0.34999999
-16.431999 8.9160004 -1.636 0.46000001
-16.483 8.8769999 -1.6390001 0.28999999
-16.486 8.8120003 -1.636 0.41
-16.561001 8.7849998 -1.641 0.34999999
-16.594999 8.7370005 -1.642 0.38
-16.621 8.717 -1.643 0.38999999
-16.681 8.6809998 -1.647 0.38
-16.747999 8.6499996 -1.651 0.41
-16.823 8.6210003 -1.6569999 0.34
-16.863001 8.5749998 -1.658 0.41999999
-16.922001 8.5380001 -1.661 0.41
-16.995001 8.5080004 -1.6670001 0.38
-17.052999 8.5030003 -1.671 0.40000001
-17.135 8.4770002 -1.678 0.34999999
-17.17 8.427 -1.679 0.36000001
-17.209 8.3800001 -1.6799999 0.30000001
-17.232 8.3240004 -1.679 0.31999999
-17.254 8.2679996 -1.679 0.25999999
-17.294001 8.2200003 -1.681 0.27000001
-17.327 8.2030001 -1.683 0.25
-17.32 8.1330004 -1.679 0.18000001
-17.355 8.0830002 -1.6799999 0.43000001
-17.375 8.026 -1.6799999 0.25
-17.398001 7.9699998 -1.679 0.2
-17.412001 7.9109998 -1.678 0.38999999
-17.441 7.8569999 -1.679 0.23
-17.444 7.8260002 -1.678 0.2
-17.434 7.756 -1.674 0.34999999
-17.462 7.7030001 -1.674 0.22
-17.48 7.645 -1.674 0.20999999
-17.493 7.586 -1.673 0.34999999
-17.514999 7.5300002 -1.6720001 0.19
-17.539 7.4749999 -1.6720001 0.36000001
-17.552 7.448 -1.673 0.2
-17.572001 7.3909998 -1.6720001 0.34999999
-17.613001 7.3439999 -1.674 0.2
-17.625 7.2839999 -1.673 0.33000001
-17.641001 7.2249999 -1.6720001 0.19
-17.667 7.171 -1.673 0.31
-17.688 7.1149998 -1.6720001 0.2
-17.709999 7.092 -1.674 0.18000001
-17.726999 7.0339999 -1.673 0.30000001
-17.752001 6.98 -1.673 0.18000001
-17.785 6.928 -1.675 0.18000001
-17.805 6.8709998 -1.674 0.17
-17.820999 6.8130002 -1.674 0.18000001
-17.855 6.7620001 -1.675 0.17
-17.870001 6.7360001 -1.676 0.16
-17.893 6.6799998 -1.676 0.16
-17.917 6.625 -1.676 0.16
-17.936001 6.5679998 -1.676 0.16
-17.951 6.5100002 -1.675 0.1
-17.983 6.4569998 -1.677 0.15000001
-17.997 6.3990002 -1.676 0.16
-18.013 6.3730001 -1.677 0.16
-18.046 6.3210001 -1.678 0.1
-18.062 6.263 -1.678 0.15000001
-18.068001 6.2010002 -1.676 0.16
-18.091999 6.1459999 -1.677 0.23
-18.101 6.086 -1.676 0.25
-18.108999 6.0250001 -1.674 0.23999999
-18.129999 6 -1.676 0.25
-18.113001 5.9320002 -1.6720001 0.11
-18.141001 5.8779998 -1.673 0.16
-18.131001 5.8119998 -1.67 0.11
-18.16 5.7579999 -1.671 0.16
-18.15 5.6919999 -1.668 0.12
-18.177 5.638 -1.669 0.17
-18.171 5.605 -1.668 0.28999999
-18.171 5.5430002 -1.666 0.19
-18.202999 5.4899998 -1.6670001 0.18000001
-18.202 5.427 -1.665 0.31
-18.209 5.3670001 -1.664 0.2
-18.218 5.3080001 -1.664 0.18000001
-18.237 5.2509999 -1.664 0.28999999
-18.254 5.2249999 -1.665 0.2
-18.288 5.1729999 -1.6670001 0.18000001
-18.292999 5.112 -1.665 0.12
-18.316 5.0570002 -1.666 0.16
-18.34 5.0009999 -1.6670001 0.28999999
-18.363001 4.9460001 -1.668 0.27000001
-18.382 4.8889999 -1.668 0.27000001
-18.409 4.8649998 -1.67 0.25999999
-18.413 4.8039999 -1.669 0.25999999
-18.438999 4.7490001 -1.67 0.25
-18.438999 4.6869998 -1.669 0.25999999
-18.459 4.631 -1.669 0.25
-18.48 4.5739999 -1.67 0.25
-18.48 4.513 -1.668 0.25
-18.483 4.4829998 -1.668 0.27000001
-18.496 4.4239998 -1.668 0.27000001
-18.497999 4.3639998 -1.6670001 0.27000001
-18.518999 4.3070002 -1.6670001 0.27000001
-18.528999 4.2480001 -1.6670001 0.27000001
-18.538 4.1890001 -1.6670001 0.2
-18.545 4.1290002 -1.666 0.18000001
-18.546 4.099 -1.665 0.30000001
-18.541 4.0370002 -1.664 0.2
-18.562 3.98 -1.664 0.18000001
-18.558001 3.9189999 -1.663 0.34
-18.569 3.8599999 -1.663 0.18000001
-18.552999 3.796 -1.66 0.34999999
-18.573 3.7390001 -1.661 0.19
-18.555 3.7060001 -1.658 0.37
-18.569 3.648 -1.659 0.23999999
-18.572001 3.5880001 -1.658 0.2
-18.594999 3.5320001 -1.659 0.41
-18.610001 3.474 -1.659 0.23999999
-18.59 3.4100001 -1.656 0.25
-18.555 3.3429999 -1.652 0.20999999
-18.504 3.3039999 -1.646 0.22
-18.538 3.25 -1.648 0.31999999
-18.554001 3.1930001 -1.649 0.46000001
-18.583 3.138 -1.651 0.47999999
-18.603001 3.0810001 -1.652 0.37
-18.575001 3.016 -1.648 0.28999999
-18.559 2.954 -1.646 0.30000001
-18.583 2.928 -1.648 0.28999999
-18.598 2.8699999 -1.648 0.28999999
-18.605 2.812 -1.648 0.28999999
-18.620001 2.7539999 -1.649 0.25999999
-18.614 2.694 -1.647 0.28
-18.607 2.6329999 -1.646 0.28999999
-18.629 2.576 -1.647 0.28
-18.625 2.546 -1.646 0.27000001
-18.653 2.49 -1.648 0.27000001
-18.663 2.4319999 -1.648 0.18000001
-18.662001 2.372 -1.648 0.43000001
-18.681 2.3150001 -1.649 0.23
-18.679001 2.2550001 -1.648 0.19
-18.676001 2.1949999 -1.647 0.38999999
-18.691 2.1670001 -1.648 0.23
-18.691999 2.108 -1.647 0.2
-18.687 2.0480001 -1.646 0.38999999
-18.698999 1.99 -1.647 0.23
-18.695 1.9299999 -1.646 0.16
-18.707001 1.872 -1.646 0.41999999
-18.707001 1.813 -1.646 0.25
-18.722 1.755 -1.647 0.25999999
-18.715 1.724 -1.646 0.27000001
-18.724001 1.666 -1.646 0.27000001
-18.733999 1.607 -1.647 0.28999999
-18.752001 1.55 -1.648 0.28999999
-18.775 1.492 -1.65 0.28999999
-18.782 1.433 -1.65 0.28
-18.796 1.375 -1.651 0.28
-18.785999 1.345 -1.65 0.27000001
-18.804001 1.2869999 -1.651 0.28999999
-18.788 1.226 -1.649 0.28
-18.799999 1.168 -1.65 0.28
-18.799999 1.108 -1.65 0.27000001
-18.811001 1.05 -1.65 0.28
-18.794001 0.99000001 -1.648 0.28999999
-18.809999 0.96100003 -1.65 0.28999999
-18.801001 0.90100002 -1.649 0.28999999
-18.806999 0.84200001 -1.649 0.28
-18.82 0.78299999 -1.65 0.28
-18.846001 0.72500002 -1.652 0.27000001
-18.836 0.66600001 -1.651 0.27000001
-18.853001 0.63700002 -1.653 0.23999999
-18.844999 0.57700002 -1.652 0.17
-18.834999 0.51800001 -1.651 0.43000001
-18.853001 0.45899999 -1.652 0.23999999
-18.874001 0.40000001 -1.654 0.2
-18.879 0.34099999 -1.654 0.40000001
-18.889999 0.28099999 -1.655 0.23
-18.913 0.222 -1.658 0.19
-18.882999 0.192 -1.655 0.41999999
-18.889 0.133 -1.655 0.25
-18.893999 0.074000001 -1.656 0.25999999
-18.882 0.014 -1.654 0.28
-18.892 -0.045000002 -1.655 0.27000001
-18.892 -0.104 -1.655 0.27000001
-18.885 -0.164 -1.655 0.28
-18.893 -0.193 -1.656 0.28999999
-18.908001 -0.25299999 -1.6569999 0.25
-18.896999 -0.31200001 -1.656 0.25999999
-18.912001 -0.37200001 -1.658 0.31999999
-18.909 -0.43099999 -1.658 0.27000001
-18.910999 -0.491 -1.658 0.30000001
-18.906 -0.55000001 -1.658 0.30000001
-18.919001 -0.57999998 -1.659 0.31999999
-18.923 -0.63999999 -1.66 0.31
-18.923 -0.699 -1.66 0.28
-18.917 -0.759 -1.659 0.30000001
-18.931999 -0.81900001 -1.661 0.31999999
-18.927 -0.87800002 -1.661 0.28
-18.941999 -0.93900001 -1.663 0.25999999
-18.924999 -0.96700001 -1.661 0.33000001
-18.959999 -1.029 -1.665 0.30000001
-18.993999 -1.091 -1.669 0.31999999
-18.951 -1.148 -1.665 0.28999999
-18.959 -1.2079999 -1.666 0.27000001
-18.973 -1.2690001 -1.668 0.28
-18.957001 -1.3279999 -1.666 0.30000001
-18.985001 -1.36 -1.669 0.25999999
-18.986 -1.42 -1.67 0.22
-18.992001 -1.48 -1.671 0.28999999
-19.018999 -1.543 -1.674 0.2
-19.059 -1.6059999 -1.679 0.17
-19.054001 -1.666 -1.679 0.38999999
-19.055 -1.727 -1.679 0.23999999
-19.086 -1.76 -1.682 0.2
-19.1 -1.821 -1.684 0.38
-19.030001 -1.905 -1.678 0.2
-19.061001 -1.969 -1.682 0.41
-19.056999 -2.029 -1.682 0.23
-19.077 -2.062 -1.6849999 0.18000001
-19.084999 -2.1229999 -1.686 0.38999999
-19.08 -2.1830001 -1.686 0.2
-19.084999 -2.2449999 -1.687 0.36000001
-19.076 -2.3039999 -1.687 0.22
-19.072001 -2.365 -1.687 0.18000001
-19.080999 -2.427 -1.689 0.40000001
-19.097 -2.4590001 -1.691 0.25
-19.094999 -2.52 -1.692 0.25999999
-19.115999 -2.5840001 -1.6950001 0.25999999
-19.129999 -2.6470001 -1.697 0.25999999
-19.136999 -2.7090001 -1.698 0.25999999
-19.162001 -2.7739999 -1.702 0.27000001
-19.187 -2.839 -1.705 0.27000001
-19.214001 -2.8740001 -1.7079999 0.28999999
-19.214001 -2.9360001 -1.709 0.27000001
-19.238001 -3.0020001 -1.712 0.27000001
-19.229 -3.062 -1.712 0.27000001
-19.250999 -3.128 -1.715 0.28
-19.257999 -3.191 -1.717 0.28
-19.268 -3.2550001 -1.719 0.27000001
-19.275999 -3.2880001 -1.721 0.28
-19.297001 -3.3540001 -1.724 0.28
-19.292999 -3.415 -1.724 0.27000001
-19.288 -3.477 -1.725 0.19
-19.32 -3.546 -1.729 0.43000001
-19.322001 -3.609 -1.7309999 0.25
-19.367001 -3.6489999 -1.7359999 0.2
-19.403 -3.7190001 -1.74 0.38999999
-19.379 -3.777 -1.739 0.22
-19.408001 -3.846 -1.743 0.18000001
-19.427 -3.914 -1.7460001 0.38999999
-19.423 -3.9760001 -1.747 0.23
-19.433001 -4.0419998 -1.749 0.19
-19.423 -4.1040001 -1.75 0.38999999
-19.416 -4.1339998 -1.75 0.25
-19.419001 -4.1989999 -1.751 0.2
-19.436001 -4.2659998 -1.7539999 0.41
-19.445999 -4.3330002 -1.757 0.25
-19.465 -4.401 -1.76 0.2
-19.492001 -4.4720001 -1.7640001 0.38999999
-19.482 -4.5339999 -1.765 0.23
-19.525 -4.5760002 -1.77 0.2
-19.532 -4.6430001 -1.772 0.40000001
-19.544001 -4.711 -1.775 0.23
-19.556999 -4.7789998 -1.777 0.2
-19.555 -4.8429999 -1.779 0.37
-19.542 -4.9050002 -1.779 0.19
-19.545 -4.9720001 -1.781 0.34999999
-19.582001 -5.0139999 -1.785 0.22
-19.610001 -5.0869999 -1.79 0.2
-19.612 -5.1529999 -1.7920001 0.37
-19.624001 -5.2220001 -1.794 0.22
-19.635 -5.2909999 -1.7970001 0.22
-19.66 -5.3639998 -1.801 0.28999999
-19.657 -5.4299998 -1.803 0.28999999
-19.659 -5.4640002 -1.804 0.31
-19.667 -5.533 -1.807 0.38999999
-19.702999 -5.6100001 -1.812 0.28
-19.698999 -5.6760001 -1.813 0.36000001
-19.709999 -5.7459998 -1.816 0.18000001
-19.714001 -5.8140001 -1.819 0.34999999
-19.711 -5.881 -1.8200001 0.19
-19.712 -5.915 -1.821 0.37
-19.702 -5.98 -1.822 0.22
-19.698999 -6.046 -1.824 0.2
-19.683001 -6.1090002 -1.824 0.37
-19.676001 -6.1750002 -1.825 0.23
-19.658001 -6.237 -1.826 0.18000001
-19.65 -6.302 -1.827 0.38999999
-19.676001 -6.3449998 -1.83 0.2
-19.643999 -6.4029999 -1.829 0.38
-19.652 -6.474 -1.832 0.2
-19.655001 -6.5430002 -1.835 0.36000001
-19.655001 -6.612 -1.837 0.2
-19.650999 -6.6789999 -1.8380001 0.34999999
-19.65 -6.7480001 -1.841 0.2
-19.649 -6.7820001 -1.842 0.33000001
-19.669001 -6.8590002 -1.846 0.19
-19.649 -6.921 -1.846 0.19
-19.653999 -6.9920001 -1.849 0.36000001
-19.665001 -7.066 -1.852 0.37
-19.66 -7.1339998 -1.854 0.20999999
-19.667 -7.2069998 -1.857 0.43000001
-19.684 -7.2480001 -1.86 0.22
-19.676001 -7.3150001 -1.862 0.22
-19.666 -7.382 -1.863 0.2
-19.658001 -7.4489999 -1.865 0.30000001
-19.655001 -7.5190001 -1.867 0.2
-19.632999 -7.5809999 -1.867 0.19
-19.625 -7.6490002 -1.869 0.30000001
-19.6 -7.6750002 -1.867 0.2
-19.584 -7.7399998 -1.868 0.19
-19.554001 -7.7989998 -1.868 0.23
-19.538 -7.8639998 -1.869 0.20999999
-19.507999 -7.9229999 -1.868 0.2
-19.492001 -7.9879999 -1.869 0.41
-19.483999 -8.0559998 -1.8710001 0.25
-19.511 -8.1040001 -1.875 0.20999999
-19.524 -8.1809998 -1.8789999 0.41
-19.497 -8.2419996 -1.8789999 0.22
-19.073999 -8.1330004 -1.836 0.14
-18.6 -8 -1.789 0.44999999
-18.618999 -8.0769997 -1.793 0.18000001
-18.559999 -8.1210003 -1.79 0.43000001
-18.495001 -8.1269999 -1.784 0.22
-18.497999 -8.198 -1.7869999 0.28
-18.434 -8.2390003 -1.783 0.28999999
-18.389999 -8.2889996 -1.781 0.28
-18.365999 -8.3470001 -1.781 0.28999999
-18.329 -8.3999996 -1.78 0.27000001
-18.302 -8.4569998 -1.78 0.28999999
-18.289 -8.4860001 -1.78 0.28999999
-18.242001 -8.5340004 -1.778 0.27000001
-18.228001 -8.5970001 -1.779 0.28
-18.205 -8.6560001 -1.78 0.28
-18.159 -8.7049999 -1.778 0.27000001
-18.115999 -8.7539997 -1.776 0.28999999
-18.077 -8.8059998 -1.775 0.28
-18.051001 -8.8280001 -1.774 0.27000001
-18.013 -8.8789997 -1.772 0.28
-17.965 -8.9259996 -1.77 0.27000001
-17.933001 -8.9809999 -1.77 0.27000001
-17.884001 -9.026 -1.767 0.27000001
-17.851999 -9.0810003 -1.767 0.25999999
-17.806999 -9.1280003 -1.765 0.27000001
-17.784 -9.1520004 -1.7640001 0.27000001
-17.761999 -9.2110004 -1.765 0.27000001
-17.724001 -9.2620001 -1.7640001 0.28
-17.665001 -9.302 -1.761 0.28999999
-17.627001 -9.3529997 -1.76 0.28999999
-17.587 -9.4029999 -1.7589999 0.27000001
-17.533001 -9.4449997 -1.756 0.27000001
-17.504 -9.4650002 -1.7539999 0.28
-17.457001 -9.5100002 -1.752 0.28
-17.413 -9.5570002 -1.751 0.28
-17.364 -9.6009998 -1.749 0.28999999
-17.325001 -9.651 -1.748 0.28999999
-17.271999 -9.6920004 -1.745 0.28
-17.215 -9.7320004 -1.742 0.28
-17.179001 -9.7469997 -1.74 0.31999999
-17.132999 -9.7919998 -1.738 0.36000001
-17.056999 -9.8199997 -1.733 0.33000001
-16.872999 -9.7849998 -1.716 0.30000001
-16.462999 -9.6149998 -1.6720001 0.23999999
-16.056999 -9.4449997 -1.63 0.47999999
