# .PCD v0.7 - Point Cloud Data file format
VERSION 0.7
FIELDS x y z intensity
SIZE 4 4 4 4
TYPE F F F F
COUNT 1 1 1 1
WIDTH 1359
HEIGHT 1
VIEWPOINT 0 0 0 1 0 0 0
POINTS 1359
DATA ascii
4.7540002 4.9959998 -1.751 0.31
4.7410002 5.0139999 -1.752 0.28999999
4.7290001 5.0170002 -1.75 0.27000001
4.7259998 5.046 -1.755 0.25999999
4.7069998 5.0560002 -1.7539999 0.28
4.7010002 5.0830002 -1.758 0.31
4.6760001 5.0869999 -1.7539999 0.28999999
4.6690001 5.112 -1.758 0.30000001
4.6479998 5.105 -1.753 0.28
4.6269999 5.1139998 -1.751 0.23
4.625 5.1440001 -1.756 0.36000001
4.6040001 5.1529999 -1.7539999 0.28
4.5539999 5.1300001 -1.7410001 0.28999999
4.5339999 5.1399999 -1.739 0.28999999
4.5079999 5.1420002 -1.735 0.44999999
4.494 5.1420002 -1.732 0.34
4.4640002 5.1399999 -1.727 0.28
4.441 5.1469998 -1.724 0.52999997
4.4250002 5.1609998 -1.724 0.37
4.4089999 5.1739998 -1.724 0.31
4.382 5.1760001 -1.72 0.36000001
4.3600001 5.1830001 -1.717 0.33000001
4.336 5.1700001 -1.71 0.31999999
4.3119998 5.1750002 -1.707 0.31999999
4.2849998 5.1750002 -1.7029999 0.31999999
4.2550001 5.1719999 -1.697 0.30000001
4.2329998 5.178 -1.694 0.37
4.2020001 5.1729999 -1.688 0.25999999
4.1799998 5.1789999 -1.6849999 0.31999999
4.1669998 5.1789999 -1.683 0.34
4.1440001 5.1849999 -1.6799999 0.31999999
4.1209998 5.1890001 -1.677 0.30000001
4.092 5.1849999 -1.6720001 0.31
4.0689998 5.1900001 -1.669 0.28999999
4.0409999 5.1880002 -1.664 0.25
4.02 5.1939998 -1.6619999 0.34
3.9979999 5.1820002 -1.655 0.36000001
3.9719999 5.1820002 -1.651 0.31999999
3.95 5.1869998 -1.649 0.31
3.9349999 5.2010002 -1.649 0.28
3.9159999 5.21 -1.648 0.40000001
3.908 5.2329998 -1.652 0.31
3.8840001 5.2350001 -1.648 0.30000001
3.881 5.2490001 -1.651 0.31999999
3.862 5.2579999 -1.65 0.28
3.848 5.2729998 -1.651 0.28999999
3.832 5.2870002 -1.651 0.30000001
3.809 5.289 -1.648 0.38999999
3.793 5.3010001 -1.648 0.33000001
3.767 5.3000002 -1.6440001 0.38
3.7590001 5.3060002 -1.6440001 0.34
3.73 5.3010001 -1.638 0.40000001
3.7119999 5.3109999 -1.638 0.38
3.6949999 5.322 -1.638 0.38999999
3.671 5.323 -1.6339999 0.34
3.648 5.3249998 -1.631 0.43000001
3.6300001 5.335 -1.63 0.34
3.625 5.3449998 -1.632 0.38999999
3.609 5.3579998 -1.632 0.44999999
3.5880001 5.3629999 -1.63 0.34999999
3.566 5.3660002 -1.628 0.44999999
3.5350001 5.3559999 -1.6210001 0.31
3.5139999 5.3610001 -1.619 0.43000001
3.5120001 5.3759999 -1.622 0.36000001
3.493 5.3839998 -1.6210001 0.44
3.4809999 5.4029999 -1.623 0.31999999
3.4449999 5.3829999 -1.613 0.38999999
3.4219999 5.3860002 -1.6109999 0.38
3.398 5.3850002 -1.607 0.43000001
3.391 5.4099998 -1.612 0.36000001
3.388 5.4439998 -1.619 0.27000001
3.375 5.4429998 -1.617 0.37
3.3469999 5.4349999 -1.6109999 0.44
3.3329999 5.4499998 -1.613 0.33000001
3.342 5.5040002 -1.627 0.38999999
3.3280001 5.5209999 -1.6289999 0.27000001
3.2980001 5.5100002 -1.622 0.41999999
3.2869999 5.5120001 -1.6210001 0.41
3.2709999 5.5240002 -1.6210001 0.30000001
3.2509999 5.5289998 -1.62 0.41
3.2260001 5.526 -1.6160001 0.34999999
3.227 5.5679998 -1.625 0.38
3.2130001 5.5840001 -1.628 0.38
3.194 5.5929999 -1.627 0.38
3.175 5.599 -1.626 0.38999999
3.174 5.618 -1.63 0.31999999
3.152 5.6209998 -1.628 0.47999999
3.141 5.6430001 -1.632 0.37
3.119 5.6440001 -1.6289999 0.31
3.099 5.651 -1.628 0.43000001
3.0669999 5.6329999 -1.62 0.33000001
3.0639999 5.6500001 -1.623 0.38999999
3.0409999 5.6490002 -1.62 0.34999999
3.0220001 5.6570001 -1.62 0.41
2.9879999 5.6339998 -1.61 0.37
2.9790001 5.6609998 -1.615 0.33000001
2.9660001 5.6799998 -1.618 0.38
2.9660001 5.724 -1.6289999 0.38
2.9590001 5.7540002 -1.635 0.37
2.951 5.7620001 -1.636 0.34
2.9319999 5.7690001 -1.635 0.41
2.8929999 5.7350001 -1.622 0.41
2.8399999 5.6750002 -1.601 0.33000001
2.8299999 5.6999998 -1.6059999 0.38999999
2.806 5.6960001 -1.602 0.37
2.809 5.7470002 -1.615 0.38999999
2.7820001 5.7150002 -1.604 0.31999999
2.783 5.7639999 -1.6160001 0.31999999
2.7780001 5.8000002 -1.624 0.31
2.7839999 5.8600001 -1.64 0.37
2.779 5.8979998 -1.649 0.36000001
2.7609999 5.9070001 -1.649 0.31
2.73 5.8889999 -1.641 0.37
2.71 5.869 -1.633 0.41
2.674 5.8379998 -1.622 0.37
2.6700001 5.8800001 -1.632 0.36000001
2.6559999 5.8990002 -1.635 0.36000001
2.632 5.895 -1.631 0.40000001
2.6029999 5.8790002 -1.624 0.34999999
2.5869999 5.8920002 -1.625 0.36000001
2.5680001 5.875 -1.619 0.47
2.5450001 5.8709998 -1.6160001 0.38999999
2.523 5.8709998 -1.613 0.37
2.5079999 5.888 -1.6160001 0.31999999
2.4879999 5.8930001 -1.615 0.44999999
2.4719999 5.9060001 -1.617 0.36000001
2.4560001 5.9190001 -1.618 0.34999999
2.444 5.9169998 -1.617 0.37
2.4289999 5.9320002 -1.619 0.34999999
2.414 5.9499998 -1.622 0.41
2.3959999 5.96 -1.622 0.34999999
2.375 5.9619999 -1.6210001 0.43000001
2.3670001 5.9959998 -1.6289999 0.38
2.3670001 6.0229998 -1.635 0.31999999
2.349 6.0339999 -1.636 0.40000001
2.348 6.0890002 -1.65 0.27000001
2.326 6.0890002 -1.648 0.52999997
2.3099999 6.1030002 -1.65 0.31999999
2.2909999 6.112 -1.651 0.46000001
2.28 6.1389999 -1.656 0.34999999
2.256 6.1339998 -1.653 0.43000001
2.2460001 6.1370001 -1.653 0.38
2.2249999 6.1389999 -1.651 0.41
2.2030001 6.1399999 -1.65 0.34
2.1819999 6.1399999 -1.647 0.47999999
2.164 6.152 -1.649 0.30000001
2.152 6.1789999 -1.655 0.46000001
2.1400001 6.2080002 -1.661 0.40000001
2.1359999 6.2290001 -1.666 0.28999999
2.1129999 6.2249999 -1.663 0.47999999
2.098 6.2449999 -1.6670001 0.36000001
2.0869999 6.2789998 -1.675 0.38
2.0710001 6.296 -1.678 0.41
2.053 6.3080001 -1.679 0.38
2.0339999 6.316 -1.6799999 0.38999999
1.9910001 6.2150002 -1.65 0.40000001
1.976 6.2379999 -1.655 0.38999999
1.946 6.2090001 -1.645 0.38
1.944 6.2740002 -1.6619999 0.38999999
1.931 6.302 -1.668 0.31
1.902 6.2750001 -1.658 0.37
1.873 6.2509999 -1.65 0.43000001
1.8660001 6.263 -1.653 0.28999999
1.853 6.2909999 -1.659 0.52999997
1.804 6.1950002 -1.63 0.34
1.812 6.2969999 -1.6569999 0.37
1.819 6.4000001 -1.6849999 0.34999999
1.767 6.2919998 -1.653 0.41999999
1.7460001 6.29 -1.651 0.36000001
1.734 6.2849998 -1.649 0.44999999
1.732 6.3600001 -1.668 0.30000001
1.7309999 6.434 -1.687 0.40000001
1.712 6.4450002 -1.689 0.30000001
1.684 6.421 -1.6799999 0.46000001
1.66 6.4130001 -1.677 0.34999999
1.6440001 6.4330001 -1.681 0.44
1.637 6.447 -1.684 0.38
1.622 6.4720001 -1.6900001 0.36000001
1.609 6.5110002 -1.699 0.41
1.5930001 6.5349998 -1.705 0.44999999
1.575 6.5479999 -1.707 0.31999999
1.562 6.586 -1.716 0.5
1.534 6.559 -1.707 0.38999999
1.5140001 6.52 -1.696 0.38999999
1.482 6.4720001 -1.681 0.37
1.4579999 6.4619999 -1.677 0.34999999
1.433 6.4419999 -1.67 0.38
1.427 6.5159998 -1.689 0.33000001
1.406 6.5170002 -1.688 0.41
1.39 6.5419998 -1.694 0.38
1.386 6.5739999 -1.7029999 0.41
1.362 6.5630002 -1.698 0.34
1.345 6.585 -1.7029999 0.44
1.325 6.5929999 -1.704 0.33000001
1.3 6.5739999 -1.698 0.37
1.281 6.5900002 -1.701 0.37
1.268 6.6350002 -1.712 0.38
1.2589999 6.645 -1.715 0.34
1.24 6.6539998 -1.716 0.46000001
1.215 6.6389999 -1.711 0.34
1.197 6.658 -1.715 0.38
1.177 6.6680002 -1.717 0.33000001
1.156 6.6680002 -1.716 0.5
1.122 6.5929999 -1.694 0.31
1.118 6.6350002 -1.705 0.43000001
1.09 6.5949998 -1.693 0.40000001
1.072 6.6149998 -1.698 0.41999999
1.058 6.6599998 -1.709 0.34
1.04 6.6869998 -1.716 0.31999999
1.011 6.6360002 -1.701 0.40000001
0.99400002 6.664 -1.7079999 0.36000001
0.98000002 6.6409998 -1.701 0.38999999
0.95999998 6.6539998 -1.704 0.37
0.94 6.6620002 -1.705 0.34
0.92799997 6.7319999 -1.723 0.47999999
0.898 6.6620002 -1.704 0.38
0.87599999 6.6560001 -1.701 0.28999999
0.87599999 6.7449999 -1.725 0.40000001
0.85799998 6.7709999 -1.7309999 0.34
0.82800001 6.7010002 -1.711 0.44
0.81699997 6.7909999 -1.7359999 0.34999999
0.79500002 6.79 -1.734 0.46000001
0.76599997 6.7199998 -1.715 0.34999999
0.74599999 6.7340002 -1.7180001 0.31999999
0.72399998 6.7319999 -1.717 0.38999999
0.71100003 6.704 -1.709 0.38
0.699 6.803 -1.735 0.31
0.67799997 6.8010001 -1.734 0.41
0.65499997 6.79 -1.73 0.41
0.634 6.7969999 -1.732 0.38
0.616 6.8400002 -1.743 0.40000001
0.59600002 6.8509998 -1.745 0.33000001
0.58999997 6.9190001 -1.7640001 0.47999999
0.56699997 6.9039998 -1.7589999 0.30000001
0.54299998 6.8649998 -1.748 0.47999999
0.52700001 6.954 -1.772 0.34999999
0.505 6.9549999 -1.772 0.38
0.484 6.9679999 -1.775 0.37
0.463 6.974 -1.776 0.34999999
0.45100001 6.9689999 -1.774 0.46000001
0.43599999 7.0760002 -1.803 0.31
0.417 7.1389999 -1.8200001 0.44999999
0.39300001 7.1149998 -1.813 0.28999999
0.37 7.1129999 -1.812 0.54000002
0.347 7.0999999 -1.808 0.31999999
0.336 7.0929999 -1.806 0.43000001
0.315 7.1149998 -1.812 0.28999999
0.29300001 7.1350002 -1.817 0.41
0.273 7.21 -1.837 0.18000001
0.26300001 7.6209998 -1.949 0.31
0.23999999 7.6680002 -1.961 0.5
0.21799999 7.743 -1.9809999 0.25999999
0.19400001 7.7610002 -1.9859999 0.31
0.18099999 7.7160001 -1.974 0.38
0.15700001 7.7319999 -1.978 0.38999999
0.132 7.6960001 -1.9680001 0.23
0.109 7.7270002 -1.977 0.25999999
0.085000001 7.7589998 -1.985 0.43000001
0.059999999 7.7589998 -1.985 0.31999999
0.035999998 7.7090001 -1.971 0.34
0.024 7.724 -1.976 0.37
-0.001 7.7480001 -1.982 0.41
-0.025 7.7199998 -1.974 0.28
-0.048999999 7.711 -1.972 0.25
-0.072999999 7.6700001 -1.961 0.31
-0.096000001 7.645 -1.954 0.36000001
-0.121 7.6599998 -1.9579999 0.30000001
-0.133 7.6630001 -1.959 0.44
-0.15700001 7.6750002 -1.962 0.31999999
-0.18099999 7.6570001 -1.9579999 0.31999999
-0.205 7.6440001 -1.955 0.33000001
-0.23 7.6859999 -1.966 0.31999999
-0.25600001 7.7259998 -1.977 0.31999999
-0.26899999 7.7620001 -1.987 0.34999999
-0.29300001 7.7589998 -1.987 0.38
-0.317 7.7470002 -1.983 0.23999999
-0.33899999 7.698 -1.97 0.38999999
-0.36300001 7.6950002 -1.97 0.38999999
-0.38699999 7.678 -1.966 0.36000001
-0.41 7.6570001 -1.96 0.34
-0.435 7.6750002 -1.966 0.38999999
-0.44999999 7.7270002 -1.98 0.28999999
-0.47299999 7.7080002 -1.975 0.27000001
-0.49599999 7.678 -1.967 0.34
-0.51800001 7.6430001 -1.9579999 0.31999999
-0.55000001 7.7529998 -1.989 0.37
-0.56999999 7.7010002 -1.975 0.22
-0.58700001 7.6090002 -1.95 0.33000001
-0.60000002 7.6160002 -1.952 0.44
-0.63099998 7.6989999 -1.976 0.31999999
-0.65600002 7.7119999 -1.98 0.25999999
-0.67799997 7.6810002 -1.972 0.36000001
-0.70200002 7.6750002 -1.971 0.43000001
-0.72799999 7.6939998 -1.977 0.33000001
-0.759 7.7550001 -1.994 0.36000001
-0.76800001 7.7290001 -1.987 0.31999999
-0.79799998 7.776 -2.0009999 0.38
-0.82200003 7.776 -2.0009999 0.37
-0.84600002 7.7670002 -2 0.27000001
-0.87099999 7.7719998 -2.0020001 0.34999999
-0.89200002 7.7350001 -1.992 0.28999999
-0.90899998 7.776 -2.0039999 0.38
-0.93099999 7.756 -1.999 0.30000001
-0.95099998 7.7160001 -1.989 0.25999999
-0.97600001 7.7210002 -1.9910001 0.43000001
-0.99599999 7.6869998 -1.983 0.27000001
-1.017 7.6570001 -1.976 0.38
-1.044 7.677 -1.982 0.33000001
-1.069 7.6750002 -1.982 0.36000001
-1.085 7.7020001 -1.99 0.33000001
-1.113 7.7280002 -1.998 0.37
-1.133 7.6919999 -1.989 0.28
-1.156 7.6799998 -1.987 0.41
-1.186 7.717 -1.998 0.33000001
-1.2029999 7.6669998 -1.985 0.28999999
-1.235 7.7129998 -1.999 0.34
-1.2460001 7.7010002 -1.9960001 0.34
-1.267 7.6799998 -1.992 0.31999999
-1.29 7.6690001 -1.99 0.25999999
-1.314 7.6690001 -1.9910001 0.31999999
-1.336 7.6490002 -1.987 0.38
-1.364 7.6700001 -1.993 0.27000001
-1.391 7.6789999 -1.997 0.43000001
-1.406 7.6929998 -2.0020001 0.30000001
-1.425 7.6609998 -1.994 0.34999999
-1.45 7.6599998 -1.995 0.31
-1.484 7.7059999 -2.0090001 0.28
-1.505 7.6880002 -2.0050001 0.36000001
-1.525 7.6609998 -1.999 0.27000001
-1.5369999 7.6599998 -2 0.47999999
-1.557 7.6329999 -1.993 0.34999999
-1.584 7.645 -1.998 0.28999999
-1.608 7.6399999 -1.998 0.34999999
-1.637 7.6560001 -2.0039999 0.38
-1.675 7.7150002 -2.0220001 0.25999999
-1.692 7.677 -2.013 0.43000001
-1.697 7.6430001 -2.0039999 0.30000001
-1.73 7.677 -2.0150001 0.38999999
-1.751 7.6599998 -2.0120001 0.25999999
-1.778 7.664 -2.0139999 0.36000001
-1.799 7.645 -2.0109999 0.38
-1.8200001 7.6300001 -2.0079999 0.25
-1.847 7.6339998 -2.0109999 0.25
-1.864 7.6030002 -2.0039999 0.33000001
-1.882 7.625 -2.0109999 0.33000001
-1.913 7.645 -2.0179999 0.30000001
-1.942 7.658 -2.023 0.25999999
-1.98 7.704 -2.0380001 0.34999999
-1.998 7.677 -2.0320001 0.38
-2.029 7.6950002 -2.039 0.31
-2.0420001 7.6479998 -2.027 0.28
-2.0450001 7.6110001 -2.0179999 0.38
-2.0929999 7.6919999 -2.043 0.49000001
-2.112 7.6669998 -2.0369999 0.33000001
-2.1429999 7.6859999 -2.0450001 0.30000001
-2.171 7.6919999 -2.0480001 0.34
-2.1900001 7.6669998 -2.043 0.34
-2.2119999 7.652 -2.0409999 0.25999999
-2.221 7.6399999 -2.0380001 0.33000001
-2.247 7.638 -2.04 0.34999999
-2.267 7.618 -2.036 0.33000001
-2.306 7.6609998 -2.05 0.38
-2.3199999 7.6199999 -2.0409999 0.31
-2.345 7.619 -2.043 0.27000001
-2.3859999 7.665 -2.0580001 0.20999999
-2.3900001 7.6350002 -2.05 0.44999999
-2.405 7.5999999 -2.043 0.37
-2.4389999 7.6240001 -2.0510001 0.38999999
-2.4579999 7.6009998 -2.0469999 0.37
-2.48 7.586 -2.0450001 0.33000001
-2.507 7.5869999 -2.0480001 0.37
-2.5190001 7.5450001 -2.0380001 0.28999999
-2.516 7.4970002 -2.0250001 0.27000001
-2.5450001 7.5050001 -2.03 0.33000001
-2.5780001 7.527 -2.0380001 0.28999999
-2.6159999 7.559 -2.05 0.44999999
-2.635 7.5380001 -2.046 0.30000001
-2.6340001 7.46 -2.026 0.33000001
-2.651 7.434 -2.0209999 0.28999999
-2.668 7.4419999 -2.0250001 0.28999999
-2.7090001 7.4829998 -2.039 0.23999999
-2.7260001 7.4580002 -2.0339999 0.38
-2.74 7.4239998 -2.027 0.28
-2.7639999 7.415 -2.027 0.23999999
-2.7939999 7.4260001 -2.033 0.38
-2.836 7.4640002 -2.046 0.28999999
-2.845 7.4530001 -2.0439999 0.30000001
-2.8829999 7.4819999 -2.0550001 0.36000001
-2.895 7.4439998 -2.0469999 0.38
-2.9130001 7.4200001 -2.043 0.37
-2.9389999 7.4200001 -2.0450001 0.47
-2.973 7.4359999 -2.053 0.25
-2.9820001 7.3920002 -2.043 0.34999999
-2.9820001 7.3569999 -2.0339999 0.28999999
-3.0109999 7.362 -2.0380001 0.43000001
-3.03 7.3439999 -2.0350001 0.36000001
-3.0550001 7.3400002 -2.0369999 0.38
-3.089 7.355 -2.0439999 0.28999999
-3.1129999 7.3470001 -2.0450001 0.36000001
-3.131 7.3270001 -2.0420001 0.31999999
-3.132 7.2969999 -2.0339999 0.33000001
-3.145 7.2639999 -2.027 0.41
-3.1730001 7.2659998 -2.0309999 0.27000001
-3.2049999 7.276 -2.0369999 0.47999999
-3.2190001 7.2459998 -2.0309999 0.28999999
-3.2539999 7.2639999 -2.039 0.37
-3.273 7.2449999 -2.0369999 0.28999999
-3.2750001 7.2189999 -2.0309999 0.38999999
-3.3010001 7.2160001 -2.033 0.31999999
-3.2920001 7.1389999 -2.013 0.34999999
-3.3199999 7.1389999 -2.016 0.31999999
-3.381 7.21 -2.04 0.38999999
-3.4070001 7.2069998 -2.043 0.43000001
-3.362 7.0549998 -2 0.22
-3.4000001 7.1069999 -2.017 0.36000001
-3.4419999 7.1360002 -2.029 0.36000001
-3.444 7.0840001 -2.017 0.31
-3.477 7.0939999 -2.023 0.33000001
-3.4879999 7.0599999 -2.016 0.31999999
-3.526 7.0819998 -2.026 0.36000001
-3.5420001 7.0570002 -2.0220001 0.38999999
-3.5799999 7.079 -2.0320001 0.38
-3.556 7.0040002 -2.0109999 0.30000001
-3.625 7.0840001 -2.039 0.34999999
-3.652 7.0809999 -2.0420001 0.28999999
-3.6760001 7.073 -2.043 0.41999999
-3.6960001 7.0580001 -2.0420001 0.40000001
-3.7130001 7.0359998 -2.0380001 0.41
-3.7420001 7.0380001 -2.043 0.22
-3.753 7.0310001 -2.0420001 0.31999999
-3.763 6.9970002 -2.0350001 0.37
-3.773 6.9629998 -2.0280001 0.34
-3.7869999 6.9380002 -2.0239999 0.28999999
-3.8139999 6.934 -2.027 0.51999998
-3.8369999 6.9250002 -2.0280001 0.30000001
-3.8380001 6.901 -2.0220001 0.38999999
-3.8440001 6.862 -2.0139999 0.31999999
-3.8829999 6.8800001 -2.023 0.36000001
-3.904 6.8660002 -2.023 0.28
-3.9159999 6.8390002 -2.0179999 0.25999999
-3.954 6.855 -2.027 0.40000001
-3.9879999 6.862 -2.033 0.33000001
-3.9979999 6.8559999 -2.033 0.38
-4.027 6.855 -2.0369999 0.31999999
-4.0500002 6.8460002 -2.0380001 0.34999999
-4.0890002 6.8610001 -2.0469999 0.37
-4.119 6.8629999 -2.0510001 0.30000001
-4.1370001 6.8429999 -2.049 0.46000001
-4.165 6.842 -2.053 0.36000001
-4.1760001 6.8109999 -2.0469999 0.31
-4.177 6.789 -2.043 0.44
-4.197 6.7750001 -2.0420001 0.36000001
-4.2129998 6.7529998 -2.039 0.25
-4.2449999 6.756 -2.0450001 0.30000001
-4.2519999 6.7199998 -2.0369999 0.47999999
-4.27 6.7020001 -2.036 0.28999999
-4.3150001 6.7259998 -2.0480001 0.33000001
-4.322 6.7140002 -2.046 0.38
-4.2989998 6.6329999 -2.0239999 0.31999999
-4.3109999 6.6059999 -2.02 0.20999999
-4.3629999 6.6389999 -2.0350001 0.44999999
-4.3579998 6.5869999 -2.023 0.28999999
-4.4070001 6.6149998 -2.036 0.31999999
-4.4229999 6.5949998 -2.0339999 0.36000001
-4.4260001 6.5760002 -2.0309999 0.20999999
-4.4679999 6.5939999 -2.0409999 0.43000001
-4.4780002 6.5640001 -2.036 0.46000001
-4.4829998 6.5279999 -2.0280001 0.25
-4.5209999 6.539 -2.0369999 0.34999999
-4.5700002 6.5650001 -2.05 0.36000001
-4.5110002 6.4380002 -2.013 0.27000001
-4.5219998 6.4330001 -2.013 0.25
-4.5570002 6.4390001 -2.02 0.40000001
-4.5349998 6.3649998 -2 0.38
-4.5599999 6.3590002 -2.003 0.28999999
-4.6100001 6.3850002 -2.016 0.41999999
-4.6020002 6.3330002 -2.0039999 0.17
-4.612 6.3039999 -1.999 0.51999998
-4.6230001 6.2989998 -2 0.30000001
-4.6399999 6.2810001 -1.999 0.20999999
-4.651 6.2540002 -1.994 0.33000001
-4.665 6.2319999 -1.992 0.38999999
-4.6869998 6.2199998 -1.993 0.28999999
-4.7030001 6.2010002 -1.9910001 0.36000001
-4.7329998 6.1999998 -1.9960001 0.37
-4.7319999 6.1789999 -1.9910001 0.33000001
-4.763 6.1789999 -1.9960001 0.28
-4.7909999 6.1750002 -2 0.34
-4.8150001 6.1659999 -2.0020001 0.34
-4.8340001 6.1500001 -2.0020001 0.34
-4.816 6.0879998 -1.9859999 0.23
-4.8499999 6.0910001 -1.992 0.37
-4.855 6.0780001 -1.99 0.28999999
-4.914 6.112 -2.007 0.38
-4.8940001 6.0479999 -1.9910001 0.31999999
-4.8410001 5.9450002 -1.96 0.30000001
-4.96 6.052 -2.003 0.33000001
-4.9619999 6.0149999 -1.995 0.25999999
-4.9190001 5.9260001 -1.969 0.36000001
-4.9629998 5.9590001 -1.984 0.31
-4.974 5.9349999 -1.9809999 0.30000001
-4.928 5.8429999 -1.954 0.34
-4.9619999 5.8460002 -1.96 0.28999999
-4.921 5.7620001 -1.936 0.38999999
-5.0079999 5.8249998 -1.964 0.25
-4.973 5.7480001 -1.942 0.36000001
-5 5.7610002 -1.949 0
-5.0110002 5.7379999 -1.947 0
-4.9439998 5.625 -1.9119999 0
-4.9569998 5.605 -1.91 0
-5.0079999 5.6269999 -1.924 0
-5.0229998 5.573 -1.915 0.14
-5.0370002 5.5710001 -1.9170001 0.28
-5.0700002 5.572 -1.924 0.23
-5.086 5.5539999 -1.923 0.22
-5.1079998 5.5430002 -1.925 0.33000001
-5.1350002 5.5380001 -1.929 0.30000001
-5.1500001 5.5190001 -1.928 0.30000001
-5.1729999 5.5079999 -1.9299999 0.30000001
-5.177 5.4959998 -1.928 0.31999999
-5.1929998 5.4780002 -1.928 0.31999999
-5.2080002 5.4590001 -1.927 0.28999999
-5.2249999 5.4429998 -1.927 0.31999999
-5.2220001 5.4060001 -1.919 0.31
-5.2319999 5.382 -1.916 0.30000001
-5.2340002 5.3509998 -1.911 0.25
-5.2290001 5.329 -1.905 0.2
-5.244 5.3109999 -1.905 0.31
-5.2789998 5.3119998 -1.9119999 0.33000001
-5.2930002 5.2930002 -1.911 0.43000001
-5.3049998 5.2719998 -1.909 0.49000001
-5.322 5.2550001 -1.909 0.56999999
-5.3270001 5.2280002 -1.905 0.73000002
-5.3369999 5.2210002 -1.905 0.69999999
-5.3540001 5.2049999 -1.906 0.57999998
-5.368 5.1859999 -1.905 0.46000001
-5.3740001 5.1599998 -1.901 0.38999999
-5.3990002 5.151 -1.904 0.44999999
-5.4260001 5.1440001 -1.908 0.44999999
-5.447 5.131 -1.91 0.28999999
-5.4580002 5.125 -1.911 0.31999999
-5.4749999 5.1090002 -1.9119999 0.31
-5.4860001 5.0869999 -1.909 0.30000001
-5.5029998 5.0710001 -1.91 0.27000001
-5.526 5.0599999 -1.913 0.31999999
-5.526 5.0289998 -1.9069999 0.28
-5.5489998 5.0180001 -1.909 0.31999999
-5.5679998 5.0190001 -1.914 0.31
-5.5749998 4.994 -1.911 0.28999999
-5.6040001 4.9879999 -1.915 0.31999999
-5.6079998 4.96 -1.911 0.30000001
-5.6240001 4.9419999 -1.911 0.27000001
-5.6570001 4.9400001 -1.9170001 0.31999999
-5.6620002 4.9130001 -1.914 0.28
-5.6760001 4.9089999 -1.916 0.31999999
-5.6939998 4.8940001 -1.9170001 0.28999999
-5.7090001 4.8759999 -1.9170001 0.30000001
-5.7319999 4.8639998 -1.919 0.28999999
-5.75 4.849 -1.92 0.30000001
-5.7639999 4.8299999 -1.92 0.28999999
-5.7800002 4.8130002 -1.92 0.28999999
-5.7950001 4.8099999 -1.923 0.28
-5.8150001 4.7950001 -1.925 0.28999999
-5.8270001 4.7740002 -1.924 0.27000001
-5.8470001 4.7600002 -1.925 0.27000001
-5.8629999 4.743 -1.926 0.28
-5.8699999 4.7179999 -1.923 0.30000001
-5.8940001 4.7069998 -1.926 0.28999999
-5.9089999 4.704 -1.929 0.2
-5.9250002 4.6859999 -1.929 0.27000001
-5.9520001 4.677 -1.934 0.25
-5.9650002 4.6570001 -1.933 0.18000001
-5.9980001 4.6529999 -1.939 0.27000001
-6.0209999 4.6399999 -1.942 0.23
-6.0380001 4.6230001 -1.943 0.20999999
-6.0469999 4.6149998 -1.944 0.13
-6.072 4.6040001 -1.947 0
-6.0619998 4.566 -1.939 0
-6.052 4.5289998 -1.9299999 0.029999999
-6.0949998 4.5310001 -1.9400001 0.090000004
-6.1370001 4.533 -1.95 0.19
-6.1939998 4.5440001 -1.964 0
-6.2090001 4.54 -1.967 0
-6.1040001 4.4050002 -1.9220001 0
-6.165 4.4200001 -1.938 0
-6.1739998 4.3969998 -1.936 0
-6.1939998 4.382 -1.938 0
-6.2160001 4.368 -1.941 0.039999999
-6.2259998 4.3610001 -1.942 0.20999999
-6.2280002 4.3330002 -1.938 0.19
-6.2480001 4.3179998 -1.9400001 0.25999999
-6.2540002 4.2930002 -1.938 0.22
-6.2540002 4.2649999 -1.934 0.20999999
-6.276 4.25 -1.936 0.27000001
-6.2779999 4.223 -1.933 0.25
-6.2880001 4.2150002 -1.934 0.19
-6.2880001 4.1869998 -1.929 0.25999999
-6.2950001 4.1630001 -1.927 0.25
-6.3109999 4.145 -1.928 0.22
-6.3239999 4.1259999 -1.928 0.25
-6.3369999 4.1059999 -1.928 0.23999999
-6.3429999 4.0819998 -1.926 0.19
-6.348 4.0710001 -1.926 0.27000001
-6.3540001 4.0469999 -1.924 0.23999999
-6.3699999 4.0289998 -1.925 0.2
-6.3779998 4.0050001 -1.923 0.25
-6.3790002 3.9779999 -1.919 0.22
-6.395 3.96 -1.92 0.2
-6.3990002 3.9489999 -1.92 0.27000001
-6.4099998 3.928 -1.919 0.25
-6.4120002 3.902 -1.916 0.25999999
-6.428 3.8840001 -1.9170001 0.25999999
-6.427 3.8559999 -1.913 0.27000001
-6.4489999 3.8410001 -1.916 0.28
-6.4530001 3.816 -1.914 0.27000001
-6.4759998 3.803 -1.9170001 0.28
-6.4660001 3.783 -1.9119999 0.28
-6.4819999 3.7650001 -1.914 0.28
-6.4910002 3.743 -1.913 0.27000001
-6.5029998 3.723 -1.913 0.27000001
-6.507 3.698 -1.911 0.28
-6.5120001 3.674 -1.908 0.28
-6.5149999 3.6619999 -1.9069999 0.27000001
-6.5279999 3.6429999 -1.908 0.28999999
-6.5430002 3.6240001 -1.909 0.27000001
-6.5560002 3.6040001 -1.909 0.27000001
-6.5619998 3.5810001 -1.908 0.28999999
-6.5679998 3.5569999 -1.906 0.27000001
-6.586 3.54 -1.908 0.25999999
-6.5949998 3.5320001 -1.909 0.28999999
-6.6030002 3.5090001 -1.908 0.28
-6.6139998 3.4890001 -1.908 0.28
-6.631 3.471 -1.911 0.27000001
-6.6389999 3.4489999 -1.909 0.27000001
-6.6479998 3.427 -1.909 0.25
-6.6589999 3.4059999 -1.909 0.19
-6.6760001 3.402 -1.913 0.27000001
-6.6849999 3.3800001 -1.9119999 0.23
-6.6869998 3.355 -1.909 0.27000001
-6.7059999 3.3380001 -1.9119999 0.27000001
-6.71 3.313 -1.91 0.25999999
-6.73 3.2969999 -1.913 0.27000001
-6.7410002 3.276 -1.913 0.28
-6.7459998 3.266 -1.913 0.25999999
-6.77 3.2509999 -1.9170001 0.23999999
-6.7750001 3.227 -1.916 0.20999999
-6.7849998 3.2060001 -1.916 0.27000001
-6.7989998 3.1860001 -1.9170001 0.22
-6.803 3.1619999 -1.915 0.2
-6.8200002 3.1440001 -1.9170001 0.25
-6.8319998 3.1370001 -1.919 0.20999999
-6.8309999 3.1099999 -1.916 0.12
-6.8449998 3.0910001 -1.9170001 0.19
-6.849 3.0669999 -1.916 0.1
-6.8889999 3.0580001 -1.925 0
-6.8699999 3.0239999 -1.916 0
-6.8870001 3.006 -1.918 0
-7.2399998 1.799 -1.904 0
-7.2420001 1.775 -1.903 0.02
-7.2600002 1.755 -1.906 0.07
-7.243 1.727 -1.9 0.18000001
-7.2509999 1.705 -1.901 0.28
-7.257 1.694 -1.902 0.27000001
-7.2550001 1.67 -1.9 0.28999999
-7.2690001 1.649 -1.902 0.28999999
-7.2779999 1.627 -1.903 0.27000001
-7.2870002 1.605 -1.904 0.28
-7.2880001 1.581 -1.903 0.30000001
-7.303 1.5599999 -1.906 0.28
-7.2979999 1.5470001 -1.904 0.28999999
-7.3039999 1.525 -1.904 0.28
-7.3260002 1.505 -1.909 0.27000001
-7.3330002 1.483 -1.909 0.27000001
-7.3299999 1.4579999 -1.9069999 0.28999999
-7.3460002 1.437 -1.911 0.28999999
-7.335 1.411 -1.906 0.20999999
-7.3429999 1.401 -1.908 0.28999999
-7.342 1.377 -1.906 0
-7.3400002 1.353 -1.905 0
-7.4990001 1.3329999 -1.946 0.23
-7.4819999 1.306 -1.9400001 0.16
-7.3969998 1.267 -1.916 0
-7.3400002 1.198 -1.897 0
-7.3720002 1.1799999 -1.905 0
-7.3889999 1.159 -1.909 0
-7.3829999 1.1339999 -1.906 0.07
-7.3899999 1.1109999 -1.9069999 0.25
-7.3769999 1.097 -1.903 0.27000001
-7.369 1.073 -1.9 0.16
-7.3629999 1.048 -1.897 0.31
-7.3470001 1.022 -1.892 0.23999999
-7.3520002 1 -1.893 0.27000001
-7.3699999 0.97799999 -1.897 0.25
-7.3390002 0.95099998 -1.887 0.30000001
-7.3460002 0.94 -1.8890001 0.27000001
-7.349 0.917 -1.8890001 0.25999999
-7.3330002 0.89200002 -1.8839999 0.16
-7.3260002 0.86799997 -1.881 0.28999999
-7.3340001 0.84500003 -1.883 0.23999999
-7.3249998 0.82099998 -1.88 0.27000001
-7.3200002 0.79699999 -1.878 0.19
-7.3189998 0.78500003 -1.877 0.28
-7.3179998 0.76200002 -1.876 0.23999999
-7.3340001 0.74000001 -1.88 0.25
-7.3270001 0.71600002 -1.877 0.17
-7.3169999 0.69199997 -1.874 0.28999999
-7.3060002 0.66799998 -1.87 0.25
-7.3239999 0.65799999 -1.875 0.23999999
-7.2989998 0.63300002 -1.868 0.18000001
-7.303 0.61000001 -1.868 0.28999999
-7.2989998 0.58700001 -1.867 0.25
-7.3109999 0.56400001 -1.869 0.23999999
-7.289 0.54000002 -1.863 0.30000001
-7.2969999 0.51700002 -1.864 0.28
-7.2849998 0.49399999 -1.8609999 0.27000001
-7.2820001 0.48199999 -1.86 0.25999999
-7.2810001 0.45899999 -1.859 0.25999999
-7.2789998 0.43599999 -1.858 0.25999999
-7.2610002 0.412 -1.853 0.25999999
-7.27 0.389 -1.855 0.28999999
-7.2649999 0.366 -1.853 0.28999999
-7.263 0.34299999 -1.852 0.27000001
-7.2670002 0.33199999 -1.853 0.27000001
-7.2529998 0.30899999 -1.849 0.27000001
-7.244 0.28600001 -1.847 0.28999999
-7.2540002 0.26300001 -1.849 0.27000001
-7.2399998 0.23999999 -1.845 0.28999999
-7.2329998 0.21699999 -1.8430001 0.28999999
-7.257 0.19499999 -1.849 0.27000001
-7.2340002 0.183 -1.8430001 0.30000001
-7.2340002 0.16 -1.8430001 0.28999999
-7.2290001 0.13699999 -1.841 0.27000001
-7.2179999 0.114 -1.8380001 0.28
-7.2389998 0.092 -1.844 0.25999999
-7.2199998 0.068999998 -1.839 0.18000001
-7.217 0.057999998 -1.8380001 0.30000001
-7.211 0.035 -1.836 0.23
-7.2150002 0.012 -1.837 0.25999999
-7.2129998 -0.0099999998 -1.837 0.27000001
-7.2150002 -0.033 -1.837 0.25999999
-7.2090001 -0.056000002 -1.836 0.25999999
-7.1929998 -0.078000002 -1.831 0.27000001
-7.1989999 -0.089000002 -1.8329999 0.25999999
-7.2020001 -0.112 -1.834 0.25
-7.1880002 -0.134 -1.83 0.16
-7.1939998 -0.15700001 -1.832 0.30000001
-7.191 -0.18000001 -1.831 0.25
-7.191 -0.20200001 -1.831 0.25
-7.1799998 -0.22400001 -1.829 0.20999999
-7.1859999 -0.236 -1.83 0.13
-7.006 -0.25099999 -1.7819999 0.19
-7.0029998 -0.273 -1.781 0.25999999
-6.994 -0.29499999 -1.779 0.23
-6.9720001 -0.31600001 -1.773 0.17
-6.9959998 -0.33899999 -1.78 0.25999999
-6.98 -0.36000001 -1.776 0.20999999
-6.9559999 -0.37 -1.77 0.19
-6.9819999 -0.39300001 -1.777 0.25999999
-6.9650002 -0.414 -1.773 0.22
-6.941 -0.435 -1.766 0.18000001
-6.9699998 -0.45899999 -1.775 0.25999999
-6.9569998 -0.47999999 -1.772 0.22
-6.9419999 -0.50099999 -1.768 0.19
-6.9489999 -0.51200002 -1.77 0.27000001
-6.9200001 -0.53200001 -1.763 0.16
-6.9359999 -0.55500001 -1.767 0.25999999
-6.9320002 -0.57599998 -1.767 0.23
-6.9070001 -0.59600002 -1.761 0.19
-6.927 -0.62 -1.766 0.27000001
-6.9130001 -0.64099997 -1.763 0.23999999
-6.9120002 -0.65100002 -1.763 0.25999999
-6.8930001 -0.671 -1.7589999 0.19
-6.9120002 -0.69499999 -1.7640001 0.25999999
-6.902 -0.71600002 -1.762 0.25
-6.8759999 -0.73500001 -1.756 0.18000001
-6.888 -0.75800002 -1.76 0.27000001
-6.8790002 -0.76800001 -1.758 0.22
-6.8629999 -0.78799999 -1.7539999 0.18000001
-6.8870001 -0.81300002 -1.761 0.27000001
-6.875 -0.83399999 -1.7589999 0.23999999
-6.8470001 -0.852 -1.752 0.2
-6.8559999 -0.875 -1.755 0.25999999
-6.8509998 -0.89600003 -1.7539999 0.25
-6.8369999 -0.90499997 -1.751 0.19
-6.8400002 -0.92699999 -1.752 0.27000001
-6.8309999 -0.94800001 -1.751 0.22
-6.8429999 -0.972 -1.755 0.25999999
-6.8060002 -0.98799998 -1.745 0.18000001
-6.822 -1.012 -1.751 0.28
-6.8049998 -1.0319999 -1.747 0.25
-6.8039999 -1.053 -1.748 0.28999999
-6.796 -1.063 -1.7460001 0.27000001
-6.7930002 -1.085 -1.7460001 0.27000001
-6.7800002 -1.104 -1.743 0.28
-6.7820001 -1.127 -1.745 0.27000001
-6.7729998 -1.147 -1.743 0.27000001
-6.7709999 -1.169 -1.744 0.27000001
-6.777 -1.1799999 -1.7460001 0.25999999
-6.7709999 -1.201 -1.745 0.28999999
-6.7620001 -1.222 -1.744 0.28999999
-6.7540002 -1.242 -1.743 0.28999999
-6.7519999 -1.2640001 -1.743 0.30000001
-6.7480001 -1.285 -1.743 0.28999999
-6.7270002 -1.303 -1.739 0.28
-6.7340002 -1.3150001 -1.7410001 0.31
-6.7280002 -1.336 -1.7410001 0.30000001
-6.7199998 -1.3559999 -1.74 0.30000001
-6.7199998 -1.378 -1.7410001 0.27000001
-6.697 -1.395 -1.7359999 0.27000001
-6.6960001 -1.4170001 -1.737 0.28999999
-6.691 -1.438 -1.737 0.30000001
-6.6849999 -1.448 -1.7359999 0.30000001
-6.6849999 -1.47 -1.737 0.31
-6.6719999 -1.489 -1.734 0.31999999
-6.671 -1.511 -1.7359999 0.30000001
-6.6630001 -1.531 -1.734 0.28999999
-6.6539998 -1.551 -1.733 0.30000001
-6.6360002 -1.569 -1.73 0.28999999
-6.651 -1.5829999 -1.734 0.30000001
-6.631 -1.6 -1.73 0.30000001
-6.6259999 -1.6210001 -1.73 0.30000001
-6.6059999 -1.638 -1.726 0.20999999
-6.5949998 -1.658 -1.725 0.27000001
-6.5799999 -1.676 -1.722 0.22
-6.5939999 -1.701 -1.727 0.49000001
-6.5799999 -1.709 -1.724 0.44999999
-6.5780001 -1.73 -1.725 0.51999998
-6.5500002 -1.745 -1.719 0.57999998
-6.5539999 -1.768 -1.721 0.31
-6.533 -1.785 -1.717 0.51999998
-6.5479999 -1.811 -1.723 0.46000001
-6.5349998 -1.829 -1.721 0.30000001
-6.5159998 -1.835 -1.716 0.25
-6.5149999 -1.857 -1.7180001 0.41
-6.506 -1.876 -1.717 0.31
-6.4920001 -1.895 -1.715 0.28999999
-6.4899998 -1.916 -1.716 0.31999999
-6.4770002 -1.934 -1.714 0.36000001
-6.4590001 -1.951 -1.71 0.38
-6.427 -1.952 -1.702 0.30000001
-6.4130001 -1.97 -1.7 0.30000001
-6.3909998 -1.985 -1.6950001 0
-6.355 -1.9960001 -1.687 0
-5.5970001 -2.8800001 -1.587 0.14
-5.553 -2.8800001 -1.577 0.28
-4.6100001 -2.404 -1.29 0.22
-4.816 -2.5320001 -1.3559999 0.23
-4.5650001 -2.4170001 -1.281 0.27000001
-4.4910002 -2.395 -1.26 0.31999999
-4.4829998 -2.4089999 -1.26 0.37
-4.5250001 -2.45 -1.275 0.30000001
-4.474 -2.4319999 -1.261 0.33000001
-4.4419999 -2.4319999 -1.253 0.31999999
-4.4510002 -2.4560001 -1.2589999 0.25
-5.4879999 -3.0569999 -1.584 0.36000001
-5.4640002 -3.066 -1.579 0.44999999
-4.3629999 -2.46 -1.238 0.25999999
-4.3400002 -2.4649999 -1.234 0.23999999
-5.4530001 -3.1170001 -1.584 0.28
-5.4229999 -3.122 -1.577 0.37
-4.289 -2.4809999 -1.224 0.30000001
-5.4429998 -3.1800001 -1.59 0.22
-5.2360001 -3.079 -1.527 0.30000001
-5.368 -3.181 -1.573 0.30000001
-4.6409998 -2.766 -1.345 0.25999999
-5.0609999 -3.03 -1.48 0.22
-5.3559999 -3.2309999 -1.577 0.44999999
-4.915 -2.984 -1.439 0.19
-4.5229998 -2.763 -1.317 0.30000001
-4.4390001 -2.73 -1.293 0.27000001
-4.4419999 -2.7509999 -1.2970001 0.47
-4.2090001 -2.6140001 -1.224 0.22
-4.3049998 -2.694 -1.257 0.31999999
-4.5910001 -2.895 -1.352 0.18000001
-4.73 -3.0039999 -1.4 0.44999999
-4.7069998 -3.0109999 -1.395 0.23
-4.243 -2.73 -1.248 0.2
-4.3140001 -2.7950001 -1.274 0.16
-4.0560002 -2.635 -1.192 0.20999999
-4.244 -2.7780001 -1.256 0.23999999
-4.046 -2.665 -1.194 0.18000001
-4.3210001 -2.868 -1.286 0.38
-3.9630001 -2.6459999 -1.1720001 0.25
-4.0300002 -2.7090001 -1.197 0.20999999
-3.7920001 -2.5650001 -1.1210001 0.22
-3.8870001 -2.6389999 -1.154 0.13
-3.8099999 -2.6040001 -1.131 0.19
-3.641 -2.503 -1.0779999 0.25
-3.6359999 -2.517 -1.079 0.30000001
-3.7939999 -2.645 -1.1339999 0.27000001
-3.76 -2.6389999 -1.126 0.25
-3.891 -2.7509999 -1.1720001 0.28
-4.152 -2.947 -1.261 0.30000001
-3.994 -2.8529999 -1.211 0.15000001
-3.734 -2.6819999 -1.127 0.31999999
-3.697 -2.674 -1.117 0.23
-4.0310001 -2.937 -1.232 0.20999999
-3.5999999 -2.6370001 -1.09 0.23
-3.7490001 -2.766 -1.143 0.20999999
-3.691 -2.7320001 -1.125 0.28
-3.8900001 -2.9000001 -1.196 0.22
-3.852 -2.8900001 -1.186 0.059999999
-3.677 -2.776 -1.1289999 0.16
-3.823 -2.9059999 -1.182 0.11
-3.5799999 -2.737 -1.102 0.19
-3.6270001 -2.7909999 -1.1210001 0.14
-3.494 -2.697 -1.077 0.28999999
-3.4749999 -2.7 -1.073 0.25
-3.506 -2.7420001 -1.087 0.23
-3.7750001 -2.974 -1.183 0.22
-3.7690001 -2.9879999 -1.184 0.23
-3.6600001 -2.9200001 -1.15 0.12
-3.651 -2.931 -1.15 0.2
-4.3130002 -3.48 -1.383 0.25999999
-3.4779999 -2.8180001 -1.094 0.18000001
-4.1209998 -3.3670001 -1.323 0.28999999
-4.2620001 -3.5050001 -1.377 0.23
-4.3060002 -3.5650001 -1.396 0.25
-3.421 -2.8440001 -1.086 0.30000001
-4.3969998 -3.688 -1.436 0.16
-4.3850002 -3.6889999 -1.434 0.16
-4.375 -3.7049999 -1.4349999 0.38999999
-4.303 -3.6670001 -1.413 0.25
-3.9530001 -3.3870001 -1.2920001 0.2
-4.217 -3.6389999 -1.391 0.25
-4.1059999 -3.5650001 -1.355 0.22
-4.132 -3.6110001 -1.368 0.14
-4.1059999 -3.599 -1.3609999 0.18000001
-3.7950001 -3.345 -1.252 0.23999999
-3.773 -3.3469999 -1.248 0.36000001
-3.7479999 -3.346 -1.242 0.31999999
-3.8050001 -3.418 -1.267 0.28999999
-3.7969999 -3.4330001 -1.268 0.31
-3.8269999 -3.471 -1.281 0.28999999
-3.839 -3.5039999 -1.29 0.23
-3.6849999 -3.3840001 -1.237 0.28999999
-3.5320001 -3.2620001 -1.184 0.16
-3.309 -3.0739999 -1.105 0.30000001
-3.2950001 -3.0799999 -1.103 0.33000001
-3.3139999 -3.1170001 -1.114 0.20999999
-3.3870001 -3.197 -1.143 0.28
-3.5439999 -3.368 -1.206 0.20999999
-3.6819999 -3.523 -1.262 0.25
-3.9920001 -3.846 -1.383 0.25
-3.9879999 -3.8670001 -1.387 0.15000001
-4.23 -4.1300001 -1.483 0.38
-3.9330001 -3.862 -1.375 0.22
-4.1820002 -4.1350002 -1.475 0.27000001
-3.2420001 -3.2079999 -1.117 0.15000001
-4.1719999 -4.164 -1.479 0.38
-3.7809999 -3.7939999 -1.3329999 0.20999999
-4.099 -4.1420002 -1.46 0.37
-4.0939999 -4.1630001 -1.464 0.23999999
-3.052 -3.1140001 -1.062 0.23999999
-3.358 -3.4519999 -1.186 0.1
-3.3139999 -3.4170001 -1.171 0.15000001
-3.9579999 -4.1139998 -1.428 0.18000001
-4.053 -4.2399998 -1.471 0.41
-4.0279999 -4.2399998 -1.466 0.37
-4.0250001 -4.2639999 -1.47 0.36000001
-4.0139999 -4.2800002 -1.471 0.33000001
-4.0430002 -4.3239999 -1.4859999 0.44
-3.9660001 -4.2690001 -1.46 0.31999999
-3.9790001 -4.3099999 -1.471 0.31999999
-3.9820001 -4.3410001 -1.478 0.30000001
-3.9779999 -4.3629999 -1.4809999 0.43000001
-3.947 -4.3569999 -1.475 0.36000001
-3.885 -4.3150001 -1.455 0.38
-3.914 -4.3610001 -1.469 0.31
-3.9400001 -4.4180002 -1.4859999 0.36000001
-3.8889999 -4.3889999 -1.47 0.34999999
-3.898 -4.427 -1.48 0.31999999
-3.8299999 -4.3759999 -1.457 0.30000001
-3.845 -4.4219999 -1.469 0.43000001
-3.816 -4.4169998 -1.4630001 0.25999999
-3.77 -4.3769999 -1.447 0.28
-3.74 -4.3699999 -1.4400001 0.38999999
-3.7260001 -4.381 -1.4400001 0.33000001
-3.6489999 -4.3179998 -1.413 0.31999999
-3.648 -4.3439999 -1.418 0.36000001
-3.6229999 -4.342 -1.414 0.30000001
-3.586 -4.3249998 -1.404 0.31999999
-3.5420001 -4.2839999 -1.388 0.38999999
-3.45 -4.1999998 -1.354 0.28999999
-3.437 -4.21 -1.354 0.34
-3.3710001 -4.1550002 -1.331 0.18000001
-3.4200001 -4.244 -1.358 0.30000001
-2.8670001 -3.5739999 -1.122 0.22
-2.832 -3.553 -1.112 0.18000001
-3.471 -4.3790002 -1.395 0.31
-3.3970001 -4.3119998 -1.369 0.28999999
-3.4300001 -4.382 -1.3890001 0.36000001
-3.3970001 -4.368 -1.381 0.36000001
-3.3429999 -4.3270001 -1.363 0.28
-3.339 -4.3499999 -1.367 0.36000001
-3.145 -4.1209998 -1.286 0.28999999
-3.3570001 -4.4159999 -1.3839999 0.27000001
-3.2709999 -4.3309999 -1.352 0.34999999
-3.244 -4.322 -1.346 0.31999999
-3.2650001 -4.3790002 -1.3609999 0.38
-3.2490001 -4.3860002 -1.36 0.33000001
-3.303 -4.4899998 -1.392 0.34999999
-3.2950001 -4.5079999 -1.3940001 0.23
-3.345 -4.5929999 -1.421 0.36000001
-3.348 -4.6269999 -1.429 0.30000001
-3.289 -4.5770001 -1.409 0.38999999
-3.2409999 -4.54 -1.393 0.28
-3.2739999 -4.6160002 -1.415 0.31999999
-3.1500001 -4.4699998 -1.363 0.30000001
-3.1900001 -4.5430002 -1.385 0.28999999
-3.25 -4.6589999 -1.421 0.43000001
-3.25 -4.6919999 -1.428 0.25
-3.25 -4.7220001 -1.4349999 0.34999999
-3.1059999 -4.5419998 -1.372 0.31999999
-3.224 -4.7490001 -1.437 0.27000001
-3.22 -4.7750001 -1.442 0.38999999
-3.1900001 -4.7470002 -1.431 0.31999999
-3.1630001 -4.7389998 -1.425 0.34
-3.188 -4.809 -1.4450001 0.25999999
-3.2279999 -4.9039998 -1.472 0.37
-3.2179999 -4.9219999 -1.475 0.25
-3.2079999 -4.941 -1.478 0.43000001
-3.1110001 -4.8239999 -1.437 0.15000001
-3.178 -4.9460001 -1.475 0.40000001
-3.1240001 -4.8940001 -1.455 0.31999999
-3.1489999 -4.9689999 -1.476 0.31999999
-3.0639999 -4.868 -1.4400001 0.31
-2.997 -4.7930002 -1.413 0.31999999
-2.977 -4.7950001 -1.411 0.30000001
-2.9100001 -4.7179999 -1.383 0.36000001
-2.9130001 -4.7410002 -1.3890001 0.31999999
-2.8469999 -4.6659999 -1.362 0.28
-2.7409999 -4.5219998 -1.314 0.27000001
-2.813 -4.6750002 -1.36 0.38999999
-2.7969999 -4.6830001 -1.359 0.33000001
-2.7939999 -4.711 -1.3660001 0.28
-2.8310001 -4.8080001 -1.393 0.34
-2.783 -4.743 -1.3710001 0.38
-2.7590001 -4.7360001 -1.367 0.37
-2.773 -4.7950001 -1.382 0.31
-2.783 -4.848 -1.396 0.30000001
-2.6500001 -4.6479998 -1.331 0.28999999
-2.75 -4.862 -1.395 0.28999999
-2.7720001 -4.9180002 -1.411 0.44999999
-2.6240001 -4.6869998 -1.337 0.27000001
-2.5020001 -4.5009999 -1.276 0.31999999
-2.546 -4.6149998 -1.3099999 0.34999999
-2.628 -4.802 -1.365 0.27000001
-2.6819999 -4.9369998 -1.404 0.27000001
-2.6860001 -4.9829998 -1.415 0.28
-2.6989999 -5.027 -1.427 0.46000001
-2.6470001 -4.967 -1.406 0.36000001
-2.4219999 -4.5749998 -1.284 0.37
-2.595 -4.9419999 -1.3940001 0.31999999
-2.543 -4.8800001 -1.372 0.28
-2.5039999 -4.842 -1.358 0.25
-2.573 -5.0159998 -1.409 0.28999999
-2.5869999 -5.0640001 -1.4220001 0.34999999
-2.562 -5.053 -1.416 0.30000001
-2.5239999 -5.0170002 -1.403 0.38999999
-2.5150001 -5.039 -1.4069999 0.28
-2.49 -5.0279999 -1.402 0.31
-2.4449999 -4.9749999 -1.383 0.31
-2.4790001 -5.085 -1.414 0.34999999
-2.431 -5.006 -1.3890001 0.38999999
-2.414 -5.0120001 -1.3890001 0.33000001
-2.3940001 -5.0100002 -1.386 0.37
-2.3859999 -5.0339999 -1.391 0.28999999
-2.3629999 -5.027 -1.387 0.36000001
-2.3699999 -5.0840001 -1.401 0.31999999
-2.3210001 -5.0170002 -1.3789999 0.33000001
-2.325 -5.0489998 -1.388 0.33000001
-2.325 -5.0910001 -1.398 0.38
-2.283 -5.0409999 -1.381 0.23
-2.243 -4.9910002 -1.364 0.47999999
-2.256 -5.0650001 -1.3839999 0.28
-2.2609999 -5.118 -1.398 0.33000001
-2.2820001 -5.191 -1.418 0.31999999
-2.2539999 -5.1700001 -1.41 0.37
-2.223 -5.1409998 -1.399 0.38
-2.2119999 -5.1630001 -1.403 0.28999999
-2.266 -5.3369999 -1.4529999 0.33000001
-2.2690001 -5.3899999 -1.466 0.31999999
-2.2479999 -5.388 -1.464 0.44999999
-2.168 -5.217 -1.4119999 0.23
-2.2279999 -5.4109998 -1.467 0.34999999
-2.309 -5.6620002 -1.538 0
-1.23 -3.0380001 -0.76800001 0
-2.1900001 -5.4159999 -1.465 0
-1.202 -2.9949999 -0.755 0
-1.145 -2.8759999 -0.71899998 0
-1.097 -2.7920001 -0.69300002 0
-2.0480001 -5.2280002 -1.403 0
-1.0829999 -2.7820001 -0.68900001 0
-1.0930001 -2.835 -0.70300001 0.059999999
-1.094 -2.865 -0.71100003 0.039999999
-1.097 -2.901 -0.72100002 0.07
-1.084 -2.881 -0.71399999 0.039999999
-1.0829999 -2.905 -0.72000003 0
-1.075 -2.9130001 -0.722 0.050000001
-2.0220001 -5.658 -1.51 0.27000001
-1.971 -5.5679998 -1.482 0.34
-1.826 -5.2049999 -1.376 0.14
-1.8660001 -5.349 -1.416 0.37
-1.7970001 -5.2010002 -1.372 0.27000001
-1.826 -5.3400002 -1.411 0.38
-1.795 -5.3039999 -1.399 0.25999999
-1.793 -5.3530002 -1.411 0.31
-1.777 -5.3629999 -1.4119999 0.34
-1.7589999 -5.3649998 -1.411 0.37
-1.727 -5.2940001 -1.39 0.34
-1.7180001 -5.3210001 -1.396 0.30000001
-1.719 -5.3860002 -1.413 0.36000001
-1.701 -5.3870001 -1.4119999 0.34
-1.693 -5.4219999 -1.421 0.34
-1.6849999 -5.4569998 -1.429 0.34
-1.653 -5.4120002 -1.415 0.36000001
-1.6569999 -5.4559999 -1.426 0.34
-1.645 -5.4770002 -1.431 0.34
-1.6339999 -5.507 -1.438 0.37
-1.619 -5.5170002 -1.439 0.34
-1.597 -5.507 -1.4349999 0.40000001
-1.567 -5.4679999 -1.423 0.36000001
-1.558 -5.5029998 -1.431 0.37
-1.543 -5.4790001 -1.424 0.34999999
-0.74199998 -2.6500001 -0.62599999 0.31
-1.533 -5.5139999 -1.432 0.25
-0.73699999 -2.6659999 -0.62900001 0.31
-0.73000002 -2.674 -0.63099998 0.44
-0.72299999 -2.6819999 -0.63200003 0.60000002
-0.71899998 -2.681 -0.63200003 0.74000001
-0.71100003 -2.687 -0.63300002 0.80000001
-0.704 -2.6930001 -0.634 0.83999997
-0.70099998 -2.7190001 -0.64099997 0.86000001
-0.69599998 -2.733 -0.64399999 0.86000001
-0.69 -2.7460001 -0.64700001 0.86000001
-0.68199998 -2.75 -0.648 0.86000001
-0.68000001 -2.763 -0.65100002 0.86000001
-0.67400002 -2.7780001 -0.65499997 0.86000001
-0.667 -2.7869999 -0.65700001 0.86000001
-0.662 -2.806 -0.66100001 0.86000001
-0.65499997 -2.8139999 -0.66299999 0.85000002
-0.64700001 -2.822 -0.66399997 0.85000002
-0.64200002 -2.8410001 -0.66900003 0.83999997
-0.63800001 -2.8440001 -0.67000002 0.83999997
-0.63200003 -2.8610001 -0.67400002 0.82999998
-0.62599999 -2.878 -0.67799997 0.83999997
-0.61799997 -2.8840001 -0.67900002 0.83999997
-0.61199999 -2.901 -0.68300003 0.83999997
-0.60600001 -2.9159999 -0.68699998 0.83999997
-0.59899998 -2.931 -0.69099998 0.83999997
-0.597 -2.9449999 -0.69400001 0.82999998
-0.58999997 -2.9590001 -0.69700003 0.82999998
-0.58200002 -2.97 -0.69999999 0.82999998
-0.57700002 -2.9909999 -0.70499998 0.81999999
-0.57099998 -3.013 -0.71100003 0.81999999
-0.56300002 -3.023 -0.713 0.81999999
-0.56099999 -3.043 -0.71799999 0.82999998
-0.55400002 -3.0580001 -0.722 0.83999997
-0.54699999 -3.075 -0.72600001 0.82999998
-0.53899997 -3.0840001 -0.72799999 0.81999999
-0.53200001 -3.1029999 -0.73299998 0.81999999
-0.523 -3.108 -0.73400003 0.81
-0.51200002 -3.1040001 -0.73299998 0.61000001
-0.91100001 -5.711 -1.448 0.36000001
-0.81800002 -5.2189999 -1.313 0.2
-0.773 -5.0310001 -1.26 0.27000001
-0.81599998 -5.4359999 -1.3710001 0.31999999
-0.82999998 -5.6620002 -1.432 0.33000001
-0.81999999 -5.7179999 -1.447 0.28999999
-0.80199999 -5.723 -1.447 0.25999999
-0.79400003 -5.7280002 -1.448 0.43000001
-0.76200002 -5.625 -1.42 0.31999999
-0.75700003 -5.723 -1.446 0.34999999
-0.72899997 -5.6529999 -1.426 0.36000001
-0.70999998 -5.638 -1.421 0.33000001
-0.69099998 -5.632 -1.419 0.34999999
-0.67500001 -5.652 -1.424 0.47999999
-0.66000003 -5.599 -1.409 0.27000001
-0.64300001 -5.6009998 -1.409 0.22
-0.64600003 -5.7950001 -1.461 0.43000001
-0.60299999 -5.5650001 -1.398 0.28999999
-0.579 -5.4990001 -1.38 0.30000001
-0.56999999 -5.5879998 -1.403 0.36000001
-0.56400001 -5.7090001 -1.436 0.36000001
-0.54400003 -5.5879998 -1.403 0.25
-0.51800001 -5.5019999 -1.3789999 0.41
-0.491 -5.3920002 -1.348 0.2
-0.493 -5.6139998 -1.409 0.34
-0.45100001 -5.316 -1.327 0.31999999
-0.419 -5.1209998 -1.273 0.34999999
-0.417 -5.2020001 -1.295 0.31999999
-0.405 -5.2540002 -1.309 0.34
-0.38600001 -5.2259998 -1.301 0.33000001
-0.35299999 -4.973 -1.232 0.16
-0.34299999 -5.0650001 -1.257 0.38
-0.322 -4.9809999 -1.234 0.30000001
-0.31 -5.0419998 -1.25 0.31999999
-0.30399999 -5.0830002 -1.261 0.31
-0.28999999 -5.118 -1.27 0.28999999
-0.27399999 -5.1209998 -1.271 0.31999999
-0.27000001 -5.3839998 -1.342 0.22
-0.252 -5.3559999 -1.334 0.34999999
-0.237 -5.4029999 -1.347 0.30000001
-0.219 -5.3839998 -1.341 0.31999999
-0.20999999 -5.369 -1.337 0.30000001
-0.19400001 -5.3829999 -1.341 0.38999999
-0.17399999 -5.303 -1.319 0.31
-0.15700001 -5.2859998 -1.314 0.33000001
-0.142 -5.3499999 -1.332 0.33000001
-0.125 -5.3280001 -1.325 0.34
-0.116 -5.303 -1.318 0.34
-0.098999999 -5.303 -1.318 0.31999999
-0.082000002 -5.2649999 -1.308 0.36000001
-0.066 -5.3049998 -1.319 0.37
-0.048999999 -5.3249998 -1.324 0.27000001
-0.033 -5.3870001 -1.341 0.33000001
-0.016000001 -5.348 -1.33 0.33000001
-0.0070000002 -5.3730001 -1.337 0.31999999
0.0099999998 -5.4429998 -1.3559999 0.41
0.028000001 -5.539 -1.382 0.23
0.044 -5.4499998 -1.358 0.41
0.056000002 -5.1259999 -1.27 0.31999999
0.071000002 -5.066 -1.2539999 0.2
0.093999997 -5.375 -1.3380001 0.36000001
0.1 -5.2930002 -1.316 0.31
0.124 -5.559 -1.388 0.34999999
0.133 -5.256 -1.306 0.27000001
0.156 -5.474 -1.365 0.34
0.17399999 -5.4770002 -1.3660001 0.30000001
0.19499999 -5.5900002 -1.397 0.44
0.205 -5.4000001 -1.346 0.2
0.221 -5.5640001 -1.39 0.30000001
0.234 -5.4860001 -1.369 0.38
0.24600001 -5.3769999 -1.34 0.36000001
0.26699999 -5.4580002 -1.362 0.34
0.28200001 -5.4120002 -1.35 0.20999999
0.31400001 -5.6680002 -1.42 0.30000001
0.329 -5.6149998 -1.405 0.43000001
0.317 -5.2979999 -1.319 0.30000001
0.34900001 -5.5190001 -1.38 0.33000001
0.35800001 -5.3940001 -1.346 0.44
0.37599999 -5.4109998 -1.351 0.30000001
0.37900001 -5.2319999 -1.303 0.18000001
0.419 -5.52 -1.381 0.41999999
0.43099999 -5.5580001 -1.392 0.28999999
0.461 -5.71 -1.434 0.36000001
0.46900001 -5.599 -1.404 0.28999999
0.486 -5.5879998 -1.401 0.34
0.523 -5.7859998 -1.456 0.38
0.542 -5.7979999 -1.459 0.31999999
0.53799999 -5.5749998 -1.399 0.23
0.53600001 -5.473 -1.3710001 0.43000001
0.55699998 -5.5040002 -1.38 0.33000001
0.58600003 -5.605 -1.409 0.25999999
0.63 -5.8449998 -1.475 0.25
0.65600002 -5.9050002 -1.4910001 0.36000001
0.68099999 -5.9619999 -1.508 0.41
0.68699998 -5.8520002 -1.478 0.36000001
0.69 -5.8000002 -1.464 0.37
0.70200002 -5.7519999 -1.452 0.25999999
0.71399999 -5.7010002 -1.438 0.44999999
0.71499997 -5.5749998 -1.404 0.28999999
0.73400003 -5.5780001 -1.406 0.33000001
0.76800001 -5.6929998 -1.438 0.34999999
0.78299999 -5.671 -1.433 0.31999999
0.79500002 -5.6950002 -1.439 0.41
0.81400001 -5.6960001 -1.441 0.40000001
0.83099997 -5.6929998 -1.441 0.27000001
0.852 -5.7080002 -1.4450001 0.33000001
0.85399997 -5.6020002 -1.4170001 0.46000001
0.86799997 -5.5799999 -1.4119999 0.28
0.87400001 -5.5580001 -1.406 0.30000001
0.88599998 -5.5229998 -1.397 0.38999999
0.91000003 -5.5619998 -1.409 0.33000001
0.93000001 -5.5710001 -1.4119999 0.34999999
0.94300002 -5.5450001 -1.405 0.34
0.95200002 -5.494 -1.392 0.37
0.96799999 -5.4860001 -1.391 0.43000001
0.97799999 -5.4879999 -1.392 0.27000001
0.98199999 -5.414 -1.372 0.34999999
1.015 -5.4970002 -1.396 0.36000001
1.027 -5.4689999 -1.3890001 0.41
1.0319999 -5.3990002 -1.3710001 0.31999999
1.053 -5.4169998 -1.377 0.37
1.057 -5.3530002 -1.36 0.27000001
1.074 -5.3889999 -1.37 0.38999999
1.091 -5.3899999 -1.3710001 0.41
1.1160001 -5.4219999 -1.381 0.33000001
1.1210001 -5.362 -1.3660001 0.31
1.14 -5.368 -1.368 0.30000001
1.169 -5.4190001 -1.383 0.47999999
1.176 -5.3720002 -1.3710001 0.31999999
1.159 -5.1820002 -1.3200001 0.38999999
1.173 -5.171 -1.318 0.20999999
1.176 -5.1069999 -1.301 0.23999999
1.146 -4.9120002 -1.248 0.34
1.232 -5.2010002 -1.329 0.31
1.1619999 -4.8779998 -1.24 0.27000001
1.149 -4.7600002 -1.2079999 0.25
1.311 -5.3439999 -1.372 0.2
1.334 -5.3629999 -1.3789999 0.44999999
1.3200001 -5.2410002 -1.346 0.31
1.205 -4.7280002 -1.2029999 0.28999999
1.24 -4.8010001 -1.225 0.25
1.2640001 -4.8629999 -1.242 0.22
1.403 -5.3169999 -1.3710001 0.28999999
1.439 -5.3850002 -1.392 0.36000001
1.397 -5.1669998 -1.332 0.34
1.359 -4.9689999 -1.277 0.23
1.4 -5.0539999 -1.302 0.33000001
1.425 -5.0830002 -1.312 0.31999999
1.472 -5.2160001 -1.35 0.41
1.503 -5.2600002 -1.363 0.28999999
1.495 -5.171 -1.34 0.30000001
1.53 -5.23 -1.358 0.22
1.3559999 -4.5929999 -1.179 0.31999999
1.405 -4.7010002 -1.21 0.23999999
1.367 -4.527 -1.1619999 0.25999999
1.411 -4.645 -1.196 0.23999999
1.372 -4.467 -1.147 0.28999999
1.482 -4.7680001 -1.234 0.28
1.501 -4.776 -1.238 0.31
1.609 -5.0560002 -1.319 0.28999999
1.585 -4.9299998 -1.284 0.34999999
1.581 -4.8660002 -1.268 0.20999999
1.582 -4.8460002 -1.262 0.44
1.566 -4.7470002 -1.2359999 0.34
1.674 -5.0149999 -1.314 0.38999999
1.682 -4.9879999 -1.307 0.25
1.7180001 -5.0419998 -1.325 0.28999999
1.727 -5.0149999 -1.318 0.38
1.7130001 -4.9520001 -1.301 0.28
1.7 -4.8670001 -1.278 0.37
1.723 -4.881 -1.284 0.30000001
1.761 -4.9380002 -1.302 0.36000001
1.76 -4.8889999 -1.289 0.28999999
1.706 -4.6950002 -1.235 0.25999999
1.709 -4.6570001 -1.225 0.30000001
1.7819999 -4.8309999 -1.276 0.34
1.77 -4.7529998 -1.256 0.31
1.822 -4.8429999 -1.283 0.18000001
1.904 -5.0120001 -1.334 0.34
1.906 -4.9699998 -1.324 0.19
2.0309999 -5.243 -1.405 0.38999999
1.882 -4.8200002 -1.283 0.2
1.9299999 -4.9180002 -1.313 0.31999999
1.998 -5.0419998 -1.351 0.28999999
1.9630001 -4.9109998 -1.314 0.23
1.976 -4.8990002 -1.313 0.38
1.9220001 -4.7249999 -1.263 0.30000001
2.0699999 -5.0380001 -1.357 0.23
2.03 -4.8979998 -1.318 0.37
2.0109999 -4.8330002 -1.3 0.31999999
2.052 -4.8870001 -1.317 0.27000001
2.0480001 -4.836 -1.304 0.41999999
1.9579999 -4.5869999 -1.232 0.30000001
1.96 -4.552 -1.224 0.31999999
1.992 -4.585 -1.2359999 0.31
