# .PCD v0.7 - Point Cloud Data file format
VERSION 0.7
FIELDS x y z intensity
SIZE 4 4 4 4
TYPE F F F F
COUNT 1 1 1 1
WIDTH 1387
HEIGHT 1
VIEWPOINT 0 0 0 1 0 0 0
POINTS 1387
DATA ascii
1.976 -6.2880001 -1.229 0.31999999
2.007 -6.3179998 -1.237 0.36000001
2.099 -6.539 -1.286 0.34
2.1570001 -6.6479998 -1.311 0.40000001
2.191 -6.7189999 -1.327 0.28
2.151 -6.5240002 -1.286 0.23999999
2.1559999 -6.4689999 -1.276 0.46000001
2.1370001 -6.3449998 -1.25 0.28999999
2.1270001 -6.2490001 -1.2309999 0.27000001
2.1860001 -6.3579998 -1.256 0.31
2.2030001 -6.3429999 -1.2539999 0.51999998
2.2019999 -6.3080001 -1.248 0.14
2.1559999 -6.1110001 -1.206 0.41
2.1689999 -6.0869999 -1.202 0.47
2.2349999 -6.2119999 -1.2309999 0.30000001
2.22 -6.1090002 -1.21 0.28999999
2.2219999 -6.0560002 -1.2 0.47
2.2420001 -6.0799999 -1.206 0.34
2.2909999 -6.1560001 -1.224 0.44999999
2.342 -6.2329998 -1.243 0.27000001
2.4460001 -6.4510002 -1.2920001 0.27000001
2.3199999 -6.0570002 -1.207 0.46000001
2.3659999 -6.119 -1.223 0.30000001
2.5050001 -6.4239998 -1.291 0.43000001
2.576 -6.5749998 -1.326 0.23999999
2.5239999 -6.3829999 -1.285 0.44999999
2.562 -6.4190001 -1.295 0.28999999
2.608 -6.4759998 -1.309 0.47999999
2.727 -6.7129998 -1.363 0.20999999
2.7090001 -6.6090002 -1.342 0.5
2.7820001 -6.7270002 -1.37 0.31999999
2.829 -6.8130002 -1.39 0.33000001
2.8199999 -6.73 -1.374 0.44999999
2.7920001 -6.6040001 -1.348 0.36000001
2.7809999 -6.5209999 -1.331 0.41
2.7969999 -6.4990001 -1.3279999 0.47
2.786 -6.4190001 -1.312 0.37
2.75 -6.3080001 -1.289 0.25999999
2.704 -6.1490002 -1.255 0.47
2.7279999 -6.151 -1.257 0.46000001
2.904 -6.4949999 -1.336 0.41
3.3889999 -7.527 -1.5700001 0.14
2.79 -6.132 -1.2589999 0.43000001
2.8050001 -6.1139998 -1.257 0.36000001
2.957 -6.4239998 -1.3279999 0.31999999
3.043 -6.5570002 -1.36 0.28
3.099 -6.6230001 -1.377 0.5
3.076 -6.52 -1.3559999 0.38
3.0239999 -6.3559999 -1.321 0.52999997
3.0309999 -6.3200002 -1.3150001 0.30000001
3.0480001 -6.3049998 -1.313 0.33000001
3.0899999 -6.3670001 -1.329 0.34
3.1270001 -6.3909998 -1.336 0.40000001
3.1389999 -6.3649998 -1.3329999 0.40000001
3.165 -6.368 -1.336 0.47999999
3.4189999 -6.8299999 -1.444 0.46000001
3.473 -6.8839998 -1.459 0.22
3.6559999 -7.2210002 -1.5369999 0.20999999
4.0949998 -8.0310001 -1.726 0.43000001
3.382 -6.572 -1.393 0.34
4.119 -7.9530001 -1.714 0.19
4.2160001 -8.0810003 -1.747 0.44
3.7219999 -7.073 -1.517 0.18000001
3.444 -6.4910002 -1.3839999 0.44
3.4849999 -6.5419998 -1.398 0.20999999
3.7420001 -6.9759998 -1.501 0.13
3.615 -6.6859999 -1.436 0.38
3.628 -6.6609998 -1.433 0.55000001
3.6559999 -6.6620002 -1.436 0.28999999
3.677 -6.6500001 -1.436 0.34
3.701 -6.645 -1.437 0.44999999
3.6370001 -6.5040002 -1.406 0.37
3.454 -6.1300001 -1.3200001 0.38
3.608 -6.3579998 -1.377 0.30000001
3.4890001 -6.1009998 -1.319 0.34999999
3.53 -6.1279998 -1.3279999 0.38
3.6470001 -6.2880001 -1.368 0.36000001
3.6570001 -6.2600002 -1.364 0.46000001
3.642 -6.21 -1.354 0.31999999
3.573 -6.0479999 -1.318 0.43000001
3.678 -6.1820002 -1.352 0.34999999
3.694 -6.165 -1.351 0.28999999
3.796 -6.2919998 -1.3839999 0.34
3.776 -6.2140002 -1.369 0.44
3.793 -6.2199998 -1.3710001 0.38999999
3.8559999 -6.2800002 -1.3890001 0.17
3.799 -6.1430001 -1.359 0.56999999
4.0549998 -6.5139999 -1.451 0.36000001
4.197 -6.6960001 -1.498 0.27000001
4.1479998 -6.5710001 -1.471 0.38
4.1500001 -6.5279999 -1.464 0.23999999
4.2059999 -6.5949998 -1.482 0.47999999
4.243 -6.6059999 -1.488 0.38
4.2140002 -6.5149999 -1.469 0.34
3.918 -6.013 -1.349 0.27000001
3.915 -5.967 -1.341 0.51999998
3.9679999 -6.007 -1.354 0.38999999
4.664 -7.0209999 -1.6059999 0.31
4.494 -6.7389998 -1.539 0.20999999
4.0019999 -5.9559999 -1.349 0.46000001
4.0619998 -6.0050001 -1.364 0.30000001
4.0630002 -5.9660001 -1.358 0.23
4.6490002 -6.7859998 -1.564 0.40000001
4.631 -6.7150002 -1.55 0.27000001
4.5349998 -6.5310001 -1.508 0.23
4.6550002 -6.6820002 -1.548 0.34
4.7150002 -6.723 -1.562 0.38
4.9959998 -7.079 -1.654 0.43000001
5.0489998 -7.1059999 -1.665 0.28999999
4.5739999 -6.3909998 -1.489 0.31999999
4.6849999 -6.5040002 -1.521 0.2
4.6020002 -6.3660002 -1.488 0.33000001
5.0050001 -6.882 -1.623 0.2
4.5939999 -6.2719998 -1.472 0.41
4.6160002 -6.2610002 -1.473 0.41
4.6500001 -6.2649999 -1.478 0.38999999
4.6680002 -6.2490001 -1.477 0.34
4.645 -6.1760001 -1.462 0.36000001
4.632 -6.1389999 -1.455 0.5
4.6890001 -6.1750002 -1.467 0.27000001
5.0139999 -6.5630002 -1.571 0.50999999
5.6259999 -7.3210001 -1.771 0.14
5.7399998 -7.421 -1.802 0.07
11.062 -14.249 -3.579 0.07
11.071 -14.168 -3.5669999 0.16
11.039 -14.081 -3.5480001 0.12
11.939 -15.135 -3.8329999 0.2
12.022 -15.142 -3.8440001 0.23999999
11.927 -14.925 -3.7969999 0.30000001
12.086 -15.028 -3.8340001 0.20999999
11.863 -14.561 -3.7309999 0.38999999
12.1 -14.805 -3.8010001 0.25
11.797 -14.341 -3.688 0.23999999
11.852 -14.316 -3.691 0.25
11.851 -14.223 -3.6760001 0.31
12.171 -14.515 -3.7639999 0.14
11.785 -13.964 -3.6259999 0.19
12.172 -14.378 -3.743 0.2
12.217 -14.34 -3.743 0.2
12.183 -14.209 -3.7179999 0.23999999
12.277 -14.229 -3.733 0.25
12.327 -14.196 -3.7349999 0.23
12.421 -14.213 -3.75 0.27000001
12.55 -14.271 -3.777 0.23999999
12.585 -14.265 -3.78 0.23999999
12.725 -14.334 -3.8099999 0.28999999
12.71 -14.226 -3.7920001 0.28
12.766 -14.198 -3.7950001 0.28
12.813 -14.161 -3.796 0.28999999
12.761 -14.015 -3.766 0.23
12.739 -13.902 -3.7460001 0.30000001
12.317 -13.398 -3.612 0.17
12.522 -13.451 -3.648 0.38999999
12.19 -13.011 -3.536 0.1
12.121 -12.856 -3.503 0.2
12.087 -12.739 -3.4809999 0.27000001
12.528 -13.164 -3.6059999 0.1
13.013 -13.589 -3.7379999 0.17
12.249 -12.709 -3.4990001 0.12
12.489 -12.877 -3.5580001 0.20999999
12.474 -12.781 -3.5420001 0.25
12.57 -12.799 -3.5580001 0.30000001
12.667 -12.816 -3.575 0.20999999
12.593 -12.702 -3.5469999 0.34
12.652 -12.681 -3.553 0.25999999
12.707 -12.657 -3.5569999 0.20999999
12.814 -12.683 -3.5769999 0.16
12.983 -12.771 -3.6140001 0.18000001
13.332 -13.033 -3.7030001 0.27000001
13.274 -12.894 -3.674 0.25
13.288 -12.868 -3.6730001 0.14
13.107 -12.612 -3.6099999 0.07
13.718 -13.119 -3.7720001 0.13
10.094 -9.5830002 -2.733 0.23999999
10.22 -9.5810003 -2.7509999 0.60000002
10.248 -9.5769997 -2.7550001 0.31
11.487 -10.673 -3.0940001 0.28999999
13.877 -12.819 -3.7539999 0.15000001
13.878 -12.739 -3.743 0.17
11.651 -10.622 -3.112 0.19
13.953 -12.648 -3.7409999 0.18000001
13.682 -12.323 -3.655 0.19
14.032 -12.599 -3.747 0.23
14.046 -12.533 -3.74 0.25
14.011 -12.422 -3.7190001 0.30000001
14.144 -12.461 -3.7449999 0.28999999
14.179 -12.413 -3.744 0.31
14.231 -12.38 -3.7479999 0.23999999
14.36 -12.413 -3.7720001 0.31
14.347 -12.362 -3.763 0.28999999
11.255 -9.6289997 -2.9159999 0.23999999
14.379 -12.234 -3.7509999 0.25
14.346 -12.128 -3.7320001 0.19
11.726 -9.8430004 -3.0179999 0.18000001
11.715 -9.7709999 -3.007 0.2
11.616 -9.6269999 -2.973 0.43000001
11.648 -9.6219997 -2.977 0.25
11.823 -9.7049999 -3.016 0.16
11.494 -9.3739996 -2.9200001 0.38999999
11.77 -9.5380001 -2.9849999 0.16
11.175 -8.9960003 -2.8210001 0.14
11.171 -8.9350004 -2.812 0.38999999
12.42 -9.8739996 -3.1329999 0.23
11.69 -9.2620001 -2.937 0.28999999
11.806 -9.2939997 -2.96 0.25
11.957 -9.3529997 -2.9920001 0.28999999
12.025 -9.3450003 -3.0020001 0.38999999
12.078 -9.3249998 -3.0079999 0.27000001
12.265 -9.4090004 -3.049 0.14
12.38 -9.4659996 -3.075 0.38999999
13.202 -10.032 -3.279 0.19
12.194 -9.2030001 -3.0120001 0.31999999
12.533 -9.3970003 -3.0910001 0.16
12.54 -9.342 -3.086 0.40000001
12.53 -9.2729998 -3.076 0.30000001
12.789 -9.4029999 -3.1340001 0.20999999
13.566 -9.9440002 -3.329 0.14
8.04 -5.8410001 -1.916 0.19
7.9679999 -5.75 -1.893 0.090000004
13.693 -9.8400002 -3.3369999 0.16
8.6350002 -6.1110001 -2.0469999 0.19
9.2980003 -6.5609999 -2.2119999 0.18000001
9.3549995 -6.5580001 -2.221 0.28
8.7290001 -6.0760002 -2.059 0.13
8.6709995 -5.9949999 -2.04 0.31
8.6490002 -5.9400001 -2.03 0.30000001
8.6230001 -5.881 -2.0179999 0.34999999
8.6459999 -5.8569999 -2.02 0.41
8.842 -5.9699998 -2.066 0.52999997
8.6800003 -5.8210001 -2.0209999 0.22
9.0780001 -6.0479999 -2.115 0.41
9.1239996 -6.0380001 -2.122 0.25
9.1709995 -6.027 -2.1289999 0.37
8.934 -5.8309999 -2.066 0.34
8.585 -5.5630002 -1.976 0.23999999
8.2810001 -5.3470001 -1.899 0.31
8.2390003 -5.283 -1.885 0.38
8.3280001 -5.303 -1.903 0.34
8.3450003 -5.277 -1.903 0.28999999
8.283 -5.2020001 -1.8839999 0.41
8.1689997 -5.0929999 -1.852 0.31
8.2159996 -5.0869999 -1.86 0.5
8.1260004 -5.013 -1.836 0.34999999
8.04 -4.9250002 -1.811 0.31999999
8.0439997 -4.8930001 -1.808 0.34
8.0249996 -4.8470001 -1.8 0.30000001
7.9400001 -4.7610002 -1.776 0.37
7.9180002 -4.7140002 -1.767 0.41999999
7.9070001 -4.6739998 -1.761 0.34
7.9889998 -4.7059999 -1.779 0.43000001
7.8200002 -4.572 -1.735 0.27000001
7.8639998 -4.5650001 -1.743 0.38999999
7.8969998 -4.5510001 -1.747 0.33000001
7.7740002 -4.447 -1.714 0.31999999
7.8369999 -4.4510002 -1.726 0.47
7.7030001 -4.3579998 -1.693 0.30000001
7.7420001 -4.349 -1.699 0.31
7.7659998 -4.3299999 -1.701 0.43000001
7.7610002 -4.2950001 -1.697 0.34999999
7.809 -4.29 -1.705 0.41
7.8509998 -4.2810001 -1.712 0.38999999
7.8130002 -4.2280002 -1.7 0.40000001
7.8039999 -4.2080002 -1.696 0.34
7.8860002 -4.2199998 -1.712 0.41
7.8740001 -4.1820002 -1.706 0.34999999
7.842 -4.1329999 -1.6950001 0.33000001
7.8299999 -4.0960002 -1.6900001 0.38
7.8429999 -4.0710001 -1.6900001 0.37
7.8470001 -4.0419998 -1.688 0.44999999
7.8169999 -4.0110002 -1.679 0.36000001
7.7969999 -3.9690001 -1.6720001 0.37
7.8460002 -3.9630001 -1.6799999 0.38
7.848 -3.9330001 -1.678 0.41
7.8740001 -3.9159999 -1.681 0.40000001
7.9180002 -3.9059999 -1.688 0.41
7.9650002 -3.8989999 -1.696 0.38
7.9780002 -3.8900001 -1.698 0.41
8.0270004 -3.8829999 -1.706 0.38999999
8.0609999 -3.868 -1.711 0.38
8.1079998 -3.859 -1.719 0.52999997
8.1540003 -3.8499999 -1.727 0.34
8.1730003 -3.8280001 -1.728 0.34
8.1859999 -3.8180001 -1.73 0.31999999
8.1960001 -3.7909999 -1.73 0.30000001
8.1990004 -3.7620001 -1.728 0.41999999
8.1560001 -3.711 -1.715 0.31999999
8.1429996 -3.674 -1.71 0.28999999
8.1560001 -3.6489999 -1.71 0.28999999
8.1639996 -3.6210001 -1.709 0.31
8.1619997 -3.605 -1.7079999 0.30000001
8.1680002 -3.5769999 -1.706 0.28999999
8.1759996 -3.55 -1.706 0.28999999
8.1870003 -3.5239999 -1.706 0.28999999
8.2049999 -3.5020001 -1.707 0.30000001
8.2019997 -3.47 -1.704 0.31
8.2069998 -3.4419999 -1.7029999 0.28999999
8.2089996 -3.427 -1.702 0.28999999
8.2360001 -3.408 -1.706 0.28999999
8.2209997 -3.372 -1.7 0.31
8.2340002 -3.3469999 -1.7 0.28
8.2440004 -3.3210001 -1.7 0.31
8.2539997 -3.2950001 -1.7 0.30000001
8.2629995 -3.2679999 -1.7 0.28
8.2609997 -3.253 -1.698 0.31999999
8.276 -3.2290001 -1.7 0.30000001
8.2740002 -3.198 -1.697 0.28
8.2819996 -3.171 -1.696 0.28999999
8.29 -3.1440001 -1.696 0.28999999
8.2980003 -3.118 -1.6950001 0.30000001
8.3000002 -3.089 -1.694 0.28999999
8.302 -3.0739999 -1.693 0.28999999
8.3149996 -3.05 -1.694 0.28999999
8.3240004 -3.023 -1.694 0.31
8.3299999 -2.9960001 -1.693 0.30000001
8.3319998 -2.967 -1.691 0.28
8.3540001 -2.9460001 -1.694 0.31
8.3520002 -2.9300001 -1.693 0.28
8.3549995 -2.902 -1.691 0.28999999
8.3640003 -2.875 -1.691 0.28999999
8.3809996 -2.852 -1.693 0.33000001
8.3690004 -2.8180001 -1.689 0.27000001
8.3870001 -2.7950001 -1.691 0.28999999
8.3920002 -2.767 -1.6900001 0.28999999
8.3950005 -2.7539999 -1.689 0.28999999
8.3940001 -2.724 -1.687 0.30000001
8.408 -2.7 -1.689 0.31999999
8.4200001 -2.674 -1.689 0.30000001
8.4160004 -2.6440001 -1.687 0.31
8.4160004 -2.615 -1.6849999 0.30000001
8.4259996 -2.589 -1.6849999 0.31
8.4250002 -2.5739999 -1.684 0.28
8.427 -2.546 -1.683 0.28999999
8.4519997 -2.5250001 -1.687 0.31999999
8.4469995 -2.494 -1.684 0.30000001
8.4530001 -2.467 -1.683 0.30000001
8.4549999 -2.4389999 -1.682 0.28999999
8.4630003 -2.427 -1.683 0.30000001
8.4569998 -2.3959999 -1.6799999 0.28
8.474 -2.372 -1.682 0.31
8.474 -2.3440001 -1.681 0.31
8.4729996 -2.3150001 -1.679 0.28999999
8.4899998 -2.2909999 -1.681 0.30000001
8.4879999 -2.2620001 -1.679 0.28
8.493 -2.2490001 -1.679 0.30000001
8.5019999 -2.223 -1.6799999 0.30000001
8.4899998 -2.191 -1.676 0.28
8.5010004 -2.165 -1.677 0.28
8.5170002 -2.141 -1.679 0.28
8.5010004 -2.108 -1.674 0.30000001
8.5059996 -2.0810001 -1.673 0.28
8.5279999 -2.073 -1.677 0.28
8.5129995 -2.0409999 -1.673 0.28999999
8.5220003 -2.0139999 -1.673 0.27000001
8.526 -1.987 -1.673 0.28999999
8.5249996 -1.959 -1.671 0.28999999
8.533 -1.932 -1.6720001 0.28999999
8.5410004 -1.906 -1.6720001 0.28
8.5360003 -1.891 -1.671 0.28999999
8.5459995 -1.865 -1.671 0.28
8.5509996 -1.8380001 -1.671 0.30000001
8.5419998 -1.808 -1.668 0.31999999
8.559 -1.783 -1.671 0.28999999
8.5699997 -1.758 -1.6720001 0.27000001
8.559 -1.727 -1.668 0.28
8.5670004 -1.715 -1.669 0.22
8.5649996 -1.686 -1.668 0.17
8.5869999 -1.663 -1.671 0.28999999
8.5889997 -1.635 -1.671 0.5
8.6129999 -1.612 -1.675 0.36000001
8.6059999 -1.5829999 -1.6720001 0.41999999
8.6149998 -1.5700001 -1.673 0.43000001
8.6059999 -1.541 -1.671 0.54000002
8.6190004 -1.515 -1.6720001 0.36000001
8.6079998 -1.485 -1.669 0.44999999
8.632 -1.461 -1.673 0.36000001
8.6169996 -1.431 -1.669 0.47
8.625 -1.405 -1.67 0.34
8.5810003 -1.383 -1.66 0.61000001
8.5889997 -1.357 -1.661 0.46000001
8.5950003 -1.33 -1.661 0.27000001
8.6009998 -1.304 -1.6619999 0.27000001
8.6110001 -1.277 -1.663 0.25999999
8.6099997 -1.25 -1.6619999 0.23999999
8.6079998 -1.222 -1.661 0.20999999
8.6090002 -1.2079999 -1.661 0.28
8.6040001 -1.1799999 -1.658 0.23999999
8.6129999 -1.153 -1.66 0.19
8.6149998 -1.126 -1.659 0.25999999
8.6280003 -1.1 -1.661 0.22
8.6269999 -1.073 -1.661 0.2
8.6269999 -1.045 -1.66 0.25
8.6420002 -1.033 -1.663 0.20999999
8.6280003 -1.0039999 -1.659 0.17
8.6330004 -0.977 -1.659 0.28
8.6280003 -0.949 -1.658 0.22
8.6309996 -0.92199999 -1.658 0.20999999
8.6300001 -0.89499998 -1.6569999 0.25
8.6420002 -0.86799997 -1.659 0.22
8.6420002 -0.85500002 -1.658 0.23
8.6479998 -0.82800001 -1.659 0.2
8.6330004 -0.79900002 -1.656 0.23999999
8.6420002 -0.77200001 -1.6569999 0.2
8.6420002 -0.745 -1.656 0.20999999
8.6459999 -0.71799999 -1.6569999 0.20999999
8.6429996 -0.69 -1.656 0.22
8.6540003 -0.67799997 -1.658 0.2
8.6440001 -0.64999998 -1.655 0.22
8.6599998 -0.62300003 -1.658 0.20999999
8.6420002 -0.59500003 -1.654 0.20999999
8.6459999 -0.56800002 -1.654 0.18000001
8.6440001 -0.54000002 -1.654 0.23999999
8.6520004 -0.52700001 -1.655 0.22
8.6420002 -0.49900001 -1.653 0.20999999
8.6499996 -0.47299999 -1.654 0.23999999
8.6689997 -0.44600001 -1.658 0.22
8.6479998 -0.41800001 -1.653 0.11
8.6459999 -0.391 -1.652 0.20999999
8.6490002 -0.36399999 -1.653 0.2
8.6479998 -0.34999999 -1.652 0.23999999
8.6560001 -0.32300001 -1.654 0.19
8.6479998 -0.296 -1.652 0.23
8.6599998 -0.26899999 -1.654 0.19
8.6569996 -0.241 -1.654 0.23
8.6499996 -0.214 -1.652 0.2
8.6490002 -0.18700001 -1.652 0.20999999
8.6689997 -0.17399999 -1.656 0.20999999
8.6549997 -0.146 -1.653 0.23
8.6619997 -0.119 -1.654 0.20999999
8.6540003 -0.092 -1.652 0.22
8.6680002 -0.064999998 -1.655 0.19
8.6470003 -0.037 -1.651 0.22
8.6680002 -0.0099999998 -1.655 0.2
8.3990002 0.0070000002 -1.679 0.31
8.3879995 0.033 -1.677 0.30000001
8.3850002 0.059 -1.676 0.31
8.3929996 0.086000003 -1.678 0.30000001
8.3950005 0.112 -1.679 0.31999999
8.3999996 0.126 -1.6799999 0.28999999
8.3780003 0.15099999 -1.675 0.28999999
8.3839998 0.178 -1.676 0.33000001
8.3769999 0.204 -1.675 0.28999999
8.3920002 0.23100001 -1.679 0.33000001
8.3859997 0.257 -1.677 0.31999999
8.3970003 0.28400001 -1.6799999 0.31999999
8.3859997 0.29699999 -1.678 0.33000001
8.3809996 0.32300001 -1.677 0.33000001
8.3859997 0.34900001 -1.678 0.31999999
8.368 0.375 -1.674 0.28999999
8.3719997 0.40200001 -1.676 0.34
8.3669996 0.428 -1.675 0.31999999
8.3769999 0.45500001 -1.677 0.31999999
8.3629999 0.46700001 -1.674 0.28
8.3789997 0.49399999 -1.678 0.34
8.3620005 0.51999998 -1.675 0.28999999
8.3760004 0.54699999 -1.678 0.33000001
8.3599997 0.57200003 -1.675 0.28
8.3620005 0.59899998 -1.676 0.33000001
8.3590002 0.61199999 -1.676 0.31999999
8.3559999 0.63800001 -1.675 0.31
8.3520002 0.66399997 -1.675 0.31999999
8.349 0.69 -1.675 0.30000001
8.3529997 0.71700001 -1.676 0.31
8.3590002 0.74400002 -1.678 0.28999999
8.3520002 0.76999998 -1.677 0.30000001
8.3470001 0.78299999 -1.676 0.31
8.349 0.80900002 -1.677 0.30000001
8.3559999 0.83600003 -1.679 0.34
8.3450003 0.86199999 -1.677 0.31
8.3439999 0.88800001 -1.678 0.30000001
8.3400002 0.91399997 -1.677 0.31999999
8.3500004 0.94199997 -1.6799999 0.27000001
8.349 0.95499998 -1.6799999 0.31
8.3380003 0.98000002 -1.679 0.30000001
8.3409996 1.007 -1.6799999 0.28
8.3360004 1.033 -1.679 0.31
8.3190002 1.058 -1.676 0.27000001
8.3210001 1.085 -1.678 0.28999999
8.3290005 1.112 -1.6799999 0.31
8.3260002 1.125 -1.6799999 0.31
8.3280001 1.152 -1.681 0.31
8.3050003 1.175 -1.677 0.28999999
8.3129997 1.2029999 -1.679 0.31999999
8.2969999 1.228 -1.677 0.30000001
8.2989998 1.255 -1.678 0.30000001
8.2950001 1.281 -1.678 0.30000001
8.2869997 1.293 -1.677 0.28
8.2889996 1.3200001 -1.678 0.30000001
8.2679996 1.3430001 -1.674 0.28999999
8.2770004 1.3710001 -1.677 0.31999999
8.2629995 1.395 -1.675 0.27000001
8.2600002 1.4220001 -1.676 0.28999999
8.2539997 1.434 -1.675 0.28999999
8.257 1.461 -1.676 0.28999999
8.2510004 1.487 -1.676 0.28999999
8.2440004 1.512 -1.676 0.31
8.2360001 1.538 -1.675 0.28999999
8.2309999 1.564 -1.675 0.28999999
8.2329998 1.591 -1.676 0.31999999
8.217 1.601 -1.674 0.28
8.2180004 1.628 -1.675 0.30000001
8.2189999 1.655 -1.676 0.33000001
8.2019997 1.679 -1.674 0.28999999
8.1929998 1.7029999 -1.673 0.31
8.191 1.73 -1.674 0.31
8.1949997 1.758 -1.676 0.31999999
8.1829996 1.7690001 -1.674 0.33000001
8.1719999 1.793 -1.6720001 0.28
8.1680002 1.819 -1.673 0.31
8.1560001 1.8430001 -1.671 0.31
8.151 1.869 -1.671 0.28999999
8.1470003 1.895 -1.6720001 0.34999999
8.1440001 1.9220001 -1.673 0.31
8.1409998 1.934 -1.673 0.31999999
8.132 1.959 -1.6720001 0.31999999
8.1219997 1.984 -1.671 0.31999999
8.1110001 2.0079999 -1.67 0.34
8.1090002 2.0350001 -1.671 0.34
8.1079998 2.062 -1.6720001 0.31999999
8.0959997 2.086 -1.671 0.30000001
8.085 2.096 -1.669 0.36000001
8.092 2.125 -1.6720001 0.34999999
8.0699997 2.1470001 -1.669 0.25999999
8.0649996 2.1719999 -1.669 0.34
8.0600004 2.198 -1.67 0.33000001
8.0469999 2.2219999 -1.668 0.36000001
8.0389996 2.247 -1.668 0.34
8.0369997 2.26 -1.668 0.31999999
8.0279999 2.2850001 -1.668 0.34
8.0109997 2.3069999 -1.666 0.36000001
8.0039997 2.332 -1.666 0.33000001
7.9970002 2.3570001 -1.666 0.34
7.9850001 2.381 -1.665 0.33000001
8 2.4000001 -1.669 0.38999999
7.9829998 2.4219999 -1.6670001 0.31
7.9809999 2.4489999 -1.668 0.34999999
7.9619999 2.47 -1.666 0.33000001
7.9530001 2.4949999 -1.666 0.34
7.9520001 2.5220001 -1.6670001 0.31999999
7.9429998 2.546 -1.6670001 0.33000001
7.9369998 2.5580001 -1.666 0.34
7.921 2.5810001 -1.665 0.33000001
7.9200001 2.608 -1.666 0.34999999
7.9120002 2.6329999 -1.666 0.38999999
7.8889999 2.6530001 -1.663 0.30000001
7.8839998 2.6789999 -1.664 0.34
7.8889999 2.7079999 -1.6670001 0.33000001
7.8720002 2.7160001 -1.664 0.34999999
7.8720002 2.744 -1.666 0.33000001
7.8639998 2.7679999 -1.666 0.33000001
7.849 2.7909999 -1.665 0.30000001
7.8460002 2.8180001 -1.666 0.40000001
7.8260002 2.8380001 -1.663 0.31
7.8150001 2.862 -1.663 0.31999999
7.8200002 2.878 -1.665 0.38999999
7.802 2.8989999 -1.663 0.31999999
7.8000002 2.9260001 -1.665 0.34999999
7.7820001 2.947 -1.663 0.28999999
7.7940001 2.98 -1.668 0.37
7.7740002 3 -1.665 0.28999999
7.7589998 3.023 -1.664 0.34999999
7.7540002 3.0350001 -1.664 0.28999999
7.7540002 3.063 -1.666 0.34999999
7.737 3.0840001 -1.664 0.31999999
7.7290001 3.109 -1.665 0.34999999
7.7189999 3.1340001 -1.665 0.34
7.704 3.1559999 -1.663 0.31999999
7.6989999 3.168 -1.663 0.30000001
7.6919999 3.1930001 -1.664 0.34999999
7.6680002 3.211 -1.661 0.28
7.6690001 3.24 -1.663 0.34999999
7.6550002 3.263 -1.663 0.31999999
7.6479998 3.2880001 -1.663 0.34
7.6430001 3.3150001 -1.665 0.34
7.625 3.3210001 -1.6619999 0.28999999
7.6269999 3.3510001 -1.665 0.34999999
7.6040001 3.369 -1.6619999 0.28
7.6030002 3.3970001 -1.664 0.34999999
7.5869999 3.418 -1.663 0.34
7.5689998 3.4389999 -1.661 0.30000001
7.5630002 3.4649999 -1.6619999 0.38
7.5580001 3.477 -1.6619999 0.34
7.5489998 3.5009999 -1.663 0.31
7.5450001 3.529 -1.664 0.34
7.5190001 3.5450001 -1.661 0.30000001
7.5139999 3.572 -1.6619999 0.36000001
7.5 3.5940001 -1.6619999 0.34
7.487 3.6170001 -1.661 0.28999999
7.4920001 3.6340001 -1.664 0.36000001
7.474 3.654 -1.6619999 0.33000001
7.4679999 3.6800001 -1.663 0.34
7.4439998 3.697 -1.661 0.34
7.4299998 3.72 -1.66 0.28999999
7.4200001 3.744 -1.661 0.34999999
7.4060001 3.7509999 -1.658 0.28999999
7.4029999 3.779 -1.661 0.34999999
7.3959999 3.8050001 -1.6619999 0.31999999
7.3870001 3.8299999 -1.663 0.31999999
7.3790002 3.855 -1.663 0.36000001
7.348 3.868 -1.659 0.30000001
7.3369999 3.892 -1.659 0.31999999
7.3319998 3.9189999 -1.661 0.38999999
7.3099999 3.9219999 -1.6569999 0.31999999
7.3099999 3.951 -1.66 0.36000001
7.289 3.97 -1.658 0.28
7.2979999 4.0050001 -1.663 0.41999999
7.2740002 4.0209999 -1.661 0.27000001
7.2540002 4.04 -1.659 0.31999999
7.2459998 4.0510001 -1.658 0.33000001
7.2350001 4.0739999 -1.659 0.37
7.2210002 4.0960002 -1.658 0.30000001
7.21 4.1199999 -1.659 0.33000001
7.2080002 4.1490002 -1.6619999 0.37
7.178 4.1620002 -1.658 0.28999999
7.1799998 4.178 -1.66 0.38
7.1539998 4.1929998 -1.656 0.31
7.1440001 4.217 -1.6569999 0.31999999
7.132 4.2410002 -1.658 0.33000001
7.1240001 4.2659998 -1.659 0.34
7.1040001 4.2839999 -1.6569999 0.31
7.105 4.316 -1.661 0.40000001
7.0770001 4.3140001 -1.655 0.28999999
7.0799999 4.3460002 -1.66 0.33000001
7.0760002 4.375 -1.6619999 0.38
7.052 4.3909998 -1.66 0.31
7.039 4.4130001 -1.66 0.36000001
7.0170002 4.4289999 -1.658 0.30000001
7.006 4.454 -1.658 0.37
6.9970002 4.4640002 -1.658 0.34
6.98 4.4829998 -1.6569999 0.31
6.9759998 4.5120001 -1.66 0.37
6.9499998 4.526 -1.6569999 0.30000001
6.9390001 4.5500002 -1.658 0.36000001
6.9310002 4.5760002 -1.659 0.33000001
6.928 4.6059999 -1.6619999 0.34
6.9109998 4.6100001 -1.66 0.31999999
6.8850002 4.6240001 -1.6569999 0.30000001
6.8800001 4.652 -1.659 0.31
6.8709998 4.677 -1.661 0.33000001
6.8509998 4.6950002 -1.659 0.34
6.8299999 4.7119999 -1.658 0.28
6.8150001 4.7340002 -1.658 0.34999999
6.809 4.7459998 -1.658 0.33000001
6.7930002 4.7659998 -1.658 0.34
6.79 4.796 -1.661 0.34
6.77 4.8140001 -1.66 0.31999999
6.7540002 4.8340001 -1.659 0.34
6.737 4.8540001 -1.659 0.34
6.723 4.8759999 -1.659 0.34
6.7030001 4.8779998 -1.656 0.28999999
6.6950002 4.9050002 -1.658 0.34999999
6.677 4.9229999 -1.6569999 0.30000001
6.6630001 4.9450002 -1.658 0.34999999
6.6490002 4.9679999 -1.658 0.34999999
6.6240001 4.9809999 -1.655 0.30000001
6.6290002 5.0009999 -1.659 0.38
6.599 5.0110002 -1.655 0.30000001
6.5890002 5.0370002 -1.6569999 0.38
6.5830002 5.0650001 -1.659 0.34999999
6.5539999 5.0760002 -1.656 0.28999999
6.5450001 5.1009998 -1.658 0.37
6.5240002 5.118 -1.656 0.34
6.5240002 5.1339998 -1.658 0.30000001
6.5089998 5.1560001 -1.659 0.36000001
6.4790001 5.165 -1.655 0.30000001
6.4580002 5.1820002 -1.654 0.30000001
6.4520001 5.211 -1.6569999 0.40000001
6.434 5.23 -1.656 0.31999999
6.421 5.2529998 -1.6569999 0.33000001
6.4159999 5.2649999 -1.658 0.34
6.3979998 5.2839999 -1.658 0.34
6.3769999 5.3000002 -1.656 0.34999999
6.3660002 5.3249998 -1.658 0.33000001
6.3390002 5.3369999 -1.655 0.33000001
6.323 5.3579998 -1.655 0.34999999
6.3080001 5.3790002 -1.656 0.34
6.3039999 5.3920002 -1.6569999 0.34
6.277 5.4029999 -1.654 0.34999999
6.263 5.4260001 -1.655 0.31999999
6.2600002 5.4580002 -1.659 0.36000001
6.2249999 5.4619999 -1.654 0.34999999
6.2129998 5.4860001 -1.655 0.34999999
6.1999998 5.5089998 -1.6569999 0.34
6.1900001 5.5170002 -1.656 0.34999999
6.1739998 5.5380001 -1.6569999 0.34999999
6.164 5.5640001 -1.659 0.36000001
6.1339998 5.573 -1.655 0.36000001
6.1209998 5.5960002 -1.6569999 0.34
6.1040001 5.6149998 -1.6569999 0.34999999
6.072 5.6209998 -1.653 0.34999999
6.079 5.645 -1.6569999 0.36000001
6.066 5.6700001 -1.659 0.31999999
6.0359998 5.677 -1.655 0.31999999
6.0219998 5.6999998 -1.656 0.23
6.0159998 5.7290001 -1.66 0.41
5.993 5.744 -1.658 0.56999999
5.9889998 5.7579999 -1.66 0.46000001
5.9660001 5.7719998 -1.658 0.51999998
5.9299998 5.7729998 -1.653 0.62
5.9239998 5.8039999 -1.6569999 0.55000001
5.9050002 5.822 -1.656 0.47
5.8790002 5.8330002 -1.654 0.60000002
5.8610001 5.8520002 -1.654 0.47999999
5.8449998 5.8540001 -1.652 0.52999997
5.8239999 5.869 -1.651 0.5
5.816 5.8990002 -1.655 0.34
5.803 5.9229999 -1.656 0.34
5.7859998 5.9419999 -1.6569999 0.34
5.763 5.9559999 -1.655 0.34
5.7340002 5.9629998 -1.652 0.34999999
5.7389998 5.9879999 -1.6569999 0.31999999
5.7259998 6.0110002 -1.658 0.37
5.704 6.026 -1.658 0.34999999
5.6849999 6.0440001 -1.658 0.33000001
5.6659999 6.0619998 -1.658 0.34999999
5.6560001 6.0900002 -1.661 0.36000001
5.6370001 6.1079998 -1.661 0.31
5.6269999 6.1160002 -1.661 0.41999999
5.5999999 6.125 -1.658 0.34999999
5.573 6.1339998 -1.655 0.40000001
5.5409999 6.1370001 -1.651 0.40000001
5.5120001 6.1440001 -1.648 0.41999999
5.48 6.1469998 -1.6440001 0.28999999
5.4260001 6.1059999 -1.63 0.47
5.4029999 6.118 -1.6289999 0.41999999
5.3829999 6.1339998 -1.628 0.41
5.3579998 6.145 -1.627 0.41
5.3299999 6.151 -1.624 0.38999999
5.2969999 6.152 -1.619 0.28999999
5.2529998 6.1399999 -1.6109999 0.41999999
5.2129998 6.112 -1.601 0.34999999
5.1919999 6.1259999 -1.6 0.44
5.1919999 6.1659999 -1.607 0.44
5.158 6.164 -1.602 0.31
5.1409998 6.1830001 -1.603 0.46000001
5.1430001 6.2249999 -1.61 0.41
5.1199999 6.237 -1.608 0.34
5.1100001 6.2449999 -1.608 0.38
5.0749998 6.243 -1.603 0.43000001
5.0320001 6.23 -1.595 0.43000001
5.0100002 6.2420001 -1.595 0.36000001
4.9959998 6.2639999 -1.596 0.47
4.9640002 6.2639999 -1.592 0.38999999
4.9299998 6.2610002 -1.587 0.5
4.9289999 6.2820001 -1.59 0.40000001
4.914 6.303 -1.592 0.51999998
4.8860002 6.3080001 -1.589 0.34999999
4.8520002 6.3039999 -1.584 0.44999999
4.8189998 6.303 -1.58 0.38
4.7620001 6.2680001 -1.566 0.47999999
4.737 6.276 -1.564 0.38999999
4.691 6.2350001 -1.551 0.54000002
4.7030001 6.2919998 -1.563 0.31
4.6599998 6.276 -1.554 0.47999999
4.6620002 6.3200002 -1.562 0.31999999
4.638 6.3280001 -1.561 0.55000001
4.599 6.316 -1.553 0.34
4.5650001 6.3109999 -1.548 0.51999998
4.5539999 6.3169999 -1.548 0.31999999
4.506 6.2909999 -1.538 0.5
4.4679999 6.2800002 -1.531 0.31999999
4.4590001 6.3099999 -1.535 0.44
4.4450002 6.3319998 -1.5369999 0.38999999
4.3979998 6.3070002 -1.527 0.44999999
4.3860002 6.3109999 -1.526 0.38999999
4.355 6.309 -1.522 0.38999999
4.3319998 6.3169999 -1.521 0.34999999
4.2779999 6.2810001 -1.508 0.46000001
4.2719998 6.3140001 -1.513 0.43000001
4.256 6.3340001 -1.5140001 0.43000001
4.2579999 6.3800001 -1.523 0.43000001
4.2399998 6.375 -1.52 0.38999999
4.2179999 6.3850002 -1.5190001 0.41
4.1700001 6.355 -1.508 0.40000001
4.1399999 6.3520002 -1.5039999 0.44
4.0890002 6.3169999 -1.492 0.41
4.0890002 6.3610001 -1.5 0.43000001
4.0450001 6.336 -1.49 0.34
4.0120001 6.3270001 -1.485 0.54000002
3.96 6.2680001 -1.4680001 0.30000001
4.0349998 6.4310002 -1.506 0.50999999
4.0009999 6.4219999 -1.501 0.31
3.9059999 6.3130002 -1.47 0.47999999
3.9519999 6.434 -1.497 0.40000001
3.924 6.4330001 -1.494 0.31
3.8759999 6.375 -1.478 0.46000001
3.8529999 6.382 -1.477 0.43000001
3.829 6.3889999 -1.475 0.34999999
3.793 6.3740001 -1.469 0.56999999
3.7679999 6.3779998 -1.467 0.33000001
3.78 6.4439998 -1.48 0.50999999
3.7479999 6.4349999 -1.475 0.34
3.743 6.4499998 -1.477 0.52999997
3.687 6.4000001 -1.462 0.37
3.599 6.2909999 -1.432 0.38
3.635 6.401 -1.457 0.51999998
3.6110001 6.4060001 -1.455 0.28999999
3.5840001 6.4050002 -1.452 0.5
3.562 6.4130001 -1.451 0.33000001
3.575 6.461 -1.462 0.51999998
3.559 6.4790001 -1.4630001 0.31999999
3.5090001 6.4349999 -1.45 0.49000001
3.4820001 6.434 -1.447 0.31999999
3.4979999 6.513 -1.4630001 0.44999999
3.473 6.5149999 -1.461 0.41
3.359 6.349 -1.418 0.41
3.4560001 6.559 -1.4680001 0.41999999
3.46 6.6170001 -1.479 0.36000001
3.4070001 6.5650001 -1.464 0.44999999
3.355 6.5149999 -1.449 0.41
3.3659999 6.586 -1.464 0.34999999
3.3429999 6.5929999 -1.4630001 0.51999998
3.2780001 6.5139999 -1.442 0.28999999
3.276 6.5370002 -1.446 0.58999997
3.2920001 6.6209998 -1.464 0.27000001
3.2850001 6.6589999 -1.47 0.5
3.2479999 6.6360002 -1.462 0.28999999
3.1789999 6.546 -1.438 0.47999999
3.197 6.6370001 -1.4579999 0.31
2.9879999 6.2490001 -1.363 0.49000001
3.0940001 6.5 -1.4220001 0.44999999
3.092 6.5500002 -1.431 0.28999999
3.098 6.6170001 -1.4450001 0.51999998
3.059 6.5869999 -1.436 0.31999999
3.0150001 6.5450001 -1.423 0.47
2.9990001 6.566 -1.426 0.40000001
2.9489999 6.5089998 -1.41 0.40000001
2.9779999 6.6009998 -1.431 0.47999999
2.964 6.625 -1.434 0.38
2.9809999 6.7220001 -1.455 0.41999999
2.908 6.6110001 -1.427 0.41999999
2.8559999 6.5479999 -1.41 0.40000001
2.8469999 6.5840001 -1.416 0.43000001
2.845 6.638 -1.427 0.44
2.8399999 6.6550002 -1.4299999 0.44
2.816 6.6570001 -1.428 0.40000001
2.744 6.5430002 -1.399 0.33000001
2.823 6.7919998 -1.455 0.41
2.7449999 6.6609998 -1.423 0.41
2.7390001 6.7080002 -1.432 0.38999999
2.756 6.8109999 -1.454 0.44999999
2.721 6.7529998 -1.439 0.41999999
2.733 6.8470001 -1.459 0.31999999
2.7090001 6.8509998 -1.4579999 0.54000002
2.6199999 6.684 -1.4170001 0.38999999
2.6489999 6.8239999 -1.448 0.37
2.655 6.9029999 -1.464 0.34999999
2.6199999 6.875 -1.456 0.49000001
2.6159999 6.8990002 -1.46 0.36000001
2.5810001 6.8709998 -1.452 0.46000001
2.529 6.796 -1.433 0.41999999
2.4949999 6.7690001 -1.425 0.46000001
2.4960001 6.8379998 -1.439 0.31999999
2.473 6.8439999 -1.438 0.49000001
2.4530001 6.8530002 -1.439 0.28999999
2.3900001 6.71 -1.405 0.54000002
2.3800001 6.7480001 -1.4119999 0.30000001
2.346 6.7189999 -1.404 0.5
2.346 6.7870002 -1.418 0.38
2.3770001 6.9499998 -1.4529999 0.41
2.3710001 7.006 -1.464 0.43000001
2.3510001 6.9819999 -1.4579999 0.34999999
2.3399999 7.0229998 -1.465 0.47999999
2.306 6.993 -1.457 0.28999999
2.2550001 6.9109998 -1.437 0.51999998
2.2460001 6.9590001 -1.446 0.34
2.224 6.9660001 -1.446 0.50999999
2.2290001 7.0570002 -1.465 0.37
2.2179999 7.0619998 -1.465 0.40000001
2.1889999 7.0450001 -1.46 0.41999999
2.132 6.9369998 -1.434 0.37
2.128 7.0040002 -1.448 0.38
2.1170001 7.0479999 -1.456 0.52999997
2.0899999 7.0380001 -1.452 0.31
2.0569999 7.007 -1.444 0.54000002
1.993 6.8660002 -1.411 0.23
2.027 7.026 -1.446 0.51999998
1.875 6.573 -1.344 0.31
1.966 6.98 -1.433 0.38999999
1.962 7.0500002 -1.447 0.37
1.923 6.9959998 -1.434 0.56999999
1.8430001 6.7849998 -1.386 0.34999999
1.771 6.5549998 -1.334 0.40000001
1.872 7.0240002 -1.437 0.30000001
1.725 6.5469999 -1.33 0.49000001
1.803 6.941 -1.416 0.41
1.814 7.0739999 -1.444 0.37
1.7920001 7.0809999 -1.444 0.31
1.75 7.0050001 -1.426 0.44999999
1.732 6.9809999 -1.42 0.38999999
1.711 6.9899998 -1.421 0.49000001
1.661 6.8759999 -1.395 0.27000001
1.6720001 7.0240002 -1.426 0.54000002
1.6289999 6.9380002 -1.406 0.36000001
1.556 6.7179999 -1.357 0.46000001
1.559 6.829 -1.38 0.23999999
1.584 6.9920001 -1.415 0.44999999
1.5650001 7.0089998 -1.418 0.41
1.5599999 7.0939999 -1.436 0.38
1.533 7.0760002 -1.4299999 0.5
1.484 6.9520001 -1.402 0.33000001
1.4680001 6.9889998 -1.41 0.5
1.4119999 6.823 -1.372 0.28
1.461 7.125 -1.438 0.34
1.426 7.066 -1.424 0.51999998
1.364 6.8649998 -1.3789999 0.34
1.372 7.0250001 -1.413 0.36000001
1.346 7.0040002 -1.4069999 0.5
1.3200001 6.987 -1.403 0.34999999
1.29 6.947 -1.393 0.47999999
1.26 6.8449998 -1.37 0.34999999
1.268 7.0170002 -1.4069999 0.28999999
1.252 7.0549998 -1.415 0.47999999
1.23 7.059 -1.415 0.31
1.204 7.0419998 -1.41 0.47999999
1.201 7.1609998 -1.4349999 0.30000001
1.169 7.1030002 -1.4220001 0.5
1.1569999 7.1009998 -1.421 0.41
1.14 7.1409998 -1.429 0.38999999
1.1 7.027 -1.403 0.41
1.1 7.1789999 -1.436 0.28999999
1.073 7.152 -1.429 0.5
1.046 7.1199999 -1.421 0.34999999
1.016 7.0710001 -1.41 0.44
1.007 7.0879998 -1.413 0.41
0.98100001 7.0679998 -1.408 0.36000001
0.94499999 6.9650002 -1.385 0.55000001
0.90200001 6.7989998 -1.349 0.27000001
0.903 6.9840002 -1.388 0.56
0.88200003 6.9970002 -1.39 0.31999999
0.87800002 7.1490002 -1.423 0.41
0.866 7.1409998 -1.42 0.36000001
0.847 7.1739998 -1.427 0.47999999
0.815 7.0929999 -1.409 0.34999999
0.79500002 7.1149998 -1.413 0.56999999
0.76899999 7.0890002 -1.4069999 0.38
0.745 7.0739999 -1.403 0.43000001
0.69800001 6.823 -1.349 0.47
0.69400001 6.888 -1.362 0.30000001
0.685 7.0250001 -1.391 0.47999999
0.66399997 7.0440001 -1.395 0.27000001
0.64399999 7.0640001 -1.399 0.55000001
0.61799997 7.0250001 -1.39 0.27000001
0.60100001 7.0890002 -1.404 0.54000002
0.58099997 7.1199999 -1.41 0.33000001
0.57499999 7.1880002 -1.424 0.46000001
0.546 7.1090002 -1.4069999 0.44999999
0.514 6.9689999 -1.376 0.37
0.49200001 6.9640002 -1.375 0.28999999
0.46900001 6.9439998 -1.37 0.54000002
0.449 6.987 -1.3789999 0.36000001
0.435 7.125 -1.409 0.37
0.41600001 6.9790001 -1.377 0.44999999
0.389 6.8889999 -1.357 0.38
0.36700001 6.8860002 -1.357 0.34999999
0.34 6.7639999 -1.33 0.51999998
0.31900001 6.7750001 -1.332 0.18000001
0.31299999 7.151 -1.413 0.51999998
0.271 6.6399999 -1.303 0.22
0.27599999 7.0679998 -1.395 0.54000002
0.24600001 6.8249998 -1.342 0.23
0.21799999 6.5949998 -1.293 0.55000001
0.20900001 7.053 -1.391 0.36000001
0.189 7.1409998 -1.41 0.28999999
0.162 6.941 -1.367 0.5
0.142 7.027 -1.385 0.30000001
0.132 7.1129999 -1.404 0.37
0.11 7.1040001 -1.402 0.31999999
0.088 7.151 -1.4119999 0.54000002
0.064999998 6.9970002 -1.378 0.38999999
0.043000001 7.0089998 -1.381 0.27000001
0.021 7.0700002 -1.3940001 0.5
-0.0020000001 7.224 -1.427 0.36000001
-0.014 7.2519999 -1.433 0.40000001
-0.035999998 7.244 -1.431 0.36000001
-0.059 7.224 -1.427 0.58999997
-0.082000002 7.2280002 -1.428 0.34999999
-0.105 7.2680001 -1.437 0.44999999
-0.12899999 7.3130002 -1.446 0.37
-0.152 7.3109999 -1.446 0.38
-0.164 7.322 -1.449 0.38
-0.184 7.2140002 -1.425 0.38999999
-0.206 7.1939998 -1.421 0.34
-0.21799999 6.9120002 -1.3609999 0.47999999
-0.25099999 7.1869998 -1.42 0.25999999
-0.26899999 7.098 -1.401 0.49000001
-0.29100001 7.085 -1.399 0.31
-0.30199999 7.0749998 -1.396 0.41
-0.32300001 7.0510001 -1.391 0.43000001
-0.34400001 7.0300002 -1.387 0.47999999
-0.36899999 7.0780001 -1.398 0.38
-0.391 7.0749998 -1.397 0.47999999
-0.414 7.085 -1.4 0.34
-0.43799999 7.1110001 -1.406 0.44999999
-0.44800001 7.099 -1.403 0.38999999
-0.47 7.0890002 -1.402 0.41999999
-0.493 7.098 -1.404 0.51999998
-0.514 7.0780001 -1.4 0.36000001
-0.52899998 6.9809999 -1.3789999 0.47999999
-0.55299997 7.013 -1.386 0.38999999
-0.58700001 7.1430001 -1.415 0.30000001
-0.602 7.1849999 -1.424 0.54000002
-0.625 7.1869998 -1.425 0.31999999
-0.64999998 7.2140002 -1.431 0.46000001
-0.67199999 7.2069998 -1.4299999 0.41
-0.69700003 7.23 -1.436 0.34999999
-0.71899998 7.2220001 -1.434 0.41
-0.73000002 7.2129998 -1.433 0.57999998
-0.75400001 7.2199998 -1.4349999 0.31999999
-0.778 7.2290001 -1.437 0.51999998
-0.79100001 7.1490002 -1.42 0.31999999
-0.80400002 7.0609999 -1.402 0.41
-0.833 7.1170001 -1.415 0.33000001
-0.87 7.2350001 -1.441 0.40000001
-0.82599998 6.7080002 -1.327 0.28
-0.90700001 7.25 -1.4450001 0.5
-0.91600001 7.1399999 -1.4220001 0.41999999
-0.92900002 7.0679998 -1.4069999 0.34999999
-0.96899998 7.1999998 -1.436 0.34999999
-0.99400002 7.2129998 -1.439 0.44999999
-1.022 7.244 -1.447 0.31999999
-1.033 7.243 -1.447 0.43000001
-1.053 7.2160001 -1.442 0.41
-1.068 7.1659999 -1.432 0.38999999
-1.101 7.2270002 -1.446 0.31999999
-1.12 7.2020001 -1.441 0.47999999
-1.1440001 7.2080002 -1.443 0.34999999
-1.166 7.1989999 -1.442 0.55000001
-1.1849999 7.2410002 -1.451 0.31
-1.193 7.151 -1.433 0.58999997
-1.191 7.0100002 -1.403 0.23999999
-1.239 7.1529999 -1.4349999 0.51999998
-1.189 6.7449999 -1.347 0.38
-1.26 7.0139999 -1.406 0.30000001
-1.301 7.1139998 -1.429 0.34999999
-1.316 7.1290002 -1.433 0.51999998
-1.319 7.0229998 -1.41 0.38
-1.346 7.0440001 -1.416 0.28999999
-1.383 7.118 -1.433 0.50999999
-1.398 7.0739999 -1.424 0.38999999
-1.4170001 7.0539999 -1.421 0.40000001
-1.419 6.954 -1.4 0.43000001
-1.449 7.0430002 -1.42 0.41999999
-1.485 7.1020002 -1.434 0.44
-1.494 7.0380001 -1.421 0.34999999
-1.507 6.9889998 -1.411 0.51999998
-1.521 6.9499998 -1.404 0.34
-1.498 6.7449999 -1.36 0.47
-1.571 6.967 -1.41 0.34
-1.589 6.9970002 -1.4170001 0.51999998
-1.584 6.8779998 -1.391 0.43000001
-1.647 7.046 -1.4299999 0.43000001
-1.661 7.006 -1.4220001 0.38999999
-1.671 6.954 -1.4119999 0.47
-1.7130001 7.0279999 -1.429 0.34
-1.7460001 7.0640001 -1.438 0.51999998
-1.784 7.1700001 -1.462 0.30000001
-1.675 6.651 -1.349 0.63
-1.789 7.0029998 -1.428 0.28999999
-1.835 7.0900002 -1.449 0.41999999
-1.846 7.0409999 -1.439 0.38999999
-1.882 7.086 -1.45 0.47999999
-1.901 7.0710001 -1.448 0.37
-1.918 7.0890002 -1.4529999 0.34
-1.952 7.1259999 -1.462 0.41999999
-1.9960001 7.197 -1.48 0.33000001
-2.007 7.1469998 -1.47 0.47
-2.006 7.0599999 -1.452 0.47
-2.0280001 7.052 -1.451 0.25
-1.927 6.6290002 -1.358 0.62
-1.923 6.579 -1.348 0.25
-1.88 6.3600001 -1.3 0.51999998
-2.056 6.8660002 -1.415 0.30000001
-2.2030001 7.2690001 -1.507 0.38
-2.223 7.2529998 -1.505 0.41999999
-2.2490001 7.257 -1.507 0.47
-2.2650001 7.23 -1.503 0.37
-2.2690001 7.204 -1.498 0.44999999
-2.2650001 7.1129999 -1.479 0.41
-2.293 7.1240001 -1.483 0.41999999
-2.3210001 7.132 -1.4859999 0.31999999
-2.3080001 7.0190001 -1.462 0.51999998
-2.3369999 7.0339999 -1.467 0.38
-2.3239999 6.921 -1.444 0.47999999
-2.3729999 7.0300002 -1.469 0.36000001
-2.3629999 6.928 -1.448 0.44
-2.382 6.915 -1.446 0.36000001
-2.4089999 6.921 -1.449 0.55000001
-2.3540001 6.6989999 -1.401 0.38
-2.4920001 7.0180001 -1.475 0.37
-2.55 7.1090002 -1.498 0.44999999
-2.562 7.105 -1.498 0.31999999
-2.595 7.1259999 -1.5039999 0.55000001
-2.6040001 7.0830002 -1.4960001 0.34
-2.6300001 7.0840001 -1.498 0.5
-2.668 7.118 -1.508 0.30000001
-2.6849999 7.0949998 -1.505 0.56
-2.668 6.9840002 -1.4809999 0.34
-2.675 6.9710002 -1.479 0.47
-2.6989999 6.9679999 -1.48 0.40000001
-2.6889999 6.8779998 -1.462 0.49000001
-2.7290001 6.9159999 -1.472 0.33000001
-2.756 6.9200001 -1.475 0.47999999
-2.7950001 6.9549999 -1.485 0.34999999
-2.812 6.934 -1.483 0.51999998
-2.8269999 6.9400001 -1.485 0.31999999
-2.839 6.9060001 -1.479 0.47
-2.872 6.9260001 -1.4859999 0.37
-2.891 6.9099998 -1.484 0.44
-2.8989999 6.868 -1.477 0.44
-2.9289999 6.8790002 -1.4809999 0.34
-2.9560001 6.882 -1.484 0.5
-2.9660001 6.8759999 -1.484 0.31999999
-3.01 6.9180002 -1.4960001 0.54000002
-3.01 6.8590002 -1.484 0.33000001
-3.0339999 6.855 -1.485 0.44999999
-3.0650001 6.8660002 -1.4910001 0.38
-3.082 6.8460002 -1.488 0.44999999
-3.102 6.835 -1.488 0.43000001
-3.1270001 6.8600001 -1.495 0.37
-3.138 6.8270001 -1.489 0.44999999
-3.1719999 6.8439999 -1.4960001 0.34
-3.201 6.8499999 -1.499 0.55000001
-3.2049999 6.802 -1.4910001 0.34
-3.2579999 6.8590002 -1.506 0.47
-3.2820001 6.8540001 -1.508 0.34999999
-3.2839999 6.8299999 -1.503 0.46000001
-3.3180001 6.8460002 -1.5089999 0.41
-3.355 6.8670001 -1.517 0.41999999
-3.3640001 6.8319998 -1.511 0.41999999
-3.3859999 6.8210001 -1.511 0.44
-3.4059999 6.809 -1.511 0.36000001
-3.414 6.7719998 -1.5039999 0.50999999
-3.4489999 6.7870002 -1.511 0.31999999
-3.4549999 6.7729998 -1.5089999 0.44999999
-3.48 6.7690001 -1.51 0.34999999
-3.5039999 6.763 -1.512 0.61000001
-3.51 6.723 -1.5039999 0.27000001
-3.5350001 6.7210002 -1.506 0.51999998
-3.599 6.789 -1.526 0.28999999
-3.6099999 6.783 -1.526 0.49000001
-3.6329999 6.7750001 -1.527 0.33000001
-3.6329999 6.7259998 -1.517 0.44
-3.655 6.7140002 -1.517 0.43000001
-3.671 6.6939998 -1.515 0.41999999
-3.7320001 6.7550001 -1.533 0.38999999
-3.733 6.7069998 -1.524 0.40000001
-3.7390001 6.6929998 -1.522 0.38999999
-3.744 6.6539998 -1.515 0.43000001
-3.7550001 6.6230001 -1.511 0.34
-3.789 6.6350002 -1.517 0.52999997
-3.7969999 6.6009998 -1.511 0.34
-3.832 6.6129999 -1.517 0.46000001
-3.8640001 6.6209998 -1.522 0.43000001
-3.8840001 6.6300001 -1.526 0.43000001
-3.911 6.6300001 -1.529 0.41
-3.928 6.6110001 -1.527 0.41
-3.938 6.5799999 -1.522 0.38999999
-3.973 6.5910001 -1.528 0.41999999
-4.0170002 6.6170001 -1.538 0.36000001
-4.0250001 6.5840001 -1.533 0.47
-4.0580001 6.5910001 -1.538 0.36000001
-4.0710001 6.5879998 -1.539 0.44999999
-4.0700002 6.5409999 -1.53 0.36000001
-4.1199999 6.5760002 -1.5420001 0.44999999
-4.1430001 6.566 -1.543 0.38999999
-4.1609998 6.5479999 -1.5420001 0.49000001
-4.1919999 6.5510001 -1.546 0.34999999
-4.1939998 6.5100002 -1.539 0.49000001
-4.2179999 6.5250001 -1.544 0.38
-4.2249999 6.4899998 -1.539 0.5
-4.257 6.4949999 -1.543 0.37
-4.2969999 6.5110002 -1.551 0.52999997
-4.316 6.4959998 -1.551 0.31999999
-4.3569999 6.513 -1.559 0.5
-4.369 6.5079999 -1.559 0.44
-4.3889999 6.494 -1.559 0.40000001
-4.4109998 6.4819999 -1.559 0.55000001
-4.4400001 6.4809999 -1.563 0.40000001
-4.401 6.382 -1.54 0.54000002
-4.3270001 6.2329998 -1.505 0.34
-4.3449998 6.2179999 -1.505 0.47
-4.5139999 6.4359999 -1.564 0.33000001
-4.4689999 6.3299999 -1.54 0.38999999
-4.559 6.414 -1.566 0.41
-4.5869999 6.4109998 -1.569 0.41999999
-4.5100002 6.2620001 -1.533 0.40000001
-4.6589999 6.4250002 -1.58 0.38999999
-4.6859999 6.4190001 -1.582 0.50999999
-4.6999998 6.4180002 -1.584 0.40000001
-4.723 6.4070001 -1.585 0.47999999
-4.7589998 6.414 -1.591 0.37
-4.8010001 6.427 -1.598 0.47
-4.8660002 6.4710002 -1.614 0.41999999
-4.9070001 6.4840002 -1.622 0.37
-4.8909998 6.4200001 -1.609 0.47999999
-4.9159999 6.4109998 -1.6109999 0.36000001
-4.921 6.3969998 -1.609 0.41999999
-4.9359999 6.375 -1.607 0.47999999
-4.9780002 6.388 -1.615 0.40000001
-4.9889998 6.3610001 -1.612 0.51999998
-5.033 6.375 -1.62 0.36000001
-5.0500002 6.3559999 -1.619 0.49000001
-5.0549998 6.342 -1.617 0.43000001
-5.073 6.323 -1.6160001 0.38
-5.0879998 6.3010001 -1.615 0.44999999
-5.1539998 6.342 -1.631 0.38
-5.164 6.3140001 -1.627 0.46000001
-5.2049999 6.323 -1.6339999 0.40000001
-5.2340002 6.3169999 -1.637 0.41
-5.2350001 6.2989998 -1.6339999 0.55000001
-5.2810001 6.3140001 -1.643 0.38999999
-5.2969999 6.2919998 -1.642 0.51999998
-5.3070002 6.2639999 -1.6390001 0.36000001
-5.3189998 6.2379999 -1.636 0.41999999
-5.3379998 6.2220001 -1.636 0.47
-5.3979998 6.25 -1.649 0.36000001
-5.4330001 6.2709999 -1.658 0.44999999
-5.4770002 6.2820001 -1.666 0.38999999
-5.4980001 6.2670002 -1.666 0.52999997
-5.5180001 6.2490001 -1.666 0.38
-5.54 6.2350001 -1.6670001 0.49000001
-5.5809999 6.2410002 -1.674 0.38
-5.6020002 6.224 -1.674 0.47999999
-5.6290002 6.2340002 -1.679 0.38
-5.6490002 6.2179999 -1.6799999 0.5
-5.6849999 6.2179999 -1.6849999 0.37
-5.7119999 6.2080002 -1.687 0.51999998
-5.7490001 6.2090001 -1.693 0.36000001
-5.7810001 6.204 -1.697 0.47999999
-5.8010001 6.1869998 -1.697 0.34999999
-5.763 6.1269999 -1.682 0.49000001
-5.8119998 6.1399999 -1.691 0.34
-5.8660002 6.158 -1.702 0.55000001
-5.9099998 6.165 -1.71 0.40000001
-5.9159999 6.132 -1.705 0.5
-5.9289999 6.1079998 -1.704 0.44
-5.9809999 6.1230001 -1.714 0.36000001
-5.987 6.1090002 -1.7130001 0.47999999
-6.0019999 6.086 -1.711 0.33000001
-6.027 6.073 -1.7130001 0.5
-6.0430002 6.0510001 -1.712 0.41
-6.0149999 5.9860001 -1.698 0.41
-5.9980001 5.9320002 -1.687 0.38999999
-6.0380001 5.934 -1.694 0.38
-6.0609999 5.9380002 -1.698 0.36000001
-6.0970001 5.9349999 -1.7029999 0.38
-6.1479998 5.947 -1.7130001 0.44
-6.2020001 5.9619999 -1.723 0.25
-6.2389998 5.96 -1.729 0.44
-6.2859998 5.967 -1.737 0.49000001
-6.3979998 6.0339999 -1.7640001 0.38999999
-6.3969998 6.0149999 -1.761 0.38
-6.4460001 6.0229998 -1.77 0.31999999
-6.4559999 5.994 -1.768 0.43000001
-6.5430002 6.0359998 -1.7869999 0.37
-6.5599999 6.0139999 -1.7869999 0.36000001
-6.6139998 6.0250001 -1.7970001 0.41
-6.6420002 6.0120001 -1.799 0.37
-6.6479998 5.9990001 -1.799 0.34
-6.6680002 5.98 -1.799 0.34
-6.6960001 5.9660001 -1.802 0.38999999
-6.71 5.941 -1.8 0.34
-6.7020001 5.8969998 -1.793 0.33000001
-6.7160001 5.8720002 -1.791 0.34
-6.7319999 5.849 -1.791 0.33000001
-6.75 5.8460002 -1.793 0.34
-6.7639999 5.8210001 -1.7920001 0.34
-6.7870002 5.803 -1.793 0.28
-6.7969999 5.7750001 -1.791 0.31
-6.8270001 5.7639999 -1.794 0.40000001
-6.8530002 5.7490001 -1.7970001 0.62
-6.875 5.7309999 -1.798 0.57999998
-6.8889999 5.724 -1.799 0.46000001
-6.902 5.6989999 -1.798 0.63999999
-6.9250002 5.6810002 -1.799 0.56999999
-6.941 5.658 -1.799 0.62
-6.9629998 5.6389999 -1.8 0.52999997
-6.9899998 5.625 -1.802 0.51999998
-7.0029998 5.599 -1.801 0.49000001
-7.0040002 5.5819998 -1.799 0.37
-7.0229998 5.5609999 -1.799 0.34
-7.0440001 5.5419998 -1.8 0.31
-7.066 5.5229998 -1.802 0.38999999
-7.0799999 5.4980001 -1.801 0.31999999
-7.1040001 5.4809999 -1.802 0.33000001
-7.1240001 5.461 -1.803 0.33000001
-7.1389999 5.454 -1.8049999 0.34999999
-7.1479998 5.4260001 -1.803 0.33000001
-7.1620002 5.401 -1.802 0.33000001
-7.1869998 5.3850002 -1.804 0.34
-7.1989999 5.3590002 -1.803 0.31999999
-7.2249999 5.3429999 -1.8049999 0.34
-7.2420001 5.3200002 -1.8049999 0.34
-7.2579999 5.3140001 -1.807 0.31999999
-7.2750001 5.2919998 -1.807 0.33000001
-7.2849998 5.2639999 -1.806 0.31999999
-7.3049998 5.244 -1.807 0.31999999
-7.3200002 5.2189999 -1.806 0.34999999
-7.3460002 5.2030001 -1.809 0.38
-7.3520002 5.1729999 -1.806 0.31
-7.3730001 5.171 -1.8099999 0.38
-7.388 5.1459999 -1.809 0.28999999
-7.3959999 5.118 -1.807 0.31999999
-7.4260001 5.1040001 -1.811 0.34999999
-7.4439998 5.0819998 -1.811 0.34999999
-7.4619999 5.0599999 -1.812 0.33000001
-7.474 5.0339999 -1.811 0.31
-7.4889998 5.027 -1.812 0.34
-7.4949999 4.9970002 -1.8099999 0.30000001
-7.5250001 4.9829998 -1.814 0.34999999
-7.539 4.9580002 -1.813 0.31999999
-7.553 4.9330001 -1.813 0.31999999
-7.5679998 4.9099998 -1.813 0.31999999
-7.5939999 4.8920002 -1.8150001 0.34
-7.5949998 4.8759999 -1.814 0.34
-7.6199999 4.8579998 -1.816 0.31999999
-7.6269999 4.829 -1.814 0.31999999
-7.6539998 4.8119998 -1.817 0.31
-7.6700001 4.789 -1.818 0.31999999
-7.684 4.7639999 -1.817 0.34
-7.7049999 4.744 -1.819 0.33000001
-7.6989999 4.724 -1.8150001 0.27000001
-7.7270002 4.7080002 -1.819 0.38
-7.7290001 4.6750002 -1.8150001 0.27000001
-7.75 4.6550002 -1.817 0.34999999
-7.7750001 4.6370001 -1.8200001 0.31
-7.783 4.6079998 -1.818 0.34
-7.7989998 4.585 -1.818 0.30000001
-7.8140001 4.5780001 -1.8200001 0.34999999
-7.8249998 4.5510001 -1.8200001 0.33000001
-7.8379998 4.5250001 -1.819 0.34
-7.8559999 4.5029998 -1.8200001 0.34
-7.8649998 4.4749999 -1.819 0.34999999
-7.8850002 4.454 -1.8200001 0.34
-7.8990002 4.4289999 -1.8200001 0.30000001
-7.9109998 4.4200001 -1.822 0.36000001
-7.915 4.3889999 -1.819 0.31
-7.9419999 4.3720002 -1.823 0.38
-7.9439998 4.3400002 -1.8200001 0.30000001
-7.9749999 4.3249998 -1.824 0.36000001
-7.9829998 4.2969999 -1.823 0.31
-8.007 4.277 -1.825 0.36000001
-8.007 4.2610002 -1.823 0.31
-8.0220003 4.237 -1.824 0.33000001
-8.0340004 4.211 -1.823 0.31999999
-8.0480003 4.1859999 -1.824 0.33000001
-8.0550003 4.1570001 -1.822 0.33000001
-8.0760002 4.1370001 -1.824 0.33000001
-8.0810003 4.1230001 -1.824 0.33000001
-8.1099997 4.105 -1.8279999 0.38999999
-8.1090002 4.073 -1.824 0.28999999
-8.1300001 4.052 -1.826 0.33000001
-8.1450005 4.027 -1.827 0.34999999
-8.1520004 3.9990001 -1.825 0.28999999
-8.1709995 3.977 -1.827 0.36000001
-8.1780005 3.964 -1.827 0.30000001
-8.1990004 3.9419999 -1.829 0.36000001
-8.2019997 3.9119999 -1.827 0.30000001
-8.2200003 3.8889999 -1.8279999 0.33000001
-8.2360001 3.865 -1.829 0.38
-8.2390003 3.835 -1.827 0.31999999
-8.2510004 3.809 -1.827 0.34
-8.2600002 3.7980001 -1.8279999 0.31999999
-8.2919998 3.7809999 -1.8329999 0.38
-8.2930002 3.75 -1.83 0.28999999
-8.3210001 3.7309999 -1.834 0.38
-8.316 3.698 -1.83 0.31
-8.3389997 3.6760001 -1.8329999 0.38
-8.3409996 3.6459999 -1.831 0.30000001
-8.3669996 3.6259999 -1.834 0.34999999
-8.3620005 3.608 -1.831 0.30000001
-8.3839998 3.586 -1.834 0.34999999
-8.3920002 3.559 -1.8329999 0.33000001
-8.3990002 3.5309999 -1.832 0.28999999
-8.427 3.5109999 -1.836 0.36000001
-8.4379997 3.4849999 -1.836 0.28999999
-8.441 3.4549999 -1.834 0.36000001
-8.4429998 3.4400001 -1.8329999 0.28999999
-8.4700003 3.4200001 -1.837 0.34999999
-8.474 3.391 -1.836 0.33000001
-8.4809999 3.3629999 -1.835 0.31
-8.5059996 3.342 -1.8380001 0.34
-8.5200005 3.316 -1.839 0.33000001
-8.5080004 3.2969999 -1.835 0.31999999
-8.5220003 3.2709999 -1.836 0.31
-8.5290003 3.243 -1.835 0.31999999
-8.5469999 3.2190001 -1.837 0.31999999
