# .PCD v0.7 - Point Cloud Data file format
VERSION 0.7
FIELDS x y z intensity
SIZE 4 4 4 4
TYPE F F F F
COUNT 1 1 1 1
WIDTH 1379
HEIGHT 1
VIEWPOINT 0 0 0 1 0 0 0
POINTS 1379
DATA ascii
-4.6719999 -14.31 -3.9649999 0.41999999
-4.5819998 -14.185 -3.925 0.23999999
-4.5900002 -14.365 -3.9719999 0.33000001
-4.5609999 -14.43 -3.987 0.43000001
-4.441 -14.205 -3.9189999 0.34999999
-4.4660001 -14.363 -3.9619999 0.38
-4.447 -14.462 -3.9860001 0.31
-4.4380002 -14.598 -4.0209999 0.34999999
-4.4190001 -14.703 -4.046 0.36000001
-4.3499999 -14.639 -4.0240002 0.38
-4.323 -14.717 -4.0430002 0.38
-4.2639999 -14.686 -4.0300002 0.38
-4.2470002 -14.713 -4.0359998 0.36000001
-4.1659999 -14.606 -4.0019999 0.38
-4.0799999 -14.474 -3.961 0.40000001
-4.0409999 -14.512 -3.9679999 0.31
-3.9949999 -14.521 -3.967 0.46000001
-3.9549999 -14.556 -3.974 0.33000001
-3.934 -14.66 -3.9990001 0.38999999
-3.914 -14.679 -4.0029998 0.37
-3.846 -14.607 -3.9790001 0.34999999
-3.796 -14.604 -3.9749999 0.38
-3.7309999 -14.541 -3.954 0.38
-3.694 -14.587 -3.964 0.41999999
-3.6459999 -14.589 -3.961 0.34
-3.6129999 -14.555 -3.95 0.41
-3.5450001 -14.475 -3.924 0.40000001
-3.527 -14.598 -3.9560001 0.36000001
-3.464 -14.54 -3.9360001 0.34
-3.414 -14.532 -3.931 0.44999999
-3.385 -14.616 -3.9519999 0.38999999
-3.348 -14.662 -3.961 0.38999999
-3.3099999 -14.603 -3.944 0.40000001
-3.23 -14.461 -3.901 0.41
-3.2079999 -14.577 -3.931 0.37
-3.148 -14.523 -3.9130001 0.38
-3.131 -14.665 -3.9489999 0.30000001
-3.0739999 -14.623 -3.9349999 0.34
-3.039 -14.684 -3.9489999 0.43000001
-3.013 -14.676 -3.9460001 0.41999999
-2.974 -14.721 -3.9560001 0.33000001
-2.9219999 -14.7 -3.947 0.38999999
-2.885 -14.76 -3.961 0.40000001
-2.836 -14.752 -3.957 0.28999999
-2.7650001 -14.63 -3.921 0.41999999
-2.72 -14.642 -3.9219999 0.36000001
-2.687 -14.594 -3.9070001 0.34999999
-2.6530001 -14.667 -3.925 0.36000001
-2.595 -14.606 -3.9059999 0.33000001
-2.553 -14.637 -3.9119999 0.25
-2.5090001 -14.659 -3.9159999 0.38
-2.45 -14.592 -3.895 0.31999999
-2.4100001 -14.63 -3.904 0.34
-2.3859999 -14.628 -3.902 0.34999999
-2.323 -14.529 -3.8729999 0.23999999
-2.3080001 -14.733 -3.927 0.41
-2.257 -14.709 -3.918 0.31999999
-2.22 -14.781 -3.9360001 0.38999999
-2.177 -14.809 -3.9419999 0.38999999
-2.1340001 -14.841 -3.9489999 0.34
-2.109 -14.833 -3.9460001 0.41999999
-2.056 -14.791 -3.9330001 0.41
-1.992 -14.669 -3.898 0.28999999
-1.965 -14.825 -3.938 0.47999999
-1.914 -14.797 -3.9289999 0.33000001
-1.837 -14.554 -3.8610001 0.34
-1.826 -14.847 -3.9389999 0.38
-1.806 -14.878 -3.947 0.36000001
-1.752 -14.824 -3.931 0.31999999
-1.698 -14.759 -3.9119999 0.44
-1.6440001 -14.699 -3.8940001 0.36000001
-1.603 -14.752 -3.9070001 0.37
-1.55 -14.688 -3.888 0.34999999
-1.508 -14.737 -3.9000001 0.44999999
-1.475 -14.639 -3.8729999 0.31
-1.431 -14.667 -3.8789999 0.25999999
-1.3839999 -14.662 -3.8770001 0.47
-1.342 -14.704 -3.8870001 0.37
-1.298 -14.737 -3.895 0.37
-1.2589999 -14.836 -3.921 0.28
-1.223 -14.672 -3.8759999 0.46000001
-1.194 -14.895 -3.9349999 0.33000001
-1.151 -14.959 -3.9519999 0.37
-1.11 -15.045 -3.974 0.28999999
-1.054 -14.923 -3.9400001 0.31999999
-1.01 -14.965 -3.95 0.41
-0.95999998 -14.926 -3.9389999 0.34999999
-0.93099999 -14.837 -3.914 0.41
-0.89300001 -14.988 -3.9549999 0.28
-0.85299999 -15.104 -3.9860001 0.5
-0.78899997 -14.802 -3.9030001 0.25999999
-0.74800003 -14.901 -3.9289999 0.47
-0.69499999 -14.772 -3.8929999 0.31
-0.43799999 -9.776 -2.5350001 0.25999999
-0.421 -9.7279997 -2.5220001 0.38999999
-0.60799998 -15.547 -4.1020002 0.43000001
-0.546 -15.175 -4.0009999 0.25999999
-0.49000001 -14.9 -3.9260001 0.40000001
-0.29899999 -9.7700005 -2.5320001 0.31
-0.396 -14.886 -3.921 0.44999999
-0.243 -9.9949999 -2.5929999 0.28999999
-0.32800001 -14.995 -3.95 0.18000001
-0.19499999 -9.9560003 -2.582 0.28999999
-0.16500001 -10.024 -2.5999999 0.38999999
-0.132 -9.9680004 -2.585 0.41
-0.101 -9.9420004 -2.5780001 0.22
-0.07 -10.013 -2.5969999 0.51999998
-0.068000004 -14.964 -3.941 0.28
-0.021 -14.984 -3.9460001 0.37
0.026000001 -15.003 -3.9519999 0.41
0.072999999 -15.026 -3.9579999 0.33000001
0.061000001 -8.9359999 -2.3050001 0.22
0.089000002 -8.9230003 -2.3010001 0.56999999
0.125 -9.4090004 -2.4330001 0.43000001
0.23800001 -15.007 -3.9530001 0.14
0.15800001 -8.8769999 -2.289 0.34
0.184 -8.7959995 -2.267 0.41
0.20900001 -8.71 -2.244 0.2
0.237 -8.7110004 -2.244 0.58999997
0.46399999 -14.718 -3.8759999 0.22
0.51599997 -14.861 -3.915 0.31999999
0.53899997 -14.866 -3.9170001 0.34999999
0.58099997 -14.731 -3.881 0.36000001
0.62800002 -14.754 -3.888 0.41999999
0.676 -14.787 -3.8970001 0.25
0.71600002 -14.661 -3.8629999 0.54000002
0.76599997 -14.73 -3.8829999 0.23999999
0.537 -9.8850002 -2.566 0.38
0.84399998 -14.867 -3.921 0.36000001
0.89099997 -14.868 -3.9219999 0.55000001
0.93699998 -14.858 -3.9200001 0.28999999
0.96600002 -14.595 -3.849 0.18000001
0.699 -10.188 -2.651 0.34
0.72899997 -10.169 -2.6459999 0.5
0.75 -10.237 -2.665 0.20999999
0.78100002 -10.215 -2.6600001 0.38999999
0.81599998 -10.244 -2.668 0.44999999
1.215 -14.537 -3.839 0.18000001
0.88200003 -10.256 -2.6730001 0.5
1.3049999 -14.522 -3.8369999 0.15000001
0.90399998 -9.8059998 -2.552 0.43000001
0.80599999 -8.6339998 -2.233 0.31999999
0.92000002 -9.5019999 -2.47 0.16
0.85699999 -8.5950003 -2.223 0.58999997
0.90499997 -8.7860003 -2.276 0.28999999
0.91299999 -8.6029997 -2.227 0.41
0.94 -8.6000004 -2.227 0.23999999
0.96200001 -8.5530005 -2.2149999 0.44
1.007 -8.8249998 -2.29 0.25999999
1.005 -8.5710001 -2.221 0.60000002
1.057 -8.7729998 -2.277 0.2
1.049 -8.4879999 -2.2 0.61000001
1.074 -8.4729996 -2.197 0.15000001
1.097 -8.4449997 -2.1900001 0.37
1.125 -8.4469995 -2.1919999 0.34
1.1339999 -8.4180002 -2.1849999 0.55000001
2.0680001 -14.848 -3.948 0.36000001
2.1070001 -14.792 -3.9349999 0.16
1.286 -8.8999996 -2.3199999 0.56
2.2049999 -14.807 -3.9430001 0.34999999
2.2420001 -14.739 -3.9260001 0.30000001
2.2690001 -14.762 -3.9330001 0.31
2.3239999 -14.812 -3.9489999 0.41
2.368 -14.787 -3.944 0.31999999
2.424 -14.835 -3.9590001 0.37
2.4679999 -14.812 -3.9549999 0.43000001
2.5120001 -14.789 -3.951 0.38
1.648 -9.5760002 -2.516 0.19
1.664 -9.5810003 -2.5179999 0.28999999
1.693 -9.5699997 -2.517 0.50999999
1.721 -9.5509996 -2.513 0.55000001
2.747 -14.893 -3.99 0.37
2.733 -14.563 -3.901 0.28
2.7149999 -14.223 -3.8099999 0.41
1.755 -9.0159998 -2.372 0.58999997
1.784 -9.0139999 -2.3729999 0.34999999
2.99 -14.779 -3.9719999 0.41
3.0109999 -14.644 -3.937 0.25
3.003 -14.378 -3.8659999 0.34
3.0380001 -14.321 -3.8529999 0.41
1.944 -9.0719995 -2.3970001 0.34
3.108 -14.32 -3.8570001 0.25
3.158 -14.333 -3.8629999 0.28
3.23 -14.442 -3.8959999 0.41999999
3.1730001 -13.983 -3.7709999 0.27000001
3.2249999 -14.007 -3.7809999 0.31999999
3.2969999 -14.119 -3.8150001 0.22
3.4300001 -14.477 -3.9170001 0.34
3.4619999 -14.513 -3.9289999 0.36000001
3.523 -14.564 -3.9460001 0.36000001
3.5769999 -14.588 -3.9560001 0.31
3.6440001 -14.661 -3.98 0.38999999
3.6989999 -14.685 -3.99 0.31
3.744 -14.666 -3.9879999 0.51999998
3.763 -14.645 -3.983 0.31
3.8110001 -14.641 -3.9860001 0.31999999
2.1210001 -8.092 -2.1489999 0.15000001
2.26 -8.5080004 -2.2679999 0.41
3.8659999 -14.302 -3.901 0.38
2.332 -8.5609999 -2.2869999 0.34
2.365 -8.5760002 -2.2939999 0.23999999
2.339 -8.4289999 -2.253 0.34
2.349 -8.3660002 -2.2379999 0.5
2.401 -8.4460001 -2.2620001 0.23999999
2.47 -8.5839996 -2.3039999 0.44999999
2.427 -8.3400002 -2.2360001 0.38
2.4590001 -8.3520002 -2.2420001 0.38999999
2.575 -8.6420002 -2.3269999 0.5
4.2740002 -14.202 -3.905 0.30000001
2.6500001 -8.7419996 -2.359 0.22
2.678 -8.7360001 -2.359 0.22
2.7850001 -8.9799995 -2.431 0.31999999
2.698 -8.6070004 -2.3269999 0.41
2.7709999 -8.743 -2.369 0.30000001
2.9119999 -9.085 -2.4690001 0.22
2.9349999 -9.1059999 -2.4760001 0.50999999
3.0190001 -9.2659998 -2.5239999 0.25
3.1040001 -9.427 -2.573 0.64999998
3.092 -9.2919998 -2.5369999 0.28999999
3.033 -9.0229998 -2.4630001 0.40000001
3.027 -8.9110003 -2.4330001 0.41
2.9189999 -8.5530005 -2.332 0.31
3.1040001 -8.9989996 -2.4630001 0.36000001
3.1110001 -8.9289999 -2.4460001 0.38999999
3.175 -9.0209999 -2.4749999 0.23999999
3.1600001 -8.8879995 -2.4389999 0.57999998
3.2160001 -8.9580002 -2.4619999 0.34
5.0640001 -13.921 -3.9000001 0.41
5.0450001 -13.805 -3.869 0.22
3.3380001 -9.0699997 -2.5020001 0.2
3.326 -8.9519997 -2.471 0.57999998
3.3870001 -9.0290003 -2.4960001 0.33000001
2.4949999 -6.6069999 -1.796 0.38999999
2.5179999 -6.605 -1.7970001 0.46000001
2.5309999 -6.579 -1.7920001 0.15000001
2.5020001 -6.474 -1.763 0.07
2.572 -6.5900002 -1.799 0.17
5.5960002 -14.126 -4.0029998 0.2
2.6199999 -6.592 -1.804 0.25999999
2.652 -6.612 -1.813 0.11
2.6659999 -6.586 -1.807 0.56999999
2.6830001 -6.5679998 -1.8049999 0.34999999
2.6719999 -6.5120001 -1.789 0.34
2.677 -6.4679999 -1.779 0.23999999
2.664 -6.3800001 -1.755 0.36000001
5.6810002 -13.413 -3.8329999 0.17
5.7579999 -13.475 -3.8570001 0.16
2.7639999 -6.447 -1.783 0.28
5.7329998 -13.244 -3.796 0.38999999
3.9389999 -9.0439997 -2.5569999 0.20999999
5.8060002 -13.187 -3.79 0.25
5.8559999 -13.186 -3.7950001 0.34
5.8119998 -12.979 -3.7390001 0.23999999
5.9130001 -13.093 -3.779 0.40000001
6.1020002 -13.397 -3.875 0.23
6.098 -13.333 -3.859 0.30000001
6.1570001 -13.352 -3.8699999 0.33000001
6.217 -13.371 -3.882 0.33000001
3.3380001 -7.1490002 -2.0209999 0.27000001
3.3440001 -7.1040001 -2.01 0.36000001
3.3210001 -6.9990001 -1.982 0.14
6.4710002 -13.471 -3.9360001 0.07
3.447 -7.1750002 -2.039 0.16
4.7729998 -9.8330002 -2.846 0.2
3.365 -6.895 -1.961 0.23
3.3859999 -6.8829999 -1.961 0.37
3.3940001 -6.8439999 -1.952 0.17
3.4430001 -6.8889999 -1.969 0.16
3.4549999 -6.8590002 -1.9630001 0.27000001
3.473 -6.8670001 -1.9680001 0.33000001
3.4949999 -6.8579998 -1.9680001 0.34
4.8759999 -9.4729996 -2.7709999 0.28
3.526 -6.8119998 -1.961 0.27000001
3.536 -6.7800002 -1.955 0.14
4.9229999 -9.3459997 -2.7460001 0.51999998
5.0100002 -9.4750004 -2.7880001 0.18000001
4.9749999 -9.3380003 -2.7509999 0.30000001
4.9510002 -9.224 -2.721 0.40000001
4.9759998 -9.1999998 -2.7179999 0.5
5.0190001 -9.2110004 -2.7260001 0.28
5.0240002 -9.1520004 -2.7130001 0.38999999
5.0689998 -9.165 -2.7219999 0.52999997
5.125 -9.2320004 -2.7449999 0.31
5.1880002 -9.2770004 -2.7639999 0.55000001
5.2659998 -9.3459997 -2.7909999 0.25
5.1469998 -9.0699997 -2.71 0.23999999
5.1719999 -9.0469999 -2.7079999 0.5
5.1199999 -8.8920002 -2.664 0.25
5.2280002 -9.0139999 -2.7079999 0.38
5.2290001 -8.9829998 -2.7 0.44999999
4.9439998 -8.4359999 -2.533 0.27000001
5.1500001 -8.7220001 -2.628 0.27000001
5.1500001 -8.6599998 -2.6140001 0.33000001
5.092 -8.5030003 -2.569 0.23
5.0310001 -8.342 -2.523 0.41
5.092 -8.3830004 -2.5409999 0.34
5.1490002 -8.4460001 -2.5639999 0.41999999
5.1859999 -8.4460001 -2.569 0.38
5.1009998 -8.2510004 -2.5120001 0.34999999
5.1799998 -8.3199997 -2.539 0.41999999
5.1890001 -8.276 -2.53 0.41999999
5.1490002 -8.1560001 -2.497 0.34999999
5.1599998 -8.1169996 -2.49 0.44
5.2129998 -8.1719999 -2.51 0.40000001
5.2600002 -8.1879997 -2.52 0.37
5.244 -8.1079998 -2.5 0.41
5.277 -8.1029997 -2.5039999 0.44999999
5.2670002 -8.033 -2.4860001 0.30000001
5.2160001 -7.901 -2.4489999 0.38999999
5.223 -7.8850002 -2.4460001 0.44999999
5.2449999 -7.8649998 -2.4449999 0.34999999
5.2969999 -7.8889999 -2.4579999 0.47
5.2729998 -7.8000002 -2.4349999 0.25999999
5.277 -7.7529998 -2.425 0.56999999
5.3759999 -7.8449998 -2.46 0.22
5.4229999 -7.8610001 -2.471 0.55000001
5.6830001 -8.2069998 -2.589 0.28999999
5.6929998 -8.1669998 -2.5810001 0.31999999
5.7930002 -8.2550001 -2.6159999 0.44999999
5.8319998 -8.2559996 -2.6229999 0.30000001
5.8260002 -8.1920004 -2.6070001 0.36000001
5.8610001 -8.1859999 -2.612 0.44999999
5.908 -8.1969995 -2.622 0.44
5.8870001 -8.1409998 -2.6059999 0.23999999
5.7950001 -7.9619999 -2.552 0.46000001
6.0120001 -8.2049999 -2.6400001 0.34999999
6.1040001 -8.276 -2.6700001 0.38
6.158 -8.2939997 -2.6830001 0.41
6.191 -8.2840004 -2.6860001 0.43000001
6.3060002 -8.3809996 -2.7260001 0.40000001
6.4910002 -8.599 -2.803 0.38999999
6.677 -8.7860003 -2.8740001 0.38999999
6.7909999 -8.8780003 -2.9130001 0.31
6.8099999 -8.8439999 -2.9089999 0.54000002
5.099 -6.5900002 -2.141 0.28
4.8779998 -6.2659998 -2.0339999 0.20999999
4.7610002 -6.0970001 -1.979 0.36000001
4.7490001 -6.0430002 -1.965 0.31999999
4.7550001 -6.0110002 -1.959 0.47999999
5.1059999 -6.4099998 -2.1029999 0.23999999
4.9250002 -6.145 -2.016 0.31999999
4.882 -6.053 -1.99 0.36000001
4.8850002 -6.0180001 -1.983 0.34
4.8969998 -6.0139999 -1.984 0.38
4.9060001 -5.9860001 -1.98 0.44999999
4.8889999 -5.928 -1.965 0.43000001
4.8930001 -5.895 -1.9579999 0.30000001
4.9530001 -5.9289999 -1.976 0.38
4.987 -5.9320002 -1.982 0.38
4.9980001 -5.9070001 -1.979 0.41
4.9349999 -5.8140001 -1.949 0.38999999
4.9029999 -5.7399998 -1.928 0.34
4.9099998 -5.7129998 -1.924 0.34
4.9349999 -5.7049999 -1.926 0.47999999
4.96 -5.698 -1.929 0.34
4.9920001 -5.698 -1.9349999 0.41
5.0279999 -5.7030001 -1.942 0.43000001
4.9380002 -5.5840001 -1.902 0.41
5.0120001 -5.632 -1.925 0.25
5.066 -5.6560001 -1.9400001 0.47999999
5.0019999 -5.5500002 -1.9069999 0.23
5.0780001 -5.598 -1.9299999 0.47999999
5.0339999 -5.5159998 -1.906 0.40000001
5.0689998 -5.5180001 -1.913 0.33000001
5.0770001 -5.5100002 -1.913 0.47999999
5.0580001 -5.4549999 -1.898 0.25
5.125 -5.4920001 -1.918 0.49000001
5.125 -5.4580002 -1.911 0.34
5.145 -5.4450002 -1.9119999 0.38999999
5.1350002 -5.4000001 -1.902 0.31999999
5.1300001 -5.3779998 -1.896 0.33000001
5.092 -5.3049998 -1.875 0.38999999
5.0890002 -5.2690001 -1.867 0.33000001
5.1279998 -5.276 -1.876 0.41
5.1269999 -5.2420001 -1.869 0.38999999
5.1760001 -5.2589998 -1.882 0.40000001
5.1329999 -5.1820002 -1.859 0.41
5.1739998 -5.2069998 -1.8710001 0.34
5.198 -5.1989999 -1.874 0.40000001
5.1160002 -5.085 -1.837 0.34
5.1160002 -5.0539999 -1.831 0.33000001
5.1760001 -5.0809999 -1.848 0.31999999
5.152 -5.026 -1.832 0.40000001
5.1069999 -4.9510002 -1.809 0.34999999
5.152 -4.9790001 -1.824 0.37
5.1399999 -4.9359999 -1.813 0.47999999
5.138 -4.9039998 -1.807 0.31999999
5.2350001 -4.9640002 -1.837 0.36000001
5.3140001 -5.007 -1.8609999 0.40000001
5.336 -4.9959998 -1.863 0.41999999
5.336 -4.9650002 -1.857 0.28999999
5.2670002 -4.8860002 -1.829 0.41999999
5.302 -4.8870001 -1.836 0.41
5.2449999 -4.8039999 -1.809 0.34
5.198 -4.7319999 -1.7869999 0.36000001
5.1599998 -4.6680002 -1.767 0.40000001
5.1240001 -4.6069999 -1.749 0.37
5.1900001 -4.651 -1.771 0.36000001
5.164 -4.599 -1.756 0.34999999
5.1479998 -4.5560002 -1.745 0.41
5.1149998 -4.4980001 -1.728 0.33000001
5.1890001 -4.5339999 -1.749 0.36000001
5.336 -4.632 -1.7970001 0.38
5.2519999 -4.5310001 -1.762 0.31
5.322 -4.5770001 -1.784 0.44
5.2680001 -4.5019999 -1.76 0.27000001
5.2049999 -4.4200001 -1.732 0.41999999
5.3119998 -4.4819999 -1.765 0.36000001
5.2270002 -4.3829999 -1.73 0.37
5.3189998 -4.4310002 -1.758 0.43000001
5.2480001 -4.3449998 -1.728 0.37
5.2670002 -4.3460002 -1.732 0.34999999
5.2160001 -4.277 -1.71 0.41
5.263 -4.2880001 -1.721 0.36000001
5.2969999 -4.2880001 -1.729 0.31
5.3769999 -4.3239999 -1.752 0.34999999
5.3709998 -4.2919998 -1.745 0.38
5.4380002 -4.3309999 -1.766 0.38999999
5.4460001 -4.309 -1.7640001 0.34999999
5.506 -4.329 -1.78 0.41999999
5.4450002 -4.2540002 -1.7539999 0.36000001
5.2750001 -4.0949998 -1.692 0.30000001
5.3889999 -4.1560001 -1.726 0.37
5.3590002 -4.1069999 -1.711 0.38
5.3119998 -4.0440001 -1.691 0.38
5.2919998 -4.0159998 -1.682 0.37
5.302 -3.997 -1.681 0.31999999
5.3530002 -4.0089998 -1.694 0.27000001
5.3720002 -3.997 -1.696 0.47999999
5.3779998 -3.9760001 -1.694 0.31
5.4419999 -3.9960001 -1.711 0.40000001
5.4790001 -4.0100002 -1.722 0.37
5.4819999 -3.9860001 -1.719 0.43000001
5.4710002 -3.9519999 -1.711 0.30000001
5.4889998 -3.938 -1.712 0.36000001
5.5100002 -3.928 -1.716 0.34
5.5289998 -3.915 -1.7180001 0.37
5.559 -3.9100001 -1.723 0.38
5.579 -3.911 -1.728 0.40000001
5.6220002 -3.914 -1.738 0.34999999
5.6290002 -3.8929999 -1.737 0.44
5.6360002 -3.872 -1.735 0.38999999
5.6810002 -3.8759999 -1.745 0.38999999
5.6939998 -3.859 -1.7460001 0.41999999
5.7030001 -3.839 -1.745 0.31999999
5.7280002 -3.8429999 -1.751 0.44999999
5.7420001 -3.826 -1.752 0.38999999
5.7750001 -3.822 -1.7589999 0.37
5.7680001 -3.7909999 -1.752 0.23
5.8119998 -3.7939999 -1.763 0.36000001
5.829 -3.779 -1.7640001 0.49000001
5.7820001 -3.723 -1.745 0.31
5.7719998 -3.704 -1.74 0.30000001
5.7779999 -3.6819999 -1.739 0.25
5.7979999 -3.6689999 -1.7410001 0.34
5.8000002 -3.645 -1.738 0.28999999
5.809 -3.6259999 -1.738 0.31
5.822 -3.609 -1.738 0.28999999
5.8200002 -3.5940001 -1.7359999 0.30000001
5.836 -3.579 -1.737 0.30000001
5.8559999 -3.566 -1.74 0.34999999
5.8600001 -3.543 -1.738 0.28
5.8699999 -3.5239999 -1.737 0.30000001
5.8759999 -3.503 -1.7359999 0.31999999
5.8800001 -3.48 -1.733 0.31999999
5.8839998 -3.47 -1.733 0.33000001
5.8930001 -3.45 -1.732 0.30000001
5.9169998 -3.4400001 -1.737 0.31999999
5.9159999 -3.414 -1.733 0.28
5.927 -3.3959999 -1.733 0.31
5.941 -3.3789999 -1.734 0.30000001
5.9460001 -3.3570001 -1.732 0.28999999
5.948 -3.346 -1.7309999 0.31999999
5.967 -3.332 -1.734 0.30000001
5.9679999 -3.3080001 -1.7309999 0.31999999
5.9689999 -3.2850001 -1.728 0.30000001
5.98 -3.266 -1.728 0.30000001
5.9920001 -3.2479999 -1.729 0.30000001
6.007 -3.2320001 -1.73 0.28999999
6.0120001 -3.2219999 -1.73 0.31999999
6.0190001 -3.2019999 -1.729 0.30000001
6.0320001 -3.184 -1.73 0.30000001
6.0349998 -3.1619999 -1.728 0.28
6.0419998 -3.141 -1.727 0.28999999
6.0430002 -3.118 -1.725 0.28999999
6.0539999 -3.0999999 -1.725 0.31
6.0700002 -3.095 -1.728 0.34
6.0710001 -3.072 -1.726 0.28999999
6.0700002 -3.0480001 -1.722 0.28999999
6.0900002 -3.0339999 -1.726 0.28999999
6.092 -3.0109999 -1.723 0.30000001
6.1090002 -2.9949999 -1.726 0.31
6.1090002 -2.9719999 -1.723 0.30000001
6.125 -2.967 -1.726 0.30000001
6.1199999 -2.9419999 -1.722 0.28999999
6.1339998 -2.925 -1.723 0.30000001
6.1329999 -2.901 -1.72 0.31
6.1539998 -2.8870001 -1.724 0.31999999
6.1620002 -2.8670001 -1.723 0.28999999
6.158 -2.842 -1.72 0.31999999
6.1680002 -2.835 -1.721 0.28999999
6.1799998 -2.8169999 -1.722 0.31
6.1810002 -2.793 -1.72 0.30000001
6.184 -2.7720001 -1.7180001 0.30000001
6.1939998 -2.753 -1.719 0.31999999
6.198 -2.7309999 -1.717 0.30000001
6.2119999 -2.714 -1.719 0.28999999
6.2160001 -2.704 -1.719 0.31999999
6.2210002 -2.6830001 -1.7180001 0.28999999
6.2360001 -2.6670001 -1.72 0.28999999
6.2389998 -2.645 -1.7180001 0.30000001
6.244 -2.6240001 -1.717 0.28999999
6.2519999 -2.6040001 -1.717 0.31
6.2600002 -2.596 -1.7180001 0.30000001
6.2610002 -2.573 -1.716 0.31999999
6.2670002 -2.553 -1.716 0.30000001
6.2750001 -2.533 -1.716 0.30000001
6.2810001 -2.513 -1.715 0.30000001
6.2820001 -2.49 -1.7130001 0.28999999
6.2989998 -2.474 -1.716 0.28999999
6.3080001 -2.4660001 -1.717 0.33000001
6.3049998 -2.4419999 -1.714 0.28999999
6.3109999 -2.421 -1.714 0.31
6.3130002 -2.4000001 -1.712 0.31999999
6.3239999 -2.381 -1.7130001 0.31999999
6.342 -2.365 -1.716 0.31999999
6.335 -2.3399999 -1.712 0.27000001
6.3439999 -2.332 -1.714 0.28999999
6.3439999 -2.309 -1.711 0.30000001
6.342 -2.286 -1.709 0.28999999
6.3699999 -2.273 -1.715 0.33000001
6.3660002 -2.25 -1.711 0.27000001
6.3660002 -2.227 -1.709 0.28999999
6.3779998 -2.22 -1.712 0.34
6.3909998 -2.2019999 -1.714 0.30000001
6.3920002 -2.1800001 -1.712 0.28
6.395 -2.1589999 -1.711 0.31
6.3979998 -2.1370001 -1.71 0.28999999
6.414 -2.1199999 -1.712 0.34
6.402 -2.0940001 -1.707 0.28
6.428 -2.0910001 -1.714 0.31999999
6.421 -2.0669999 -1.71 0.28999999
6.4109998 -2.0420001 -1.705 0.28999999
6.434 -2.027 -1.71 0.33000001
6.4289999 -2.003 -1.707 0.28
6.4380002 -1.983 -1.707 0.28999999
6.4549999 -1.966 -1.71 0.31999999
6.4359999 -1.95 -1.704 0.30000001
6.4530001 -1.933 -1.707 0.28999999
6.448 -1.909 -1.704 0.27000001
6.4559999 -1.8890001 -1.705 0.30000001
6.473 -1.872 -1.7079999 0.31999999
6.46 -1.847 -1.7029999 0.27000001
6.4749999 -1.829 -1.705 0.31999999
6.4840002 -1.8200001 -1.707 0.30000001
6.48 -1.7970001 -1.704 0.28999999
6.4910002 -1.779 -1.706 0.31999999
6.506 -1.761 -1.7079999 0.30000001
6.5079999 -1.739 -1.707 0.25999999
6.4910002 -1.7130001 -1.701 0.2
6.4920001 -1.692 -1.7 0.22
6.5100002 -1.6849999 -1.704 0.40000001
6.5079999 -1.663 -1.702 0.41
6.513 -1.642 -1.702 0.44
6.5180001 -1.622 -1.702 0.38
6.5190001 -1.601 -1.701 0.52999997
6.5359998 -1.5829999 -1.704 0.37
6.5370002 -1.561 -1.7029999 0.47
6.5359998 -1.55 -1.702 0.38
6.5370002 -1.529 -1.701 0.57999998
6.553 -1.511 -1.704 0.34
6.5349998 -1.485 -1.698 0.47
6.5370002 -1.464 -1.697 0.41
6.553 -1.446 -1.7 0.37
6.5450001 -1.423 -1.697 0.61000001
6.5580001 -1.415 -1.7 0.33000001
6.5440001 -1.39 -1.6950001 0.58999997
6.5650001 -1.373 -1.699 0.33000001
6.5619998 -1.351 -1.697 0.34
6.5679998 -1.331 -1.698 0.28
6.5830002 -1.312 -1.701 0.25999999
6.572 -1.289 -1.697 0.31999999
6.5760002 -1.279 -1.697 0.28
6.5799999 -1.258 -1.697 0.28
6.5749998 -1.2359999 -1.6950001 0.28999999
6.579 -1.215 -1.6950001 0.27000001
6.592 -1.196 -1.697 0.27000001
6.5840001 -1.173 -1.694 0.18000001
6.592 -1.153 -1.6950001 0.28
6.5929999 -1.143 -1.6950001 0.25
6.5929999 -1.122 -1.694 0.25999999
6.5999999 -1.102 -1.6950001 0.2
6.6059999 -1.081 -1.696 0.27000001
6.605 -1.0599999 -1.6950001 0.25
6.6110001 -1.039 -1.6950001 0.27000001
6.6160002 -1.0190001 -1.696 0.2
6.612 -1.008 -1.694 0.27000001
6.6170001 -0.98699999 -1.6950001 0.23
6.618 -0.96600002 -1.694 0.23
6.6300001 -0.94700003 -1.697 0.25
6.6279998 -0.92500001 -1.6950001 0.20999999
6.6279998 -0.90399998 -1.6950001 0.12
6.6279998 -0.89300001 -1.694 0.20999999
6.6230001 -0.87099999 -1.692 0.18000001
6.6259999 -0.85100001 -1.692 0.28
6.6339998 -0.82999998 -1.694 0.23999999
6.6329999 -0.80900002 -1.693 0.19
6.6469998 -0.79000002 -1.696 0.25999999
6.638 -0.76700002 -1.693 0.23999999
6.6389999 -0.75700003 -1.693 0.17
6.645 -0.73699999 -1.694 0.25999999
6.6479998 -0.71600002 -1.694 0.23
6.6479998 -0.69499999 -1.693 0.20999999
6.6539998 -0.67400002 -1.694 0.25
6.6440001 -0.65200001 -1.691 0.22
6.651 -0.64200002 -1.693 0.17
6.6570001 -0.62199998 -1.694 0.25999999
6.6589999 -0.60100001 -1.694 0.23
6.6570001 -0.579 -1.693 0.23
6.6570001 -0.55800003 -1.692 0.19
6.6550002 -0.537 -1.691 0.25
6.6620002 -0.51700002 -1.693 0.23
6.6630001 -0.50599998 -1.693 0.17
6.6609998 -0.48500001 -1.692 0.25999999
6.6620002 -0.46399999 -1.692 0.18000001
6.6599998 -0.44299999 -1.6900001 0.25
6.6630001 -0.42199999 -1.691 0.19
6.6620002 -0.40099999 -1.6900001 0.23999999
6.671 -0.38100001 -1.693 0.22
6.658 -0.36899999 -1.689 0.23
6.6729999 -0.34900001 -1.693 0.16
6.6609998 -0.32800001 -1.689 0.25
6.6690001 -0.30700001 -1.691 0.2
6.6680002 -0.28600001 -1.6900001 0.23
6.6750002 -0.26499999 -1.692 0.19
6.658 -0.244 -1.687 0.25
6.6760001 -0.234 -1.692 0.19
6.671 -0.213 -1.6900001 0.23
6.6620002 -0.191 -1.688 0.22
6.6680002 -0.171 -1.689 0.19
6.665 -0.15000001 -1.688 0.25999999
6.6690001 -0.12899999 -1.689 0.23
6.677 -0.108 -1.692 0.2
6.6659999 -0.097000003 -1.688 0.25
6.6700001 -0.075999998 -1.689 0.25
6.6680002 -0.055 -1.689 0.18000001
6.6719999 -0.034000002 -1.6900001 0.27000001
6.665 -0.013 -1.688 0.20999999
6.4070001 0.0080000004 -1.675 0.2
6.4089999 0.028999999 -1.675 0.23999999
6.3959999 0.048999999 -1.671 0.22
6.4050002 0.068999998 -1.674 0.2
6.4070001 0.079000004 -1.675 0.25
6.4089999 0.098999999 -1.675 0.23999999
6.4000001 0.119 -1.673 0.17
6.4039998 0.139 -1.674 0.27000001
6.402 0.15899999 -1.673 0.25
6.4159999 0.18000001 -1.678 0.23
6.402 0.2 -1.674 0.23
6.4000001 0.20999999 -1.673 0.25
6.3920002 0.229 -1.671 0.19
6.3930001 0.25 -1.6720001 0.27000001
6.402 0.27000001 -1.675 0.25
6.4029999 0.28999999 -1.675 0.20999999
6.3899999 0.31 -1.6720001 0.25
6.3990002 0.33000001 -1.675 0.25
6.4039998 0.34099999 -1.676 0.20999999
6.3909998 0.36000001 -1.673 0.25
6.3850002 0.38 -1.671 0.25
6.3969998 0.40099999 -1.675 0.27000001
6.3839998 0.41999999 -1.6720001 0.25
6.3899999 0.44100001 -1.674 0.18000001
6.3909998 0.461 -1.675 0.25999999
6.3899999 0.47099999 -1.675 0.23999999
6.375 0.49000001 -1.671 0.2
6.3769999 0.50999999 -1.6720001 0.27000001
6.3740001 0.52999997 -1.671 0.23999999
6.3860002 0.551 -1.675 0.23
6.3720002 0.56999999 -1.6720001 0.25
6.3839998 0.59200001 -1.676 0.23999999
6.3850002 0.602 -1.676 0.17
6.3730001 0.62099999 -1.673 0.25999999
6.3790002 0.64200002 -1.676 0.23999999
6.3730001 0.66100001 -1.675 0.16
6.3629999 0.68099999 -1.6720001 0.28
6.3629999 0.70099998 -1.673 0.23
6.3759999 0.72299999 -1.677 0.2
6.3649998 0.73199999 -1.675 0.25
6.355 0.75099999 -1.6720001 0.23
6.3629999 0.77200001 -1.675 0.2
6.3579998 0.79100001 -1.675 0.25
6.3540001 0.81099999 -1.674 0.2
6.3569999 0.83200002 -1.676 0.25
6.3559999 0.852 -1.676 0.2
6.3509998 0.86199999 -1.675 0.23999999
6.3520002 0.88200003 -1.676 0.19
6.3460002 0.90100002 -1.675 0.23999999
6.3369999 0.921 -1.673 0.19
6.336 0.94099998 -1.674 0.25
6.3390002 0.96200001 -1.676 0.20999999
6.3390002 0.972 -1.676 0.23
6.3299999 0.991 -1.675 0.22
6.335 1.012 -1.677 0.20999999
6.3319998 1.0319999 -1.677 0.25
6.3280001 1.052 -1.677 0.19
6.3150001 1.0700001 -1.674 0.23999999
6.3309999 1.0930001 -1.679 0.19
6.3119998 1.1 -1.675 0.22
6.322 1.122 -1.678 0.2
6.3130002 1.141 -1.677 0.23
6.3000002 1.159 -1.674 0.23
6.309 1.181 -1.678 0.19
6.2979999 1.2 -1.676 0.25999999
6.2979999 1.22 -1.677 0.25
6.2940001 1.23 -1.676 0.20999999
6.29 1.25 -1.676 0.13
6.2810001 1.268 -1.675 0.20999999
6.2800002 1.289 -1.676 0.17
6.2740002 1.308 -1.675 0.25999999
6.2779999 1.329 -1.677 0.22
6.2680001 1.348 -1.676 0.17
6.2709999 1.359 -1.677 0.25999999
6.263 1.378 -1.676 0.23999999
6.263 1.398 -1.677 0.22
6.2509999 1.416 -1.675 0.23999999
6.2459998 1.436 -1.675 0.19
6.2459998 1.456 -1.676 0.25
6.2449999 1.477 -1.677 0.25
6.25 1.488 -1.679 0.23999999
6.2319999 1.505 -1.676 0.12
6.2270002 1.524 -1.676 0.2
6.2259998 1.545 -1.677 0.18000001
6.2140002 1.563 -1.675 0.25999999
6.2160001 1.584 -1.677 0.23999999
6.2259998 1.607 -1.681 0.22
6.198 1.61 -1.673 0.13
6.198 1.631 -1.675 0.20999999
6.1799998 1.647 -1.671 0.15000001
6.1859999 1.67 -1.675 0.28999999
6.1789999 1.689 -1.674 0.25
6.1869998 1.712 -1.678 0.25999999
6.1799998 1.72 -1.677 0.28
6.164 1.737 -1.673 0.25
6.1669998 1.7589999 -1.676 0.25
6.151 1.775 -1.673 0.25999999
6.145 1.794 -1.673 0.2
6.152 1.817 -1.677 0.27000001
6.1469998 1.836 -1.677 0.23999999
6.1459999 1.847 -1.677 0.23
6.1360002 1.865 -1.676 0.18000001
6.1170001 1.88 -1.6720001 0.28999999
6.1300001 1.905 -1.678 0.25
6.1259999 1.925 -1.678 0.23999999
6.1069999 1.9400001 -1.675 0.25
6.0949998 1.9579999 -1.673 0.25
6.1009998 1.97 -1.676 0.28999999
6.0910001 1.988 -1.675 0.28999999
6.0809999 2.006 -1.673 0.28
6.0770001 2.026 -1.674 0.28999999
6.079 2.0480001 -1.677 0.25
6.0619998 2.063 -1.673 0.20999999
6.0679998 2.0869999 -1.677 0.19
6.0669999 2.0969999 -1.678 0.34999999
6.04 2.109 -1.6720001 0.43000001
6.0440001 2.132 -1.675 0.44
6.04 2.151 -1.676 0.37
6.0349998 2.171 -1.676 0.30000001
6.0100002 2.1830001 -1.671 0.47999999
6.0209999 2.2090001 -1.676 0.22
5.9990001 2.2119999 -1.671 0.52999997
5.994 2.2309999 -1.671 0.50999999
6.0050001 2.257 -1.677 0.28999999
5.994 2.2739999 -1.676 0.28999999
5.987 2.293 -1.676 0.28
5.987 2.3139999 -1.678 0.28
5.9819999 2.323 -1.677 0.28999999
5.9650002 2.3380001 -1.675 0.28999999
5.9629998 2.359 -1.676 0.28999999
5.9520001 2.3770001 -1.675 0.28999999
5.9450002 2.395 -1.675 0.28999999
5.928 2.4100001 -1.6720001 0.30000001
5.9299998 2.4330001 -1.675 0.27000001
5.928 2.4430001 -1.676 0.28999999
5.9289999 2.4649999 -1.678 0.30000001
5.914 2.4809999 -1.676 0.28999999
5.9029999 2.4979999 -1.675 0.30000001
5.902 2.5190001 -1.677 0.25999999
5.8870001 2.5350001 -1.675 0.31999999
5.882 2.5550001 -1.676 0.28999999
5.8769999 2.563 -1.676 0.28999999
5.868 2.582 -1.676 0.28
5.869 2.6040001 -1.678 0.31999999
5.8400002 2.6129999 -1.6720001 0.27000001
5.8540001 2.642 -1.679 0.31999999
5.8429999 2.658 -1.678 0.28
5.8309999 2.675 -1.677 0.28
5.8249998 2.6830001 -1.676 0.25
5.816 2.7019999 -1.676 0.31999999
5.8039999 2.7179999 -1.675 0.28999999
5.7919998 2.7349999 -1.674 0.30000001
5.789 2.756 -1.676 0.27000001
5.7709999 2.77 -1.673 0.30000001
5.7779999 2.7950001 -1.678 0.25999999
5.7579999 2.7969999 -1.673 0.28
5.7550001 2.8169999 -1.675 0.31999999
5.7480001 2.836 -1.675 0.25
5.7399998 2.855 -1.676 0.31
5.7280002 2.872 -1.675 0.28999999
5.7259998 2.8929999 -1.677 0.28999999
5.7059999 2.9059999 -1.673 0.27000001
5.7069998 2.9170001 -1.675 0.28
5.6890001 2.931 -1.6720001 0.30000001
5.6939998 2.9560001 -1.677 0.23999999
5.6810002 2.9719999 -1.676 0.28999999
5.6609998 2.984 -1.6720001 0.30000001
5.652 3.0020001 -1.6720001 0.27000001
5.6469998 3.0109999 -1.6720001 0.27000001
5.6389999 3.03 -1.673 0.27000001
5.6279998 3.046 -1.6720001 0.28999999
5.6199999 3.0650001 -1.673 0.27000001
5.612 3.0840001 -1.673 0.28999999
5.6110001 3.1059999 -1.676 0.25
5.5890002 3.1170001 -1.6720001 0.22
5.5840001 3.1259999 -1.6720001 0.27000001
5.5799999 3.1459999 -1.674 0.25
5.5700002 3.1630001 -1.674 0.25
5.5630002 3.1830001 -1.675 0.18000001
5.5380001 3.1919999 -1.67 0.30000001
5.5310001 3.211 -1.671 0.23
5.5409999 3.24 -1.678 0.25
5.513 3.2349999 -1.67 0.18000001
5.5089998 3.256 -1.6720001 0.28
5.5009999 3.2750001 -1.673 0.23999999
5.5050001 3.3010001 -1.678 0.25999999
5.4850001 3.312 -1.675 0.22
5.4790001 3.332 -1.676 0.27000001
5.4489999 3.3369999 -1.67 0.23999999
5.4510002 3.3499999 -1.6720001 0.28999999
5.4510002 3.3740001 -1.676 0.20999999
5.4289999 3.3840001 -1.6720001 0.27000001
5.427 3.4059999 -1.675 0.25
5.415 3.4219999 -1.674 0.2
5.3969998 3.4349999 -1.6720001 0.25
5.3860002 3.4519999 -1.6720001 0.23999999
5.3740001 3.4560001 -1.67 0.27000001
5.3730001 3.48 -1.673 0.27000001
5.369 3.5009999 -1.675 0.28
5.3559999 3.516 -1.675 0.28
5.348 3.5350001 -1.676 0.27000001
5.3260002 3.5450001 -1.6720001 0.27000001
5.3319998 3.573 -1.678 0.23999999
5.3319998 3.585 -1.679 0.27000001
5.3039999 3.5910001 -1.674 0.30000001
5.2930002 3.6070001 -1.674 0.25999999
5.2849998 3.6259999 -1.675 0.27000001
5.2670002 3.638 -1.673 0.27000001
5.257 3.6559999 -1.673 0.27000001
5.25 3.6630001 -1.673 0.25
5.2529998 3.6900001 -1.678 0.25999999
5.2280002 3.697 -1.673 0.31
5.2259998 3.72 -1.677 0.27000001
5.2049999 3.73 -1.673 0.31
5.1999998 3.7509999 -1.676 0.28999999
5.1799998 3.7609999 -1.673 0.28999999
5.177 3.7720001 -1.674 0.28
5.1669998 3.789 -1.675 0.28
5.158 3.8080001 -1.676 0.27000001
5.132 3.8139999 -1.671 0.28999999
5.1370001 3.842 -1.677 0.28999999
5.1199999 3.855 -1.675 0.28999999
5.1160002 3.8770001 -1.678 0.27000001
5.1069999 3.8829999 -1.677 0.25
5.1020002 3.904 -1.679 0.31999999
5.085 3.9170001 -1.678 0.28999999
5.0650001 3.927 -1.675 0.30000001
5.0619998 3.95 -1.678 0.25999999
5.0510001 3.967 -1.679 0.28999999
5.0279999 3.9749999 -1.675 0.30000001
5.0190001 3.98 -1.674 0.27000001
5.0229998 4.0089998 -1.6799999 0.27000001
5.0040002 4.02 -1.678 0.30000001
4.9959998 4.039 -1.679 0.28999999
4.9889998 4.0599999 -1.682 0.28
4.9710002 4.0710001 -1.679 0.28999999
4.9530001 4.0830002 -1.678 0.28999999
4.9439998 4.0879998 -1.677 0.30000001
4.9369998 4.1079998 -1.679 0.25999999
4.908 4.1100001 -1.673 0.30000001
4.914 4.1420002 -1.6799999 0.27000001
4.9000001 4.1560001 -1.679 0.30000001
4.8839998 4.1690001 -1.678 0.28
4.875 4.1880002 -1.6799999 0.30000001
4.8579998 4.1869998 -1.676 0.30000001
4.8390002 4.197 -1.674 0.28999999
4.8319998 4.217 -1.676 0.28999999
4.8150001 4.23 -1.675 0.28999999
4.8010001 4.244 -1.675 0.28999999
4.7969999 4.2680001 -1.678 0.27000001
4.783 4.2810001 -1.678 0.28999999
4.763 4.277 -1.673 0.30000001
4.7579999 4.3000002 -1.676 0.27000001
4.7620001 4.3299999 -1.683 0.25
4.7270002 4.3260002 -1.675 0.30000001
4.7259998 4.3520002 -1.679 0.28
4.704 4.3590002 -1.676 0.28999999
4.704 4.3730001 -1.679 0.27000001
4.6939998 4.3920002 -1.681 0.27000001
4.665 4.3920002 -1.675 0.30000001
4.6599998 4.415 -1.678 0.28
4.6440001 4.428 -1.677 0.28999999
4.625 4.4369998 -1.675 0.28
4.6339998 4.4749999 -1.684 0.25
4.619 4.474 -1.681 0.28
4.605 4.4879999 -1.681 0.28999999
4.585 4.4970002 -1.679 0.31
4.573 4.513 -1.679 0.28999999
4.5489998 4.5180001 -1.676 0.28
4.54 4.5380001 -1.678 0.25999999
4.5310001 4.5570002 -1.6799999 0.28
4.5190001 4.559 -1.678 0.28999999
4.5029998 4.572 -1.677 0.25999999
4.493 4.5900002 -1.679 0.27000001
4.4819999 4.6079998 -1.681 0.27000001
4.4650002 4.6199999 -1.679 0.25999999
4.4530001 4.6360002 -1.681 0.27000001
4.4320002 4.6430001 -1.678 0.25999999
4.4349999 4.6609998 -1.682 0.25999999
4.4130001 4.6669998 -1.679 0.28999999
4.401 4.684 -1.6799999 0.27000001
4.382 4.6929998 -1.678 0.27000001
4.3779998 4.7179999 -1.683 0.25
4.3639998 4.7329998 -1.683 0.30000001
4.3400002 4.737 -1.679 0.25999999
4.3369999 4.7480001 -1.681 0.28
4.3249998 4.7659998 -1.683 0.28
4.3039999 4.7729998 -1.6799999 0.27000001
4.29 4.7870002 -1.681 0.28999999
4.2820001 4.8080001 -1.683 0.25999999
4.263 4.8169999 -1.682 0.30000001
4.2410002 4.823 -1.679 0.18000001
4.2350001 4.8309999 -1.679 0.28999999
4.217 4.842 -1.678 0.25
4.211 4.8649998 -1.682 0.25
4.197 4.8800001 -1.683 0.25
4.1750002 4.8860002 -1.6799999 0.25999999
4.1599998 4.8990002 -1.6799999 0.27000001
4.152 4.921 -1.683 0.23
4.138 4.9200001 -1.681 0.20999999
4.1209998 4.9310002 -1.6799999 0.25999999
4.1020002 4.9400001 -1.678 0.25
4.0910001 4.9590001 -1.681 0.27000001
4.0780001 4.974 -1.682 0.28
4.066 4.9920001 -1.683 0.27000001
4.0440001 4.9970002 -1.681 0.28
4.0380001 5.0050001 -1.681 0.27000001
4.027 5.0229998 -1.683 0.25
4.007 5.0320001 -1.682 0.27000001
3.9949999 5.0489998 -1.683 0.28
3.9860001 5.0700002 -1.686 0.25
3.961 5.0710001 -1.682 0.30000001
3.951 5.0739999 -1.681 0.27000001
3.9349999 5.086 -1.681 0.28999999
3.9170001 5.0970001 -1.681 0.25999999
3.908 5.118 -1.684 0.28999999
3.8970001 5.1370001 -1.686 0.25999999
3.8770001 5.1440001 -1.684 0.30000001
3.8640001 5.1599998 -1.6849999 0.25
3.858 5.1690001 -1.686 0.28999999
3.8429999 5.1820002 -1.687 0.27000001
3.8299999 5.1989999 -1.689 0.27000001
3.8110001 5.2080002 -1.688 0.28999999
3.7969999 5.223 -1.689 0.28
3.7809999 5.2350001 -1.689 0.27000001
3.7650001 5.2480001 -1.689 0.28999999
3.756 5.2529998 -1.689 0.30000001
3.7249999 5.244 -1.682 0.31
3.7249999 5.2789998 -1.6900001 0.27000001
3.7030001 5.283 -1.687 0.27000001
3.681 5.2870002 -1.684 0.28999999
3.6659999 5.302 -1.6849999 0.28999999
3.6489999 5.3119998 -1.6849999 0.28999999
3.645 5.3239999 -1.687 0.27000001
3.631 5.3400002 -1.689 0.27000001
3.6129999 5.3499999 -1.688 0.30000001
3.5940001 5.3579998 -1.687 0.28999999
3.5810001 5.3740001 -1.689 0.28
3.5680001 5.3909998 -1.691 0.31999999
3.5439999 5.3909998 -1.687 0.28999999
3.536 5.3990002 -1.688 0.28
3.5150001 5.4029999 -1.6849999 0.30000001
3.5050001 5.4250002 -1.689 0.27000001
3.484 5.4299998 -1.687 0.30000001
3.47 5.4460001 -1.689 0.30000001
3.4530001 5.4569998 -1.689 0.28
3.4349999 5.4660001 -1.688 0.33000001
3.431 5.4790001 -1.691 0.28999999
3.4119999 5.487 -1.6900001 0.30000001
3.3959999 5.4990001 -1.6900001 0.28999999
3.3759999 5.5050001 -1.689 0.31
3.362 5.5219998 -1.691 0.28999999
3.3410001 5.526 -1.689 0.30000001
3.323 5.5349998 -1.688 0.28999999
3.3180001 5.5469999 -1.6900001 0.30000001
3.2969999 5.552 -1.689 0.30000001
3.28 5.5619998 -1.689 0.28
3.2690001 5.5840001 -1.692 0.30000001
3.2460001 5.585 -1.689 0.28999999
3.2249999 5.5900002 -1.688 0.27000001
3.214 5.6100001 -1.691 0.33000001
3.1919999 5.5929999 -1.684 0.23999999
3.1830001 5.618 -1.689 0.33000001
3.164 5.625 -1.688 0.2
3.151 5.6430001 -1.6900001 0.36000001
3.1400001 5.665 -1.694 0.20999999
3.108 5.6490002 -1.686 0.56999999
3.099 5.6760001 -1.691 0.23
3.092 5.684 -1.692 0.36000001
3.0639999 5.6750002 -1.686 0.55000001
3.0580001 5.7069998 -1.693 0.25
3.026 5.6890001 -1.6849999 0.52999997
3.02 5.7210002 -1.692 0.25999999
2.9949999 5.7179999 -1.688 0.58999997
2.977 5.7280002 -1.688 0.31
2.9719999 5.7389998 -1.6900001 0.30000001
2.954 5.7490001 -1.6900001 0.47999999
2.934 5.7540002 -1.689 0.46000001
2.9130001 5.7589998 -1.688 0.43000001
2.9030001 5.783 -1.692 0.25
2.8789999 5.7800002 -1.689 0.47
2.8559999 5.7789998 -1.6849999 0.5
2.846 5.7820001 -1.6849999 0.34999999
2.826 5.7870002 -1.684 0.46000001
2.8099999 5.8010001 -1.6849999 0.38999999
2.7969999 5.8200002 -1.689 0.28999999
2.7820001 5.836 -1.691 0.31
2.763 5.8429999 -1.6900001 0.30000001
2.747 5.8569999 -1.692 0.30000001
2.737 5.8590002 -1.691 0.30000001
2.7179999 5.8660002 -1.691 0.30000001
2.698 5.8730001 -1.6900001 0.27000001
2.677 5.8740001 -1.688 0.28999999
2.665 5.8990002 -1.693 0.31999999
2.6400001 5.8930001 -1.689 0.28999999
2.6229999 5.9029999 -1.689 0.28999999
2.6159999 5.9120002 -1.691 0.28999999
2.598 5.9219999 -1.691 0.28999999
2.579 5.9289999 -1.691 0.28999999
2.5610001 5.9380002 -1.691 0.30000001
2.543 5.948 -1.692 0.31
2.523 5.954 -1.691 0.28
2.503 5.9590001 -1.6900001 0.28
2.4960001 5.9679999 -1.692 0.36000001
2.4779999 5.9780002 -1.692 0.34
2.4590001 5.9840002 -1.692 0.28999999
2.437 5.9840002 -1.6900001 0.28999999
2.421 5.9990001 -1.692 0.22
2.3800001 5.9530001 -1.676 0.5
2.372 5.96 -1.677 0.40000001
2.3610001 5.9860001 -1.682 0.36000001
2.346 6.0019999 -1.6849999 0.34999999
2.3340001 6.027 -1.6900001 0.31999999
2.313 6.0310001 -1.689 0.37
2.296 6.0419998 -1.6900001 0.31999999
2.2780001 6.052 -1.691 0.30000001
2.2690001 6.0580001 -1.692 0.43000001
2.2479999 6.0580001 -1.6900001 0.30000001
2.2290001 6.0650001 -1.6900001 0.34999999
2.2079999 6.0679998 -1.689 0.31
2.1860001 6.0679998 -1.686 0.36000001
2.1659999 6.0710001 -1.6849999 0.30000001
2.1440001 6.0710001 -1.683 0.33000001
2.135 6.0739999 -1.683 0.37
2.1110001 6.0679998 -1.679 0.31
2.0899999 6.0689998 -1.678 0.37
2.0710001 6.0739999 -1.677 0.30000001
2.0469999 6.0669999 -1.673 0.37
2.027 6.072 -1.673 0.28999999
2.006 6.0710001 -1.671 0.37
1.998 6.0799999 -1.6720001 0.28999999
1.975 6.0749998 -1.669 0.34999999
1.9579999 6.085 -1.67 0.28999999
1.933 6.0739999 -1.665 0.34999999
1.913 6.0770001 -1.664 0.33000001
1.896 6.0900002 -1.666 0.33000001
1.874 6.0869999 -1.664 0.33000001
1.862 6.0809999 -1.661 0.31
1.844 6.0900002 -1.6619999 0.31999999
1.821 6.0830002 -1.658 0.31
1.803 6.0939999 -1.66 0.34
1.7819999 6.0939999 -1.658 0.28999999
1.765 6.105 -1.66 0.34
1.745 6.1090002 -1.659 0.31999999
1.7309999 6.0970001 -1.655 0.30000001
1.7130001 6.1059999 -1.656 0.31999999
1.694 6.1110001 -1.656 0.31
1.671 6.1040001 -1.652 0.28999999
1.654 6.118 -1.655 0.30000001
1.6339999 6.1199999 -1.654 0.30000001
1.617 6.1300001 -1.656 0.31
1.6059999 6.1290002 -1.655 0.31
1.5880001 6.1399999 -1.656 0.28
1.568 6.1409998 -1.655 0.28999999
1.5470001 6.1399999 -1.654 0.30000001
1.525 6.1339998 -1.65 0.25
1.505 6.1350002 -1.649 0.41
1.485 6.138 -1.649 0.36000001
1.477 6.1479998 -1.651 0.31
1.459 6.1560001 -1.652 0.33000001
1.4400001 6.164 -1.653 0.33000001
1.421 6.1669998 -1.652 0.33000001
1.4 6.1680002 -1.651 0.30000001
1.38 6.1659999 -1.65 0.30000001
1.3609999 6.1729999 -1.65 0.36000001
1.35 6.1690001 -1.649 0.38
1.33 6.171 -1.648 0.31999999
1.3099999 6.1719999 -1.647 0.38999999
1.2869999 6.1630001 -1.643 0.38
1.268 6.1669998 -1.643 0.34
1.249 6.1719999 -1.6440001 0.34999999
1.226 6.1589999 -1.6390001 0.44999999
1.2180001 6.1669998 -1.641 0.27000001
1.199 6.1750002 -1.642 0.47
1.179 6.1760001 -1.641 0.30000001
1.158 6.1719999 -1.6390001 0.47999999
1.14 6.1799998 -1.64 0.30000001
1.1210001 6.1849999 -1.641 0.36000001
1.1 6.1830001 -1.6390001 0.36000001
1.09 6.1810002 -1.638 0.40000001
1.072 6.1960001 -1.641 0.36000001
1.054 6.2049999 -1.643 0.37
1.034 6.2080002 -1.643 0.34
1.0140001 6.204 -1.641 0.31999999
0.99400002 6.2049999 -1.64 0.41
0.972 6.1950002 -1.636 0.40000001
0.963 6.1999998 -1.637 0.36000001
0.94300002 6.2010002 -1.637 0.41
0.92400002 6.2080002 -1.638 0.28999999
0.903 6.198 -1.6339999 0.47
0.88499999 6.21 -1.637 0.37
0.86500001 6.211 -1.636 0.43000001
0.84600002 6.2189999 -1.638 0.43000001
0.83499998 6.211 -1.635 0.44
0.81699997 6.2189999 -1.637 0.30000001
0.79500002 6.2059999 -1.632 0.46000001
0.77700001 6.2199998 -1.636 0.25999999
0.75300002 6.1859999 -1.625 0.54000002
0.73500001 6.204 -1.63 0.25999999
0.71499997 6.1989999 -1.628 0.47999999
0.70599997 6.2090001 -1.63 0.40000001
0.68800002 6.223 -1.6339999 0.34
0.671 6.244 -1.6390001 0.27000001
0.64899999 6.2290001 -1.6339999 0.55000001
0.63099998 6.243 -1.637 0.28999999
0.60799998 6.2179999 -1.63 0.46000001
0.58700001 6.2010002 -1.624 0.37
0.57599998 6.1900001 -1.6210001 0.34999999
0.55699998 6.1919999 -1.6210001 0.34999999
0.537 6.1950002 -1.622 0.43000001
0.51800001 6.2030001 -1.623 0.38
0.50099999 6.2290001 -1.63 0.31999999
0.47999999 6.2119999 -1.625 0.43000001
0.45899999 6.2020001 -1.622 0.40000001
0.45100001 6.2140002 -1.625 0.38999999
0.43099999 6.217 -1.625 0.28999999
0.41100001 6.2069998 -1.622 0.46000001
0.391 6.2080002 -1.622 0.36000001
0.37200001 6.2129998 -1.623 0.43000001
0.35299999 6.2119999 -1.623 0.28
0.33399999 6.223 -1.625 0.47
0.324 6.2309999 -1.628 0.43000001
0.303 6.204 -1.62 0.36000001
0.28299999 6.1989999 -1.618 0.38
0.26499999 6.2150002 -1.622 0.36000001
0.245 6.223 -1.624 0.30000001
0.22499999 6.2069998 -1.62 0.36000001
0.205 6.184 -1.613 0.34
0.193 6.1209998 -1.595 0.40000001
0.175 6.1739998 -1.61 0.38999999
0.155 6.1399999 -1.6 0.34
0.13699999 6.1919999 -1.615 0.38
0.115 6.0809999 -1.5829999 0.44
0.096000001 6.079 -1.5829999 0.34999999
0.078000002 6.1890001 -1.614 0.34
0.068999998 6.211 -1.62 0.46000001
0.050000001 6.2199998 -1.622 0.28
0.029999999 6.2010002 -1.617 0.46000001
0.0099999998 6.184 -1.612 0.31999999
-0.0089999996 6.1880002 -1.613 0.47
-0.028000001 6.1989999 -1.6160001 0.38999999
-0.048 6.217 -1.6210001 0.30000001
-0.057999998 6.2129998 -1.62 0.47
-0.077 6.1989999 -1.6160001 0.38999999
-0.097000003 6.2059999 -1.618 0.34
-0.116 6.1869998 -1.613 0.41999999
-0.13600001 6.2080002 -1.619 0.34
-0.156 6.2280002 -1.625 0.38999999
-0.175 6.2160001 -1.622 0.37
-0.184 6.204 -1.618 0.38
-0.20200001 6.1269999 -1.597 0.43000001
-0.21699999 6.0139999 -1.566 0.37
-0.242 6.1789999 -1.612 0.40000001
-0.26199999 6.1880002 -1.615 0.34999999
-0.28200001 6.1989999 -1.618 0.43000001
-0.30199999 6.2059999 -1.62 0.36000001
-0.31200001 6.2150002 -1.623 0.38999999
-0.33199999 6.2270002 -1.627 0.33000001
-0.35100001 6.2179999 -1.624 0.41999999
-0.37 6.1999998 -1.62 0.44999999
-0.382 6.0760002 -1.585 0.34
-0.40400001 6.1259999 -1.6 0.38
-0.42899999 6.2020001 -1.6210001 0.36000001
-0.43900001 6.2129998 -1.624 0.43000001
-0.458 6.2020001 -1.622 0.36000001
-0.47799999 6.2080002 -1.624 0.41
-0.49700001 6.1989999 -1.622 0.47999999
-0.51700002 6.2010002 -1.623 0.37
-0.537 6.2090001 -1.625 0.28999999
-0.55900002 6.2360001 -1.6339999 0.41
-0.56599998 6.204 -1.625 0.43000001
-0.58399999 6.1890001 -1.6210001 0.31999999
-0.60500002 6.2069998 -1.627 0.41
-0.62599999 6.2199998 -1.631 0.36000001
-0.64700001 6.2309999 -1.635 0.33000001
-0.667 6.2270002 -1.6339999 0.34
-0.685 6.21 -1.63 0.36000001
-0.69499999 6.2160001 -1.632 0.31
-0.71600002 6.2259998 -1.635 0.34999999
-0.73199999 6.1929998 -1.627 0.46000001
-0.75099999 6.1830001 -1.624 0.23999999
-0.77399999 6.211 -1.633 0.47
-0.79100001 6.1929998 -1.6289999 0.34999999
-0.81199998 6.198 -1.631 0.31999999
-0.82300001 6.211 -1.635 0.43000001
-0.84100002 6.1929998 -1.63 0.38999999
-0.86400002 6.2189999 -1.638 0.30000001
-0.88200003 6.2059999 -1.636 0.47
-0.90499997 6.2259998 -1.642 0.36000001
-0.92400002 6.2179999 -1.641 0.43000001
-0.94099998 6.1999998 -1.636 0.33000001
-0.95300001 6.2129998 -1.641 0.40000001
-0.97299999 6.2140002 -1.642 0.36000001
-0.99299997 6.2150002 -1.643 0.38999999
-1.015 6.2249999 -1.647 0.34
-1.029 6.1900001 -1.637 0.41
-1.052 6.2069998 -1.643 0.27000001
-1.077 6.2340002 -1.652 0.41999999
-1.085 6.223 -1.649 0.38999999
-1.105 6.2210002 -1.65 0.44
-1.127 6.2329998 -1.654 0.28999999
-1.143 6.2119999 -1.649 0.5
-1.15 6.1370001 -1.6289999 0.40000001
-1.173 6.1560001 -1.635 0.41
-1.1619999 5.9899998 -1.589 0.27000001
-1.1849999 6.0609999 -1.61 0.41
-1.211 6.0900002 -1.619 0.28
-1.234 6.1069999 -1.625 0.5
-1.255 6.112 -1.628 0.23999999
-1.267 6.073 -1.617 0.46000001
-1.296 6.119 -1.632 0.31
-1.304 6.0630002 -1.617 0.54000002
-1.329 6.1300001 -1.637 0.19
-1.3329999 6.0560002 -1.617 0.55000001
-1.372 6.1440001 -1.643 0.30000001
-1.3710001 6.0479999 -1.617 0.41999999
-1.406 6.1129999 -1.637 0.36000001
-1.441 6.1799998 -1.6569999 0.41
-1.467 6.2030001 -1.665 0.30000001
-1.48 6.2160001 -1.67 0.41
-1.499 6.2080002 -1.669 0.31999999
-1.5190001 6.2030001 -1.669 0.41
-1.538 6.198 -1.669 0.34999999
-1.557 6.1900001 -1.668 0.41
-1.577 6.1900001 -1.669 0.33000001
-1.5930001 6.1700001 -1.665 0.41999999
-1.599 6.1550002 -1.661 0.37
-1.624 6.1680002 -1.666 0.38
-1.649 6.1869998 -1.673 0.33000001
-1.6670001 6.1750002 -1.671 0.41
-1.692 6.1919999 -1.678 0.34999999
-1.712 6.1869998 -1.678 0.41
-1.7309999 6.1789999 -1.677 0.40000001
-1.74 6.177 -1.677 0.38
-1.7589999 6.1690001 -1.677 0.41999999
-1.78 6.1690001 -1.678 0.33000001
-1.798 6.1599998 -1.677 0.33000001
-1.821 6.1669998 -1.681 0.34
-1.834 6.1389999 -1.675 0.47999999
-1.8609999 6.1589999 -1.682 0.27000001
-1.867 6.1430001 -1.678 0.58999997
-1.887 6.1389999 -1.679 0.31
-1.9069999 6.1350002 -1.679 0.50999999
-1.9349999 6.1570001 -1.688 0.31
-1.955 6.1529999 -1.688 0.33000001
-1.974 6.1479998 -1.689 0.31
-1.995 6.1469998 -1.6900001 0.30000001
-1.999 6.1259999 -1.6849999 0.33000001
-2.02 6.1230001 -1.686 0.34999999
-2.0420001 6.1279998 -1.689 0.28999999
-2.0639999 6.1290002 -1.691 0.30000001
-2.0829999 6.1220002 -1.691 0.28999999
-2.1029999 6.118 -1.692 0.30000001
-2.1229999 6.1129999 -1.692 0.28999999
-2.135 6.1149998 -1.694 0.28999999
-2.152 6.1040001 -1.693 0.30000001
-2.174 6.105 -1.6950001 0.30000001
-2.1930001 6.098 -1.6950001 0.31999999
-2.214 6.0949998 -1.696 0.30000001
-2.237 6.099 -1.699 0.31
-2.257 6.0949998 -1.7 0.28999999
-2.273 6.079 -1.698 0.30000001
-2.286 6.085 -1.7 0.34
-2.3080001 6.085 -1.7029999 0.28999999
-2.325 6.072 -1.701 0.31999999
-2.3429999 6.0630002 -1.7 0.28999999
-2.3670001 6.066 -1.704 0.36000001
-2.3900001 6.0710001 -1.7079999 0.31999999
-2.4119999 6.0689998 -1.709 0.28999999
-2.4200001 6.0619998 -1.7079999 0.34999999
-2.4430001 6.0650001 -1.711 0.30000001
-2.4660001 6.066 -1.714 0.31999999
-2.4879999 6.0669999 -1.717 0.31999999
-2.51 6.0650001 -1.7180001 0.34
-2.5339999 6.0689998 -1.722 0.34
-2.543 6.0630002 -1.722 0.34
-2.562 6.0570002 -1.722 0.33000001
-2.5869999 6.0619998 -1.726 0.33000001
-2.6059999 6.0549998 -1.726 0.34999999
-2.6289999 6.0560002 -1.729 0.30000001
-2.654 6.0619998 -1.733 0.40000001
-2.6730001 6.053 -1.733 0.31999999
-2.6949999 6.052 -1.7359999 0.34
-2.7090001 6.0560002 -1.738 0.34999999
-2.733 6.0580001 -1.742 0.34999999
-2.753 6.053 -1.743 0.31999999
-2.776 6.053 -1.745 0.34
-2.796 6.046 -1.7460001 0.38
-2.816 6.039 -1.7460001 0.34999999
-2.8410001 6.0440001 -1.751 0.34
-2.8529999 6.0450001 -1.752 0.36000001
-2.869 6.0289998 -1.75 0.31999999
-2.8900001 6.0250001 -1.752 0.31999999
-2.9119999 6.0229998 -1.7539999 0.34
-2.931 6.0139999 -1.7539999 0.31999999
-2.9489999 6.0009999 -1.753 0.31
-2.973 6.0040002 -1.757 0.30000001
-2.9779999 5.9889998 -1.753 0.30000001
-3.0050001 5.9970002 -1.7589999 0.30000001
-3.0209999 5.9819999 -1.757 0.34
-3.0369999 5.9660001 -1.755 0.28999999
-3.0539999 5.9549999 -1.7539999 0.30000001
-3.079 5.9569998 -1.758 0.31
-3.0929999 5.9369998 -1.755 0.28999999
-3.1070001 5.9419999 -1.758 0.34
-3.1259999 5.9330001 -1.758 0.36000001
-3.1389999 5.9130001 -1.755 0.31999999
-3.1630001 5.9130001 -1.758 0.43000001
-3.178 5.8959999 -1.756 0.31999999
-3.197 5.8860002 -1.756 0.31999999
-3.2119999 5.8709998 -1.7539999 0.30000001
-3.224 5.8709998 -1.756 0.28999999
-3.2409999 5.8569999 -1.755 0.30000001
-3.26 5.849 -1.756 0.30000001
-3.2820001 5.8449998 -1.758 0.31999999
-3.3010001 5.835 -1.758 0.28
-3.313 5.8150001 -1.7539999 0.25999999
-3.3329999 5.8080001 -1.756 0.33000001
-3.3399999 5.7969999 -1.7539999 0.27000001
-3.358 5.7870002 -1.7539999 0.37
-3.391 5.8010001 -1.762 0.16
-3.405 5.7839999 -1.76 0.41
-3.4230001 5.7729998 -1.76 0.43000001
-3.4389999 5.7589998 -1.7589999 0.58999997
-3.4679999 5.7659998 -1.765 0.30000001
-3.4719999 5.7529998 -1.762 0.44
-3.4790001 5.724 -1.756 0.67000002
-3.5039999 5.724 -1.76 0.31999999
-3.5280001 5.723 -1.763 0.28999999
-3.5480001 5.7150002 -1.7640001 0.51999998
-3.566 5.704 -1.7640001 0.37
