# .PCD v0.7 - Point Cloud Data file format
VERSION 0.7
FIELDS x y z intensity
SIZE 4 4 4 4
TYPE F F F F
COUNT 1 1 1 1
WIDTH 1403
HEIGHT 1
VIEWPOINT 0 0 0 1 0 0 0
POINTS 1403
DATA ascii
2.6949999 9.3360004 -1.418 0.30000001
2.6670001 9.3500004 -1.419 0.30000001
2.638 9.3590002 -1.419 0.30000001
2.605 9.3570004 -1.4170001 0.30000001
2.5799999 9.3809996 -1.42 0.31
2.549 9.3809996 -1.418 0.30000001
2.517 9.3800001 -1.4170001 0.31
2.5050001 9.3950005 -1.419 0.28999999
2.473 9.3950005 -1.4170001 0.28999999
2.4430001 9.3990002 -1.4170001 0.30000001
2.4170001 9.4219999 -1.419 0.28999999
2.385 9.4180002 -1.4170001 0.31
2.355 9.4239998 -1.4170001 0.30000001
2.3280001 9.4420004 -1.419 0.31999999
2.309 9.4309998 -1.416 0.31
2.283 9.4530001 -1.419 0.31999999
2.2550001 9.4639997 -1.42 0.27000001
2.22 9.4519997 -1.416 0.28999999
2.1919999 9.4630003 -1.4170001 0.28999999
2.164 9.4770002 -1.418 0.30000001
2.1340001 9.4860001 -1.419 0.31999999
2.1199999 9.493 -1.419 0.27000001
2.0880001 9.4899998 -1.418 0.28999999
2.059 9.4989996 -1.418 0.28999999
2.026 9.4919996 -1.416 0.20999999
2 9.5150003 -1.419 0.31
1.971 9.5249996 -1.419 0.22
1.941 9.533 -1.42 0.28999999
1.925 9.533 -1.419 0.28
1.893 9.5270004 -1.4170001 0.30000001
1.864 9.5369997 -1.418 0.30000001
1.835 9.5459995 -1.418 0.28999999
1.806 9.5600004 -1.42 0.33000001
1.776 9.566 -1.42 0.30000001
1.7460001 9.5690002 -1.419 0.30000001
1.729 9.5600004 -1.4170001 0.28
1.7 9.573 -1.419 0.28999999
1.671 9.5830002 -1.419 0.31
1.64 9.5880003 -1.419 0.30000001
1.612 9.6009998 -1.421 0.30000001
1.58 9.5939999 -1.419 0.30000001
1.55 9.6009998 -1.419 0.30000001
1.536 9.6110001 -1.42 0.30000001
1.505 9.6140003 -1.42 0.28999999
1.475 9.6169996 -1.42 0.30000001
1.4450001 9.6230001 -1.42 0.28999999
1.415 9.6280003 -1.42 0.28999999
1.385 9.6359997 -1.421 0.30000001
1.369 9.6339998 -1.42 0.30000001
1.337 9.6269999 -1.418 0.30000001
1.309 9.6429996 -1.42 0.28999999
1.276 9.6309996 -1.4170001 0.28999999
1.248 9.6490002 -1.42 0.33000001
1.2180001 9.6560001 -1.42 0.28999999
1.189 9.6680002 -1.4220001 0.28999999
1.173 9.6680002 -1.421 0.28999999
1.142 9.6619997 -1.42 0.28999999
1.11 9.6520004 -1.4170001 0.28999999
1.081 9.6709995 -1.42 0.31999999
1.051 9.6780005 -1.421 0.28999999
1.021 9.6829996 -1.421 0.28999999
0.99000001 9.6789999 -1.42 0.28999999
0.96100003 9.6929998 -1.4220001 0.28999999
0.94599998 9.7010002 -1.4220001 0.28
0.91500002 9.6999998 -1.4220001 0.28999999
0.884 9.7010002 -1.4220001 0.28999999
0.85399997 9.7069998 -1.4220001 0.31
0.824 9.7159996 -1.423 0.28
0.79299998 9.7049999 -1.421 0.31
0.77899998 9.7220001 -1.423 0.28999999
0.74699998 9.7139997 -1.4220001 0.28999999
0.71700001 9.7159996 -1.4220001 0.28999999
0.68699998 9.7250004 -1.423 0.28999999
0.65600002 9.7209997 -1.4220001 0.28999999
0.625 9.7270002 -1.4220001 0.28999999
0.59399998 9.7209997 -1.421 0.28999999
0.57999998 9.7320004 -1.423 0.28999999
0.54900002 9.7290001 -1.4220001 0.28999999
0.51899999 9.7349997 -1.423 0.28999999
0.48800001 9.7410002 -1.423 0.30000001
0.45699999 9.7320004 -1.4220001 0.28
0.426 9.7279997 -1.421 0.27000001
0.396 9.7370005 -1.4220001 0.31999999
0.38100001 9.7510004 -1.424 0.28
0.34999999 9.7480001 -1.424 0.28999999
0.31999999 9.7480001 -1.423 0.28
0.289 9.7559996 -1.425 0.28999999
0.259 9.7609997 -1.425 0.30000001
0.228 9.7559996 -1.424 0.28999999
0.197 9.7609997 -1.425 0.30000001
0.182 9.7609997 -1.425 0.28999999
0.15099999 9.7480001 -1.423 0.28999999
0.121 9.7620001 -1.425 0.28999999
0.090000004 9.776 -1.427 0.28999999
0.059 9.7700005 -1.426 0.28
0.028999999 9.776 -1.427 0.30000001
-0.0020000001 9.7670002 -1.426 0.28999999
-0.017000001 9.7709999 -1.426 0.28999999
-0.048 9.7639999 -1.425 0.28
-0.079000004 9.7659998 -1.426 0.28999999
-0.109 9.7679996 -1.426 0.30000001
-0.14 9.7639999 -1.425 0.28999999
-0.171 9.7790003 -1.428 0.28
-0.20200001 9.7840004 -1.429 0.28999999
-0.21699999 9.7779999 -1.428 0.27000001
-0.248 9.7729998 -1.427 0.28
-0.278 9.7740002 -1.427 0.28
-0.30899999 9.7790003 -1.428 0.28
-0.34 9.7840004 -1.429 0.27000001
-0.37099999 9.7790003 -1.429 0.31
-0.40099999 9.776 -1.428 0.30000001
-0.41800001 9.8009996 -1.432 0.30000001
-0.44800001 9.7860003 -1.4299999 0.30000001
-0.479 9.783 -1.4299999 0.30000001
-0.50999999 9.7869997 -1.431 0.30000001
-0.54100001 9.7910004 -1.432 0.28999999
-0.57099998 9.783 -1.431 0.28999999
-0.60299999 9.8009996 -1.434 0.30000001
-0.61799997 9.7869997 -1.432 0.31
-0.64899999 9.7889996 -1.432 0.30000001
-0.68000001 9.79 -1.433 0.27000001
-0.71100003 9.7939997 -1.434 0.30000001
-0.74199998 9.7939997 -1.434 0.30000001
-0.77200001 9.7860003 -1.433 0.30000001
-0.80299997 9.7869997 -1.434 0.28999999
-0.81900001 9.79 -1.4349999 0.30000001
-0.85100001 9.7989998 -1.437 0.30000001
-0.88099998 9.7880001 -1.4349999 0.30000001
-0.912 9.7869997 -1.436 0.28999999
-0.94300002 9.7880001 -1.436 0.28999999
-0.97500002 9.7969999 -1.438 0.28999999
-1.006 9.7959995 -1.438 0.28
-1.021 9.7959995 -1.439 0.28
-1.052 9.7869997 -1.438 0.28999999
-1.0829999 9.7880001 -1.438 0.28999999
-1.114 9.7919998 -1.4400001 0.31
-1.1440001 9.7790003 -1.438 0.28999999
-1.175 9.7790003 -1.439 0.30000001
-1.206 9.7790003 -1.439 0.30000001
-1.223 9.783 -1.4400001 0.25999999
-1.255 9.7889996 -1.442 0.27000001
-1.285 9.783 -1.442 0.28999999
-1.3150001 9.7729998 -1.441 0.30000001
-1.348 9.783 -1.443 0.28999999
-1.3789999 9.7840004 -1.444 0.28999999
-1.408 9.7700005 -1.442 0.28
-1.425 9.776 -1.443 0.28999999
-1.456 9.7729998 -1.444 0.28
-1.488 9.7779999 -1.4450001 0.28999999
-1.5190001 9.7740002 -1.4450001 0.27000001
-1.55 9.7709999 -1.446 0.28
-1.58 9.7620001 -1.4450001 0.30000001
-1.614 9.776 -1.448 0.27000001
-1.628 9.7659998 -1.447 0.28
-1.659 9.7629995 -1.447 0.28999999
-1.689 9.7559996 -1.447 0.28
-1.722 9.7600002 -1.448 0.28
-1.7539999 9.7659998 -1.45 0.28999999
-1.784 9.757 -1.45 0.28999999
-1.817 9.7609997 -1.451 0.27000001
-1.831 9.7519999 -1.45 0.28999999
-1.862 9.75 -1.451 0.28999999
-1.8940001 9.7480001 -1.452 0.28999999
-1.927 9.7559996 -1.454 0.28999999
-1.956 9.7419996 -1.4529999 0.28999999
-1.989 9.7449999 -1.454 0.28999999
-2.0209999 9.7489996 -1.456 0.27000001
-2.0369999 9.7460003 -1.456 0.28
-2.066 9.7329998 -1.455 0.28
-2.099 9.7370005 -1.456 0.28999999
-2.1300001 9.7320004 -1.457 0.28999999
-2.1589999 9.7189999 -1.456 0.30000001
-2.1919999 9.724 -1.4579999 0.28999999
-2.221 9.7089996 -1.456 0.28999999
-2.2379999 9.7119999 -1.457 0.31
-2.2720001 9.7200003 -1.46 0.30000001
-2.3 9.7049999 -1.459 0.28
-2.3310001 9.6999998 -1.459 0.28999999
-2.3659999 9.71 -1.462 0.28999999
-2.3959999 9.6999998 -1.461 0.30000001
-2.427 9.6949997 -1.462 0.30000001
-2.444 9.698 -1.4630001 0.28999999
-2.473 9.6850004 -1.462 0.30000001
-2.507 9.6899996 -1.464 0.28999999
-2.5369999 9.6829996 -1.464 0.30000001
-2.5639999 9.6590004 -1.462 0.30000001
-2.599 9.6680002 -1.464 0.31
-2.6329999 9.6730003 -1.467 0.28
-2.645 9.6599998 -1.465 0.28999999
-2.6800001 9.6669998 -1.4680001 0.27000001
-2.7119999 9.6639996 -1.469 0.28999999
-2.74 9.6479998 -1.467 0.28
-2.77 9.6370001 -1.467 0.28
-2.8050001 9.6440001 -1.47 0.28
-2.8329999 9.6269999 -1.4680001 0.30000001
-2.8469999 9.6210003 -1.4680001 0.28999999
-2.882 9.6289997 -1.471 0.28999999
-2.9119999 9.618 -1.47 0.28999999
-2.9449999 9.6160002 -1.472 0.28999999
-2.9749999 9.6090002 -1.472 0.28999999
-3.0039999 9.5939999 -1.471 0.28999999
-3.036 9.5900002 -1.472 0.28999999
-3.056 9.6000004 -1.475 0.28999999
-3.085 9.5869999 -1.474 0.28
-3.118 9.5860004 -1.475 0.28999999
-3.1500001 9.5819998 -1.476 0.28999999
-3.178 9.5670004 -1.475 0.28999999
-3.211 9.566 -1.477 0.28
-3.244 9.5649996 -1.479 0.28
-3.2539999 9.5450001 -1.476 0.30000001
-3.289 9.5500002 -1.479 0.28
-3.325 9.5559998 -1.4809999 0.28
-3.3510001 9.5340004 -1.48 0.28
-3.3829999 9.5290003 -1.48 0.28999999
-3.4200001 9.5369997 -1.484 0.28
-3.444 9.5120001 -1.4809999 0.27000001
-3.4619999 9.5139999 -1.482 0.28999999
-3.497 9.5159998 -1.485 0.28
-3.5220001 9.4940004 -1.483 0.28999999
-3.556 9.4940004 -1.485 0.28999999
-3.5899999 9.4919996 -1.4859999 0.28999999
-3.619 9.4779997 -1.4859999 0.28
-3.6489999 9.4689999 -1.4859999 0.28999999
-3.668 9.4720001 -1.488 0.28999999
-3.698 9.4610004 -1.488 0.30000001
-3.7290001 9.4530001 -1.488 0.28999999
-3.7579999 9.4390001 -1.488 0.28999999
-3.7950001 9.4460001 -1.4910001 0.27000001
-3.825 9.4359999 -1.4910001 0.30000001
-3.8559999 9.427 -1.492 0.28999999
-3.8710001 9.4209995 -1.492 0.28999999
-3.905 9.4200001 -1.494 0.28999999
-3.9349999 9.4069996 -1.494 0.30000001
-3.9619999 9.3900003 -1.493 0.28999999
-4 9.3970003 -1.4960001 0.31
-4.0289998 9.3830004 -1.4960001 0.30000001
-4.0599999 9.3739996 -1.497 0.28999999
-4.0780001 9.3760004 -1.498 0.30000001
-4.1100001 9.3669996 -1.499 0.31
-4.1430001 9.3629999 -1.501 0.31
-4.1719999 9.3500004 -1.501 0.30000001
-4.2030001 9.3400002 -1.501 0.30000001
-4.2379999 9.3400002 -1.503 0.30000001
-4.2649999 9.3210001 -1.502 0.31
-4.2820001 9.3179998 -1.503 0.30000001
-4.3130002 9.3100004 -1.5039999 0.27000001
-4.3429999 9.2959995 -1.5039999 0.30000001
-4.381 9.302 -1.507 0.31999999
-4.4109998 9.29 -1.508 0.30000001
-4.4400001 9.276 -1.508 0.28999999
-4.474 9.2709999 -1.5089999 0.30000001
-4.4899998 9.2679996 -1.51 0.28
-4.5219998 9.2589998 -1.511 0.31
-4.5549998 9.2530003 -1.512 0.30000001
-4.585 9.2410002 -1.513 0.30000001
-4.6230001 9.2440004 -1.516 0.30000001
-4.6469998 9.2209997 -1.5140001 0.28999999
-4.6820002 9.2159996 -1.516 0.30000001
-4.6960001 9.2089996 -1.516 0.28999999
-4.73 9.2030001 -1.518 0.28
-4.7600002 9.1899996 -1.518 0.30000001
-4.7989998 9.1960001 -1.522 0.30000001
-4.8249998 9.1759996 -1.521 0.30000001
-4.855 9.1619997 -1.521 0.30000001
-4.8889999 9.1549997 -1.523 0.30000001
-4.902 9.1459999 -1.523 0.28
-4.9320002 9.132 -1.523 0.28999999
-4.9629998 9.1219997 -1.524 0.31
-5.0009999 9.1239996 -1.527 0.31
-5.0339999 9.1149998 -1.528 0.31
-5.0619998 9.099 -1.528 0.30000001
-5.1009998 9.1000004 -1.531 0.31
-5.1139998 9.0900002 -1.531 0.28999999
-5.145 9.0780001 -1.5319999 0.28
-5.1810002 9.0749998 -1.534 0.30000001
-5.2129998 9.066 -1.535 0.30000001
-5.243 9.0509996 -1.536 0.31
-5.2709999 9.0349998 -1.536 0.30000001
-5.3039999 9.0249996 -1.5369999 0.30000001
-5.3270001 9.0319996 -1.54 0.28999999
-5.3540001 9.0129995 -1.539 0.28999999
-5.3829999 8.9980001 -1.54 0.28
-5.4169998 8.9899998 -1.541 0.28999999
-5.4530001 8.9860001 -1.544 0.28999999
-5.4790001 8.9650002 -1.543 0.30000001
-5.5139999 8.9580002 -1.545 0.30000001
-5.5310001 8.9549999 -1.546 0.28999999
-5.5640001 8.9460001 -1.548 0.30000001
-5.5910001 8.9259996 -1.5470001 0.28999999
-5.631 8.927 -1.551 0.28999999
-5.658 8.908 -1.55 0.28999999
-5.6869998 8.8920002 -1.551 0.31
-5.723 8.8870001 -1.553 0.30000001
-5.7319999 8.8699999 -1.552 0.28
-5.77 8.8660002 -1.5549999 0.28999999
-5.8049998 8.8599997 -1.557 0.28999999
-5.8260002 8.8319998 -1.5549999 0.30000001
-5.8579998 8.8199997 -1.556 0.31
-5.8920002 8.8100004 -1.558 0.27000001
-5.9070001 8.7729998 -1.554 0
-5.6209998 8.323 -1.47 0
-5.6290002 8.2790003 -1.464 0.11
-5.6339998 8.2299995 -1.459 0.039999999
-5.6830001 8.2449999 -1.465 0.14
-5.711 8.2299995 -1.465 0.18000001
-5.7610002 8.2480001 -1.472 0
-5.7909999 8.2349997 -1.473 0.02
-5.835 8.2690001 -1.482 0.039999999
-5.8779998 8.2749996 -1.4859999 0
-5.9050002 8.2580004 -1.487 0.02
-5.928 8.2360001 -1.4859999 0.14
-5.9580002 8.2220001 -1.487 0.050000001
-5.9879999 8.21 -1.488 0.16
-6.0370002 8.2229996 -1.495 0.19
-6.3239999 8.5830002 -1.568 0.25
-6.3740001 8.5930004 -1.574 0.28
-6.408 8.5830002 -1.576 0.28999999
-6.441 8.5699997 -1.577 0.27000001
-6.4710002 8.5550003 -1.5779999 0.28
-6.506 8.5450001 -1.58 0.25999999
-6.5300002 8.5200005 -1.579 0.28999999
-6.5489998 8.5179996 -1.581 0.25999999
-6.5840001 8.5080004 -1.5829999 0.25999999
-6.612 8.4890003 -1.5829999 0.25999999
-6.6420002 8.4729996 -1.584 0.28
-6.6789999 8.4639997 -1.587 0.27000001
-6.7090001 8.448 -1.5880001 0.28999999
-6.743 8.4359999 -1.59 0.28999999
-6.7610002 8.4309998 -1.591 0.27000001
-6.7849998 8.4069996 -1.59 0.25999999
-6.816 8.3920002 -1.592 0.27000001
-6.855 8.3859997 -1.595 0.28
-6.8839998 8.3669996 -1.595 0.27000001
-6.9169998 8.3529997 -1.597 0.27000001
-6.9460001 8.3339996 -1.598 0.28
-6.9699998 8.3369999 -1.6 0.27000001
-6.994 8.3120003 -1.6 0.25999999
-7.0209999 8.2919998 -1.6 0.25999999
-7.053 8.2770004 -1.602 0.25999999
-7.086 8.2620001 -1.603 0.27000001
-7.1199999 8.2489996 -1.605 0.25999999
-7.1350002 8.2410002 -1.6059999 0.25999999
-7.1659999 8.224 -1.607 0.27000001
-7.198 8.2089996 -1.609 0.25999999
-7.2309999 8.1940002 -1.61 0.27000001
-7.2639999 8.1800003 -1.612 0.27000001
-7.289 8.1549997 -1.612 0.27000001
-7.3179998 8.1370001 -1.613 0.27000001
-7.348 8.118 -1.614 0.20999999
-7.382 8.1300001 -1.619 0.28
-7.402 8.1009998 -1.617 0.25
-7.4419999 8.0939999 -1.6210001 0.25
-7.4689999 8.0719995 -1.6210001 0.20999999
-7.5019999 8.0570002 -1.623 0.28
-7.5300002 8.0360003 -1.624 0.25
-7.5570002 8.0139999 -1.624 0.27000001
-7.5749998 8.0080004 -1.625 0.27000001
-7.6149998 8 -1.6289999 0.28
-7.6399999 7.9759998 -1.6289999 0.27000001
-7.6750002 7.9619999 -1.631 0.27000001
-7.7049999 7.9429998 -1.632 0.25999999
-7.7290001 7.9169998 -1.632 0.27000001
-7.7620001 7.902 -1.6339999 0.25999999
-7.777 7.8920002 -1.6339999 0.28
-7.8099999 7.8759999 -1.636 0.28999999
-7.8390002 7.8559999 -1.637 0.28
-7.8740001 7.8410001 -1.6390001 0.28
-7.9050002 7.823 -1.641 0.27000001
-7.9400001 7.8080001 -1.643 0.28
-7.973 7.7909999 -1.645 0.27000001
-7.9910002 7.7839999 -1.646 0.27000001
-8.0150003 7.7589998 -1.646 0.28
-8.0489998 7.743 -1.648 0.28
-8.0810003 7.7249999 -1.65 0.28999999
-8.1059999 7.7010002 -1.65 0.27000001
-8.1490002 7.6929998 -1.654 0.27000001
-8.1689997 7.6630001 -1.653 0.28
-8.1929998 7.6609998 -1.656 0.28999999
-8.2180004 7.6360002 -1.656 0.28
-8.2510004 7.619 -1.658 0.28999999
-8.2790003 7.5970001 -1.659 0.25
-8.3190002 7.585 -1.6619999 0.27000001
-8.3529997 7.5679998 -1.665 0.28
-8.3780003 7.5430002 -1.665 0.28
-8.3900003 7.5300002 -1.665 0.27000001
-8.4280005 7.5170002 -1.668 0.27000001
-8.4580002 7.4959998 -1.669 0.27000001
-8.4829998 7.4699998 -1.67 0.27000001
-8.4180002 7.3670001 -1.651 0.30000001
-8.5430002 7.428 -1.673 0.25999999
-8.5570002 7.3940001 -1.671 0.23
-8.4429998 7.2719998 -1.6440001 0.34999999
-8.5190001 7.2909999 -1.655 0.31999999
-8.526 7.2509999 -1.652 0.30000001
-8.5900002 7.2589998 -1.661 0.34
-8.6370001 7.2519999 -1.666 0.34999999
-8.7010002 7.2589998 -1.674 0.28999999
-8.5380001 7.0780001 -1.636 0.31
-8.5 7.0240002 -1.626 0.22
-8.3170004 6.8299999 -1.584 0.23
-8.323 6.7919998 -1.581 0.36000001
-8.3999996 6.8099999 -1.592 0.31
-8.4239998 6.7859998 -1.5930001 0.34
-8.4359999 6.7519999 -1.591 0.36000001
-8.4540005 6.723 -1.59 0.37
-8.4969997 6.7360001 -1.597 0.38
-8.5249996 6.7140002 -1.598 0.41999999
-8.5389996 6.6820002 -1.597 0.38
-8.5670004 6.6599998 -1.598 0.37
-8.559 6.612 -1.592 0.34
-8.5939999 6.5949998 -1.595 0.38
-8.6379995 6.586 -1.6 0.36000001
-8.6789999 6.5949998 -1.6059999 0.36000001
-8.6789999 6.553 -1.602 0.43000001
-8.7040005 6.5289998 -1.603 0.34
-8.7229996 6.5 -1.602 0.38
-8.7290001 6.4619999 -1.599 0.31
-8.7370005 6.4260001 -1.597 0.41
-8.7709999 6.408 -1.6 0.43000001
-8.7919998 6.4029999 -1.602 0.34999999
-8.816 6.3769999 -1.603 0.40000001
-8.8360004 6.3499999 -1.603 0.33000001
-8.8830004 6.3410001 -1.608 0.37
-8.8879995 6.303 -1.605 0.36000001
-8.927 6.289 -1.609 0.37
-8.9469995 6.2610002 -1.609 0.37
-8.96 6.2490001 -1.609 0.38999999
-9.007 6.2399998 -1.615 0.38999999
-8.9989996 6.1929998 -1.609 0.36000001
-9.0089998 6.158 -1.608 0.41
-9.0200005 6.1240001 -1.6059999 0.40000001
-9.0670004 6.1139998 -1.6109999 0.36000001
-9.099 6.0939999 -1.614 0.41999999
-9.1269999 6.092 -1.617 0.34999999
-9.1230001 6.0479999 -1.613 0.37
-9.1549997 6.0279999 -1.615 0.37
-9.1590004 5.9899998 -1.613 0.38999999
-9.2010002 5.9759998 -1.617 0.38
-9.2329998 5.9549999 -1.619 0.37
-9.2390003 5.9180002 -1.617 0.37
-9.2799997 5.9229999 -1.623 0.40000001
-9.276 5.881 -1.619 0.38
-9.2849998 5.8449998 -1.617 0.38999999
-9.3079996 5.8189998 -1.618 0.38
-9.3179998 5.7849998 -1.6160001 0.31999999
-9.3380003 5.756 -1.617 0.41999999
-9.349 5.743 -1.617 0.33000001
-9.3970003 5.7319999 -1.623 0.41999999
-9.3909998 5.6880002 -1.618 0.37
-9.4329996 5.6729999 -1.623 0.34
-9.4300003 5.631 -1.619 0.43000001
-9.4820004 5.6209998 -1.625 0.34
-9.4870005 5.5840001 -1.623 0.43000001
-9.5249996 5.566 -1.627 0.40000001
-9.5290003 5.5489998 -1.626 0.38999999
-9.6099997 5.5549998 -1.637 0.34999999
-9.632 5.5279999 -1.638 0.36000001
-9.6409998 5.493 -1.637 0.38999999
-9.6239996 5.4429998 -1.63 0.31999999
-9.6719999 5.4299998 -1.636 0.41
-9.698 5.4239998 -1.6390001 0.38
-9.7229996 5.3990002 -1.641 0.40000001
-9.7469997 5.3720002 -1.642 0.37
-9.7869997 5.3530002 -1.646 0.41
-9.783 5.3109999 -1.642 0.34999999
-9.8219995 5.2930002 -1.646 0.38999999
-9.8540001 5.27 -1.649 0.33000001
-9.8479996 5.2270002 -1.645 0.40000001
-9.8649998 5.2160001 -1.647 0.34
-9.8579998 5.1739998 -1.643 0.36000001
-9.8409996 5.125 -1.637 0.36000001
-9.8590002 5.0949998 -1.637 0.37
-9.842 5.0469999 -1.631 0.38999999
-9.868 5.0219998 -1.633 0.36000001
-9.8780003 5.007 -1.633 0.38
-9.8920002 4.9749999 -1.633 0.41999999
-9.9069996 4.9439998 -1.633 0.34
-9.9510002 4.927 -1.638 0.36000001
-9.9519997 4.8889999 -1.635 0.41999999
-10.005 4.875 -1.642 0.34
-10.008 4.8379998 -1.64 0.41
-10.01 4.8200002 -1.6390001 0.38
-10.039 4.7950001 -1.641 0.38999999
-10.063 4.7680001 -1.643 0.37
-10.075 4.7340002 -1.642 0.37
-10.127 4.7199998 -1.649 0.38
-10.156 4.6950002 -1.651 0.36000001
-10.147 4.652 -1.647 0.34999999
-10.142 4.631 -1.645 0.37
-10.166 4.6030002 -1.647 0.38
-10.18 4.5710001 -1.647 0.41
-10.305 4.5879998 -1.666 0.38999999
-10.324 4.5570002 -1.6670001 0.41
-10.368 4.5380001 -1.6720001 0.34
-10.387 4.507 -1.673 0.36000001
-10.376 4.4829998 -1.67 0.41
-10.327 4.4239998 -1.659 0.33000001
-10.364 4.401 -1.663 0.38
-10.407 4.381 -1.668 0.38
-10.426 4.3499999 -1.669 0.38
-10.447 4.3200002 -1.67 0.38999999
-10.492 4.3000002 -1.675 0.36000001
-10.48 4.276 -1.6720001 0.41999999
-10.477 4.237 -1.669 0.34
-10.523 4.217 -1.675 0.37
-10.535 4.1830001 -1.675 0.41999999
-10.592 4.1669998 -1.682 0.34
-10.574 4.1220002 -1.677 0.38999999
-10.559 4.0780001 -1.6720001 0.37
-10.567 4.0619998 -1.673 0.37
-10.667 4.0619998 -1.687 0.34
-10.592 3.9960001 -1.673 0.34999999
-10.635 3.973 -1.678 0.41
-10.671 3.9489999 -1.682 0.34999999
-10.676 3.9130001 -1.6799999 0.36000001
-10.694 3.881 -1.681 0.36000001
-10.67 3.8540001 -1.676 0.34999999
-10.653 3.809 -1.671 0.38999999
-10.702 3.789 -1.678 0.34999999
-10.749 3.7679999 -1.683 0.36000001
-10.837 3.76 -1.696 0.38999999
-10.815 3.7149999 -1.691 0.38
-10.788 3.668 -1.684 0.33000001
-10.842 3.6670001 -1.692 0.36000001
-10.835 3.6270001 -1.689 0.34999999
-10.876 3.602 -1.694 0.41
-10.95 3.5880001 -1.705 0.31
-10.955 3.552 -1.704 0.38999999
-10.953 3.5139999 -1.701 0.31999999
-10.942 3.4909999 -1.699 0.38
-10.93 3.45 -1.6950001 0.37
-10.944 3.4159999 -1.6950001 0.34999999
-10.955 3.382 -1.6950001 0.36000001
-10.985 3.3529999 -1.699 0.36000001
-10.957 3.3069999 -1.692 0.41
-10.979 3.276 -1.694 0.38
-11.03 3.2720001 -1.702 0.36000001
-11.042 3.2379999 -1.702 0.34
-11.042 3.201 -1.7 0.41999999
-11.109 3.1819999 -1.71 0.38
-11.153 3.1570001 -1.716 0.34
-11.19 3.1289999 -1.72 0.36000001
-11.217 3.099 -1.723 0.36000001
-11.254 3.0899999 -1.728 0.43000001
-11.291 3.062 -1.732 0.38
-11.327 3.0339999 -1.737 0.33000001
-11.361 3.0039999 -1.7410001 0.40000001
-11.439 2.987 -1.752 0.37
-11.487 2.96 -1.758 0.34
-11.538 2.9349999 -1.765 0.36000001
-11.57 2.924 -1.77 0.36000001
-11.575 2.8859999 -1.7690001 0.34
-11.58 2.849 -1.7690001 0.37
-11.637 2.8239999 -1.776 0.31999999
-11.696 2.799 -1.785 0.38
-11.747 2.7720001 -1.791 0.33000001
-11.788 2.743 -1.7970001 0.34
-11.835 2.734 -1.804 0.30000001
-11.899 2.71 -1.813 0.34
-11.973 2.687 -1.823 0.31999999
-11.982 2.6489999 -1.823 0.23999999
-12.067 2.628 -1.836 0.19
-12.18 2.612 -1.853 0.25
-12.196 2.576 -1.854 0.33000001
-12.194 2.5550001 -1.853 0.41999999
-12.283 2.5339999 -1.8660001 0.36000001
-12.502 2.5369999 -1.901 0.27000001
-12.588 2.513 -1.913 0.47999999
-12.64 2.483 -1.92 0.33000001
-12.657 2.4449999 -1.9220001 0.23
-12.65 2.402 -1.919 0.31
-12.661 2.3840001 -1.921 0.34999999
-12.583 2.3280001 -1.9069999 0.27000001
-12.682 2.3050001 -1.9220001 0.19
-12.646 2.2579999 -1.915 0.27000001
-12.711 2.2279999 -1.924 0.23
-12.718 2.188 -1.924 0.19
-12.754 2.1530001 -1.929 0.25999999
-12.734 2.1289999 -1.925 0.23
-12.755 2.0910001 -1.927 0.2
-12.779 2.0539999 -1.9299999 0.25
-12.768 2.0109999 -1.927 0.19
-12.786 1.973 -1.929 0.25
-12.798 1.933 -1.9299999 0.2
-12.809 1.8940001 -1.931 0.25
-12.806 1.873 -1.9299999 0.23
-12.832 1.836 -1.933 0.2
-12.841 1.796 -1.934 0.25
-12.827 1.753 -1.931 0.23
-12.847 1.714 -1.933 0.19
-12.862 1.675 -1.9349999 0.25999999
-12.873 1.636 -1.9349999 0.2
-12.883 1.6160001 -1.937 0.25
-12.876 1.574 -1.9349999 0.19
-12.899 1.536 -1.938 0.23999999
-12.906 1.4960001 -1.938 0.19
-12.904 1.455 -1.937 0.25
-12.893 1.4119999 -1.9349999 0.19
-12.931 1.375 -1.9400001 0.23999999
-12.919 1.354 -1.938 0.18000001
-12.941 1.3150001 -1.9400001 0.23
-12.949 1.274 -1.941 0.19
-12.947 1.233 -1.9400001 0.12
-12.943 1.192 -1.939 0.2
-12.977 1.154 -1.944 0.11
-12.962 1.1109999 -1.941 0.2
-12.968 1.091 -1.941 0.11
-12.977 1.051 -1.942 0
-13.002 1.012 -1.946 0
-13.001 0.97100002 -1.9450001 0
-12.993 0.88800001 -1.943 0.22
-12.986 0.847 -1.941 0.18000001
-13.011 0.82800001 -1.9450001 0.23
-12.994 0.78600001 -1.942 0.18000001
-13 0.745 -1.943 0.25
-12.997 0.704 -1.942 0.18000001
-13.011 0.66399997 -1.944 0.23
-12.999 0.62199998 -1.941 0.18000001
-13.017 0.58200002 -1.944 0.23
-12.988 0.56 -1.939 0.19
-13.011 0.51999998 -1.943 0.25
-13.007 0.479 -1.942 0.19
-13.018 0.43900001 -1.943 0.23999999
-13.018 0.398 -1.943 0.20999999
-13.003 0.35699999 -1.9400001 0.17
-13.02 0.31600001 -1.943 0.25999999
-13.018 0.296 -1.943 0.2
-13.029 0.255 -1.944 0.25
-13.022 0.214 -1.943 0.22
-13.019 0.17299999 -1.942 0.17
-13.035 0.132 -1.9450001 0.25999999
-13.035 0.090999998 -1.9450001 0.18000001
-13.037 0.050000001 -1.9450001 0.25
-13.028 0.029999999 -1.944 0.19
-13.042 -0.011 -1.946 0.25
-13.026 -0.052000001 -1.943 0.18000001
-13.043 -0.093000002 -1.946 0.23999999
-13.041 -0.134 -1.946 0.2
-13.048 -0.175 -1.947 0.11
-13.04 -0.21600001 -1.946 0.2
-13.055 -0.237 -1.948 0.11
-13.039 -0.278 -1.946 0.19
-13.061 -0.31900001 -1.95 0.11
-13.054 -0.36000001 -1.949 0.19
-13.059 -0.40099999 -1.95 0
-13.034 -0.44100001 -1.946 0
-13.025 -0.48199999 -1.9450001 0.039999999
-13.003 -0.52200001 -1.941 0.18000001
-13.015 -0.56400001 -1.944 0.11
-13.013 -0.58399999 -1.943 0.18000001
-13.019 -0.625 -1.9450001 0.20999999
-13.007 -0.66600001 -1.943 0.19
-13.009 -0.70700002 -1.944 0.22
-13.014 -0.74800003 -1.9450001 0.2
-13.006 -0.78899997 -1.944 0.23
-13.011 -0.82999998 -1.9450001 0.19
-13.006 -0.85000002 -1.9450001 0.23
-12.999 -0.89099997 -1.944 0.18000001
-13.004 -0.93199998 -1.9450001 0.23
-13.001 -0.97299999 -1.9450001 0.18000001
-13.008 -1.015 -1.947 0.23
-12.993 -1.054 -1.9450001 0.19
-13.001 -1.096 -1.947 0.23999999
-12.99 -1.1160001 -1.9450001 0.2
-13 -1.158 -1.947 0.25
-12.99 -1.198 -1.946 0.23
-12.977 -1.238 -1.9450001 0.17
-12.994 -1.281 -1.948 0.25999999
-12.973 -1.3200001 -1.9450001 0.22
-12.964 -1.36 -1.9450001 0.17
-12.982 -1.383 -1.948 0.25999999
-12.974 -1.423 -1.947 0.23
-12.961 -1.4630001 -1.946 0.2
-12.982 -1.507 -1.95 0.25
-12.962 -1.546 -1.948 0.22
-12.955 -1.586 -1.947 0.18000001
-12.967 -1.6289999 -1.95 0.27000001
-12.947 -1.647 -1.947 0.23999999
-12.928 -1.686 -1.9450001 0.19
-12.946 -1.73 -1.949 0.25999999
-12.943 -1.771 -1.949 0.20999999
-12.964 -1.8150001 -1.954 0
-12.912 -1.849 -1.946 0
-12.929 -1.893 -1.95 0
-12.948 -1.9579999 -1.954 0.23
-12.924 -1.9960001 -1.951 0.20999999
-12.91 -2.0350001 -1.95 0.2
-12.917 -2.0780001 -1.952 0.23999999
-12.906 -2.118 -1.952 0.19
-12.906 -2.1600001 -1.9529999 0.11
-12.894 -2.1789999 -1.951 0.20999999
-12.901 -2.221 -1.954 0.11
-12.882 -2.26 -1.952 0.2
-12.889 -2.303 -1.954 0.11
-12.874 -2.342 -1.9529999 0.19
-12.878 -2.3840001 -1.955 0.11
-12.859 -2.4230001 -1.9529999 0.19
-12.863 -2.444 -1.954 0.11
-12.843 -2.483 -1.952 0.18000001
-12.851 -2.526 -1.955 0.11
-12.825 -2.563 -1.952 0.19
-12.844 -2.609 -1.956 0.20999999
-12.834 -2.6489999 -1.956 0.1
-12.812 -2.6860001 -1.954 0.18000001
-12.824 -2.7090001 -1.956 0.11
-12.802 -2.747 -1.954 0.18000001
-12.795 -2.7869999 -1.954 0.20999999
-12.79 -2.8280001 -1.955 0.1
-12.773 -2.8670001 -1.954 0.19
-12.772 -2.9089999 -1.955 0.1
-12.765 -2.928 -1.955 0.19
-12.754 -2.9679999 -1.954 0.11
-12.747 -3.0079999 -1.955 0.18000001
-12.754 -3.053 -1.957 0.22
-12.729 -3.089 -1.955 0.16
-12.727 -3.131 -1.956 0.23
-12.717 -3.171 -1.956 0.19
-12.704 -3.21 -1.956 0.23
-12.683 -3.2260001 -1.9529999 0.18000001
-12.694 -3.2709999 -1.956 0.23
-12.67 -3.3069999 -1.954 0.18000001
-12.662 -3.348 -1.955 0.23999999
-12.655 -3.3889999 -1.955 0.19
-12.648 -3.4289999 -1.956 0.23999999
-12.627 -3.4449999 -1.9529999 0.19
-12.632 -3.4890001 -1.956 0.25
-12.606 -3.5239999 -1.9529999 0.19
-12.61 -3.5680001 -1.956 0.23999999
-12.608 -3.6110001 -1.957 0.18000001
-12.594 -3.6500001 -1.957 0.23999999
-12.577 -3.687 -1.956 0.2
-12.587 -3.7119999 -1.959 0.12
-12.56 -3.747 -1.956 0.19
-12.563 -3.7909999 -1.959 0.11
-12.559 -3.832 -1.96 0.18000001
-12.533 -3.868 -1.9579999 0.050000001
-12.527 -3.9089999 -1.959 0.18000001
-12.524 -3.951 -1.96 0.11
-12.501 -3.9660001 -1.957 0.18000001
-12.499 -4.0079999 -1.959 0.11
-12.487 -4.0479999 -1.959 0.18000001
-12.474 -4.0869999 -1.959 0.20999999
-12.472 -4.1300001 -1.961 0.1
-12.439 -4.1620002 -1.9579999 0.18000001
-12.446 -4.2080002 -1.961 0.11
-12.423 -4.2220001 -1.9579999 0.18000001
-12.43 -4.2680001 -1.962 0.1
-12.411 -4.3049998 -1.961 0.18000001
-12.397 -4.3439999 -1.961 0.11
-12.371 -4.3779998 -1.959 0.18000001
-12.379 -4.4250002 -1.962 0.11
-12.337 -4.454 -1.9579999 0.19
-12.358 -4.4829998 -1.962 0.1
-12.322 -4.5139999 -1.959 0.19
-12.328 -4.5599999 -1.962 0.11
-12.295 -4.592 -1.959 0.18000001
-12.284 -4.632 -1.96 0.22
-12.266 -4.6690001 -1.959 0.18000001
-12.249 -4.7069998 -1.959 0.23
-12.229 -4.7210002 -1.956 0.18000001
-12.229 -4.7649999 -1.959 0.23999999
-12.19 -4.7940001 -1.955 0.19
-12.189 -4.8390002 -1.957 0.25
-12.161 -4.8720002 -1.955 0.23
-12.146 -4.9099998 -1.955 0.20999999
-12.138 -4.9510002 -1.956 0.25
-12.119 -4.9650002 -1.955 0.22
-12.091 -4.9980001 -1.952 0.18000001
-12.091 -5.0430002 -1.955 0.27000001
-12.054 -5.072 -1.951 0.23999999
-12.039 -5.1100001 -1.952 0.19
-12.043 -5.1570001 -1.955 0.27000001
-12.018 -5.191 -1.954 0.25
-12.021 -5.2140002 -1.956 0.23
-12.01 -5.2540002 -1.956 0.20999999
-11.997 -5.2940001 -1.957 0.2
-11.956 -5.3210001 -1.9529999 0.46000001
-11.929 -5.3540001 -1.951 0.52999997
-11.883 -5.3779998 -1.946 0.64999998
-11.873 -5.4180002 -1.947 0.51999998
-11.886 -5.447 -1.951 0.25999999
-11.828 -5.4650002 -1.944 0.25
-11.782 -5.4889998 -1.939 0.28999999
-11.743 -5.5159998 -1.9349999 0.37
-11.692 -5.5370002 -1.929 0.34
-11.625 -5.5489998 -1.92 0.34
-11.558 -5.5619998 -1.9119999 0.34
-11.519 -5.5650001 -1.906 0.34999999
-11.467 -5.585 -1.9 0.33000001
-11.397 -5.5949998 -1.891 0.33000001
-11.354 -5.618 -1.887 0.36000001
-11.358 -5.664 -1.89 0.31999999
-11.264 -5.6620002 -1.877 0.31999999
-11.204 -5.6760001 -1.869 0.37
-11.199 -5.6950002 -1.87 0.33000001
-11.247 -5.7649999 -1.882 0.34
-11.261 -5.816 -1.887 0.28
-11.227 -5.8429999 -1.885 0.38
-11.194 -5.8709998 -1.882 0.30000001
-11.15 -5.8920002 -1.877 0.30000001
-11.185 -5.9559999 -1.887 0.37
-11.153 -5.9619999 -1.883 0.31
-11.105 -5.9809999 -1.878 0.38
-11.122 -6.0349998 -1.8839999 0.28999999
-11.124 -6.0819998 -1.888 0.36000001
-11.12 -6.125 -1.891 0.34
-11.062 -6.138 -1.8839999 0.30000001
-11.039 -6.171 -1.883 0.37
-11.174 -6.27 -1.909 0.34
-11.149 -6.302 -1.908 0.36000001
-10.974 -6.2490001 -1.88 0.30000001
-11.081 -6.3559999 -1.903 0.28999999
-11.137 -6.434 -1.9170001 0.34
-11.106 -6.4629998 -1.915 0.34
-11.024 -6.4619999 -1.904 0.27000001
-11.094 -6.527 -1.919 0.41
-10.858 -6.4330001 -1.8789999 0.25
-11.002 -6.566 -1.909 0.36000001
-10.96 -6.5869999 -1.905 0.28999999
-10.905 -6.6009998 -1.899 0.34
-11.021 -6.7189999 -1.924 0.28
-11.076 -6.776 -1.937 0.34999999
-11.011 -6.7839999 -1.929 0.31
-11.15 -6.9190001 -1.959 0.30000001
-11.145 -6.9640002 -1.962 0.30000001
-11.213 -7.0560002 -1.979 0.23
-11.2 -7.0970001 -1.98 0.34999999
-11.207 -7.151 -1.9859999 0.28999999
-11.161 -7.1459999 -1.979 0.37
-11.047 -7.1220002 -1.962 0.36000001
-10.917 -7.0869999 -1.942 0.23
-10.938 -7.1490002 -1.95 0.34
-10.915 -7.184 -1.95 0.34
-10.903 -7.2249999 -1.952 0.38
-10.824 -7.2210002 -1.941 0.28999999
-10.772 -7.211 -1.933 0.34999999
-10.734 -7.2350001 -1.9299999 0.33000001
-10.746 -7.2919998 -1.937 0.33000001
-10.725 -7.3270001 -1.937 0.38999999
-10.63 -7.3109999 -1.924 0.30000001
-10.578 -7.3239999 -1.918 0.31999999
-10.542 -7.348 -1.915 0.31999999
-10.53 -7.3649998 -1.915 0.41
-10.488 -7.3839998 -1.9119999 0.30000001
-10.448 -7.4050002 -1.908 0.38
-10.478 -7.4759998 -1.919 0.33000001
-10.422 -7.4860001 -1.913 0.30000001
-10.4 -7.52 -1.913 0.34
-10.374 -7.5500002 -1.9119999 0.34
-10.317 -7.5339999 -1.903 0.34
-10.263 -7.5440001 -1.897 0.34
-10.281 -7.6069999 -1.906 0.36000001
-10.217 -7.6090002 -1.898 0.31999999
-10.204 -7.6500001 -1.9 0.34
-10.185 -7.6849999 -1.901 0.30000001
-10.169 -7.723 -1.903 0.34999999
-10.191 -7.7659998 -1.909 0.43000001
-10.195 -7.8189998 -1.915 0.37
-10.07 -7.7740002 -1.895 0.27000001
-10.085 -7.836 -1.903 0.25
-9.9449997 -7.777 -1.88 0.34
-9.9049997 -7.796 -1.876 0.38
-9.9250002 -7.8629999 -1.886 0.38999999
-9.9209995 -7.8839998 -1.887 0.38
-9.7080002 -7.7649999 -1.849 0.25
-9.8319998 -7.9159999 -1.8789999 0.28999999
-9.8990002 -8.0209999 -1.898 0.28
-9.9169998 -8.0869999 -1.9069999 0.37
-9.8109999 -8.052 -1.89 0.41999999
-9.632 -7.9299998 -1.8559999 0.20999999
-9.7969999 -8.118 -1.895 0.30000001
-9.7580004 -8.1379995 -1.892 0.34
-9.8030005 -8.2279997 -1.9069999 0.43000001
-9.6359997 -8.1389999 -1.878 0.28999999
-9.6730003 -8.2229996 -1.891 0.30000001
-9.6639996 -8.2670002 -1.8940001 0.38
-9.6040001 -8.2419996 -1.885 0.31
-9.5889997 -8.2819996 -1.887 0.34
-9.5139999 -8.2690001 -1.876 0.30000001
-9.3409996 -8.1700001 -1.845 0.23999999
-9.4790001 -8.3439999 -1.88 0.34
-9.3719997 -8.302 -1.863 0.36000001
-9.4250002 -8.4020004 -1.88 0.33000001
-9.54 -8.5319996 -1.9069999 0.23
-9.6829996 -8.7150002 -1.944 0.36000001
-9.618 -8.7110004 -1.9349999 0.27000001
-9.5790005 -8.7309999 -1.933 0.41
-9.5419998 -8.7530003 -1.931 0.30000001
-9.5030003 -8.7720003 -1.929 0.34999999
-9.441 -8.7690001 -1.921 0.31999999
-9.4209995 -8.7790003 -1.92 0.36000001
-9.3809996 -8.7959995 -1.9170001 0.30000001
-9.3459997 -8.8190002 -1.915 0.28999999
-9.3330002 -8.8620005 -1.919 0.43000001
-9.2799997 -8.868 -1.913 0.31
-9.2259998 -8.8710003 -1.9069999 0.31999999
-9.2259998 -8.927 -1.913 0.41999999
-9.2329998 -8.9630003 -1.918 0.28
-9.2440004 -9.0299997 -1.927 0.41999999
-9.0909996 -8.9359999 -1.899 0.25
-9.1049995 -9.0059996 -1.908 0.38
-9.0190001 -8.9770002 -1.896 0.28
-9.0290003 -9.0430002 -1.904 0.34
-8.9969997 -9.0690002 -1.903 0.30000001
-9 -9.1000004 -1.9069999 0.28999999
-8.9239998 -9.0799999 -1.897 0.34
-8.875 -9.0869999 -1.892 0.38
-8.8610001 -9.1300001 -1.895 0.41
-8.8109999 -9.1350002 -1.89 0.34999999
-8.7889996 -9.1700001 -1.892 0.36000001
-8.7309999 -9.1680002 -1.885 0.23999999
-8.7580004 -9.224 -1.895 0.44
-8.6560001 -9.1739998 -1.878 0.30000001
-8.6169996 -9.191 -1.876 0.25999999
-8.5740004 -9.2019997 -1.872 0.44999999
-8.4379997 -9.1129999 -1.847 0.34
-8.4540005 -9.1890001 -1.858 0.25999999
-8.5019999 -9.3000002 -1.876 0.34
-8.3760004 -9.191 -1.849 0.34999999
-8.3590002 -9.2299995 -1.852 0.34
-8.3050003 -9.2279997 -1.846 0.34
-8.2530003 -9.2279997 -1.841 0.31999999
-8.2349997 -9.2670002 -1.844 0.31999999
-8.2150002 -9.3030005 -1.846 0.36000001
-8.1960001 -9.3409996 -1.848 0.38999999
-8.177 -9.3479996 -1.847 0.31999999
-8.1700001 -9.3999996 -1.853 0.34
-8.1160002 -9.3979998 -1.847 0.31999999
-8.0480003 -9.3780003 -1.837 0.30000001
-8.0139999 -9.3970003 -1.836 0.41
-7.9920001 -9.4309998 -1.8380001 0.30000001
-7.98 -9.4469995 -1.8380001 0.38999999
-7.8969998 -9.408 -1.825 0.28
-7.921 -9.4980001 -1.839 0.41999999
-7.8309999 -9.4499998 -1.824 0.25
-7.8239999 -9.5019999 -1.829 0.46000001
-7.7189999 -9.4350004 -1.811 0.27000001
-7.7329998 -9.5129995 -1.822 0.34
-7.7129998 -9.5190001 -1.8200001 0.36000001
-7.6690001 -9.526 -1.817 0.36000001
-7.652 -9.5649996 -1.8200001 0.36000001
-7.632 -9.6020002 -1.822 0.43000001
-7.5149999 -9.5159998 -1.8 0.23
-7.5830002 -9.665 -1.826 0.34999999
-7.5479999 -9.6829996 -1.824 0.33000001
-7.5440001 -9.7089996 -1.827 0.30000001
-7.513 -9.7320004 -1.827 0.38999999
-7.3829999 -9.6260004 -1.801 0.34
-7.3829999 -9.6879997 -1.809 0.31
-7.3509998 -9.71 -1.809 0.34999999
-7.3569999 -9.7819996 -1.818 0.31999999
-7.3709998 -9.8649998 -1.83 0.36000001
-7.3260002 -9.8369999 -1.822 0.33000001
-7.322 -9.8959999 -1.83 0.34999999
-7.3390002 -9.9849997 -1.8430001 0.36000001
-7.2659998 -9.9499998 -1.831 0.34
-7.2259998 -9.9619999 -1.829 0.31
-7.1890001 -9.9759998 -1.8279999 0.41
-7.145 -9.9809999 -1.824 0.28
-7.152 -10.025 -1.83 0.36000001
-7.1440001 -10.079 -1.837 0.34
-7.0929999 -10.074 -1.831 0.31999999
-7.0970001 -10.148 -1.841 0.27000001
-7.033 -10.123 -1.832 0.47999999
-6.9569998 -10.082 -1.8200001 0.25999999
-6.9089999 -10.079 -1.8150001 0.33000001
-6.9460001 -10.169 -1.83 0.38
-6.7649999 -9.9689999 -1.788 0.31999999
-6.7600002 -10.03 -1.796 0.33000001
-6.776 -10.122 -1.809 0.31
-6.8109999 -10.245 -1.8279999 0.30000001
-6.8330002 -10.349 -1.844 0.44
-6.6830001 -10.155 -1.8049999 0.27000001
-6.441 -9.8529997 -1.744 0.36000001
-6.677 -10.286 -1.822 0.28999999
-6.6729999 -10.352 -1.831 0.40000001
-6.5479999 -10.228 -1.803 0.28999999
-6.5100002 -10.239 -1.801 0.30000001
-6.4819999 -10.266 -1.803 0.31999999
-6.4619999 -10.269 -1.801 0.37
-6.4429998 -10.311 -1.806 0.36000001
-6.3709998 -10.268 -1.794 0.38999999
-6.369 -10.336 -1.803 0.37
-6.348 -10.377 -1.806 0.36000001
-6.2620001 -10.307 -1.79 0.34
-6.2150002 -10.303 -1.785 0.34
-6.2379999 -10.379 -1.798 0.36000001
-6.2140002 -10.412 -1.8 0.37
-6.178 -10.426 -1.799 0.34999999
-6.1500001 -10.454 -1.801 0.36000001
-6.1020002 -10.448 -1.796 0.25999999
-6.0240002 -10.388 -1.7819999 0.34
-6.0219998 -10.46 -1.791 0.38
-5.9829998 -10.43 -1.784 0.34
-5.9229999 -10.401 -1.775 0.33000001
-5.9000001 -10.436 -1.779 0.37
-5.888 -10.493 -1.785 0.38
-5.8730001 -10.542 -1.791 0.33000001
-5.8449998 -10.571 -1.793 0.41
-5.7909999 -10.551 -1.786 0.36000001
-5.8150001 -10.635 -1.8 0.38999999
-5.75 -10.594 -1.789 0.31999999
-5.7340002 -10.645 -1.795 0.37
-5.7069998 -10.675 -1.7970001 0.34
-5.6939998 -10.732 -1.804 0.41
-5.6560001 -10.741 -1.802 0.34999999
-5.6110001 -10.738 -1.799 0.37
-5.592 -10.743 -1.798 0.36000001
-5.5560002 -10.755 -1.7970001 0.36000001
-5.507 -10.743 -1.7920001 0.34
-5.4749999 -10.763 -1.7920001 0.36000001
-5.4320002 -10.763 -1.789 0.36000001
-5.4000001 -10.783 -1.79 0.36000001
-5.3850002 -10.839 -1.7970001 0.30000001
-5.3569999 -10.825 -1.793 0.38999999
-5.3140001 -10.824 -1.79 0.34
-5.296 -10.872 -1.795 0.36000001
-5.217 -10.796 -1.779 0.36000001
-5.2210002 -10.893 -1.793 0.34999999
-5.1950002 -10.925 -1.796 0.43000001
-5.1799998 -10.984 -1.803 0.31
-5.1300001 -10.923 -1.791 0.36000001
-5.1550002 -11.066 -1.813 0.34999999
-5.138 -11.122 -1.8200001 0.36000001
-5.0929999 -11.114 -1.816 0.30000001
-5.0809999 -11.181 -1.825 0.31
-5.0580001 -11.226 -1.83 0.38
-5.013 -11.17 -1.819 0.31
-5.0440001 -11.336 -1.845 0.38
-4.9959998 -11.325 -1.84 0.31999999
-4.9299998 -11.27 -1.8279999 0.25999999
-4.9239998 -11.354 -1.84 0.38999999
-4.868 -11.32 -1.832 0.27000001
-4.7789998 -11.21 -1.8099999 0.41
-4.7470002 -11.183 -1.804 0.33000001
-4.73 -11.242 -1.812 0.25
-4.704 -11.28 -1.816 0.34
-4.6300001 -11.2 -1.799 0.28999999
-4.573 -11.161 -1.79 0.36000001
-4.5500002 -11.207 -1.796 0.31
-4.4699998 -11.107 -1.776 0.34
-4.467 -11.151 -1.7819999 0.37
-4.5 -11.338 -1.812 0.28999999
-4.473 -11.374 -1.816 0.31
-4.4400001 -11.395 -1.817 0.41
-4.3860002 -11.361 -1.809 0.28999999
-4.0489998 -10.583 -1.674 0.20999999
-4.4109998 -11.645 -1.852 0.30000001
-4.3460002 -11.528 -1.831 0.33000001
-4.3049998 -11.527 -1.829 0.33000001
-4.1939998 -11.339 -1.795 0.28
-4.0159998 -10.96 -1.728 0.33000001
-4.072 -11.224 -1.771 0.25999999
-4.033 -11.227 -1.7690001 0.34999999
-4.0419998 -11.308 -1.7819999 0.31999999
-3.971 -11.218 -1.7640001 0.28999999
-3.914 -11.169 -1.7539999 0.36000001
-3.9030001 -11.252 -1.766 0.25999999
-3.911 -11.391 -1.7869999 0.33000001
-3.8169999 -11.231 -1.758 0.34
-3.7 -10.998 -1.717 0.28
-3.6900001 -11.024 -1.721 0.28
-3.688 -11.137 -1.738 0.34999999
-3.566 -10.882 -1.693 0.38999999
-3.631 -11.201 -1.745 0.28999999
-3.5810001 -11.164 -1.737 0.27000001
-3.4619999 -10.909 -1.692 0.34999999
-3.4619999 -11.03 -1.71 0.27000001
-3.602 -11.543 -1.795 0.31
-3.55 -11.503 -1.786 0.28999999
-3.431 -11.24 -1.7410001 0.33000001
-3.3529999 -11.111 -1.7180001 0.14
-3.405 -11.413 -1.766 0.20999999
-3.0940001 -10.485 -1.6109999 0.38999999
-3.3150001 -11.373 -1.756 0.25
-3.2539999 -11.226 -1.7309999 0.25
-2.997 -10.456 -1.602 0.20999999
-2.964 -10.467 -1.602 0.38
-2.9560001 -10.564 -1.617 0.28
-2.9319999 -10.607 -1.622 0.23
-2.954 -10.822 -1.656 0.44999999
-2.8710001 -10.646 -1.626 0.28
-2.8150001 -10.502 -1.601 0.34999999
-2.7780001 -10.496 -1.599 0.27000001
-2.7390001 -10.483 -1.595 0.41999999
-2.756 -10.687 -1.627 0.28999999
-2.8440001 -11.178 -1.706 0.28999999
-2.8610001 -11.398 -1.7410001 0.25999999
-2.8310001 -11.353 -1.733 0.34999999
-2.753 -11.185 -1.704 0.23
-2.664 -10.971 -1.6670001 0.44
-2.5899999 -10.812 -1.64 0.22
-2.596 -10.991 -1.668 0.43000001
-2.5669999 -11.024 -1.6720001 0.23
-2.5280001 -11.013 -1.669 0.43000001
-2.4960001 -10.951 -1.658 0.38
-2.457 -10.94 -1.655 0.31999999
-2.421 -10.94 -1.654 0.36000001
-2.3929999 -10.974 -1.658 0.38
-2.369 -11.034 -1.6670001 0.38
-2.345 -11.09 -1.675 0.47
-2.29 -11.002 -1.659 0.27000001
-2.306 -11.167 -1.6849999 0.38
-2.266 -11.15 -1.682 0.41999999
-2.1989999 -10.997 -1.656 0.25999999
-2.109 -10.717 -1.609 0.36000001
-2.151 -11.121 -1.673 0.27000001
-2.043 -10.737 -1.61 0.30000001
-2.0150001 -10.777 -1.6160001 0.40000001
-2.017 -10.883 -1.632 0.34999999
-2.036 -11.187 -1.6799999 0.34
-1.977 -11.057 -1.658 0.28999999
-1.9529999 -11.123 -1.668 0.28999999
-1.916 -11.12 -1.6670001 0.44
-1.8660001 -11.036 -1.652 0.38999999
-1.837 -11.077 -1.658 0.31999999
-1.813 -11.039 -1.651 0.25999999
-1.78 -11.054 -1.653 0.5
-1.689 -10.699 -1.595 0.30000001
-1.714 -11.083 -1.656 0.36000001
-1.595 -10.529 -1.566 0.20999999
-1.5420001 -10.396 -1.544 0.51999998
-1.512 -10.3 -1.528 0.31999999
-1.483 -10.33 -1.5319999 0.28
-1.461 -10.409 -1.544 0.36000001
-1.419 -10.345 -1.533 0.33000001
-1.397 -10.434 -1.546 0.47999999
-1.416 -10.836 -1.61 0.31
-1.393 -10.936 -1.625 0.33000001
-1.377 -10.944 -1.626 0.36000001
-1.357 -11.07 -1.646 0.34999999
-1.293 -10.825 -1.6059999 0.33000001
-1.268 -10.906 -1.618 0.40000001
-1.2359999 -10.929 -1.6210001 0.28999999
-1.197 -10.894 -1.615 0.37
-1.147 -10.744 -1.591 0.38999999
-1.138 -10.825 -1.603 0.36000001
-1.097 -10.752 -1.591 0.36000001
-1.0599999 -10.728 -1.587 0.28
-1.03 -10.766 -1.592 0.25
-1.011 -10.941 -1.619 0.41
-0.977 -10.938 -1.619 0.37
-0.93800002 -10.886 -1.61 0.44999999
-0.94700003 -11.216 -1.6619999 0.27000001
-0.91799998 -11.298 -1.675 0.34999999
-0.81 -10.343 -1.522 0.25999999
-0.773 -10.285 -1.512 0.34999999
-0.77100003 -10.723 -1.582 0.30000001
-0.70999998 -10.305 -1.515 0.25
-0.67699999 -10.052 -1.475 0.34999999
-0.66399997 -10.35 -1.522 0.30000001
-0.625 -10.251 -1.506 0.23
-0.58700001 -10.145 -1.488 0.38
-0.55500001 -10.144 -1.488 0.25999999
-0.53600001 -10.407 -1.529 0.43000001
-0.50599998 -10.475 -1.54 0.41999999
-0.51300001 -10.993 -1.622 0.23999999
-0.463 -10.616 -1.562 0.34
-0.42899999 -10.609 -1.561 0.25
-0.41999999 -11.299 -1.67 0.2
-0.38499999 -11.309 -1.6720001 0.47
-0.34599999 -11.195 -1.653 0.25999999
-0.31200001 -11.267 -1.665 0.38
-0.29100001 -11.096 -1.637 0.23
-0.264 -11.48 -1.698 0.43000001
-0.223 -11.194 -1.653 0.31
-0.18099999 -10.717 -1.577 0.30000001
-0.155 -11.415 -1.688 0.25999999
-0.117 -11.178 -1.65 0.28999999
-0.082999997 -11.319 -1.6720001 0.23999999
-0.064999998 -11.404 -1.686 0.37
-0.028999999 -11.479 -1.698 0.40000001
0.0070000002 -11.406 -1.686 0.23999999
0.043000001 -11.481 -1.698 0.34999999
0.077 -11.311 -1.671 0.25
0.111 -11.151 -1.646 0.34999999
0.12899999 -11.2 -1.653 0.34999999
0.167 -11.338 -1.675 0.30000001
0.198 -11.145 -1.645 0.31
0.234 -11.147 -1.645 0.30000001
0.26300001 -10.943 -1.613 0.34999999
0.29800001 -10.963 -1.6160001 0.25
0.34 -11.193 -1.653 0.38
0.34799999 -10.897 -1.6059999 0.2
0.37200001 -10.625 -1.563 0.43000001
0.414 -10.841 -1.598 0.25999999
0.45100001 -10.903 -1.608 0.31999999
0.47499999 -10.686 -1.573 0.27000001
0.50199997 -10.553 -1.552 0.43000001
0.56 -11.028 -1.628 0.25
0.58499998 -11.156 -1.649 0.38
0.616 -11.097 -1.64 0.30000001
0.65499997 -11.148 -1.648 0.28999999
0.68800002 -11.116 -1.643 0.44
0.70999998 -10.933 -1.614 0.23999999
0.75700003 -11.11 -1.643 0.41999999
0.72799999 -10.233 -1.5039999 0.31
0.81199998 -11.134 -1.647 0.23
0.84600002 -11.115 -1.645 0.38
0.87599999 -11.061 -1.637 0.31999999
0.91399997 -11.094 -1.642 0.30000001
0.93099999 -10.882 -1.609 0.36000001
0.95899999 -10.816 -1.599 0.37
0.97600001 -10.811 -1.598 0.41
1.013 -10.839 -1.603 0.31999999
1.05 -10.871 -1.609 0.47999999
1.072 -10.748 -1.59 0.28999999
1.094 -10.631 -1.572 0.37
1.1569999 -10.898 -1.615 0.28999999
1.182 -10.816 -1.603 0.33000001
1.207 -10.885 -1.614 0.41
1.2460001 -10.918 -1.62 0.30000001
1.273 -10.856 -1.61 0.28999999
1.314 -10.912 -1.62 0.38999999
1.358 -10.979 -1.631 0.33000001
1.377 -10.859 -1.613 0.25999999
1.4119999 -10.862 -1.614 0.43000001
1.427 -10.842 -1.6109999 0.37
1.461 -10.838 -1.6109999 0.31999999
1.484 -10.751 -1.598 0.37
1.5190001 -10.756 -1.6 0.38
1.546 -10.708 -1.5930001 0.31999999
1.594 -10.795 -1.608 0.37
1.625 -10.776 -1.605 0.31
1.6390001 -10.752 -1.602 0.41999999
1.682 -10.808 -1.612 0.31999999
1.681 -10.586 -1.577 0.31999999
1.7309999 -10.678 -1.5930001 0.37
1.771 -10.712 -1.599 0.37
1.804 -10.706 -1.599 0.34
1.802 -10.592 -1.581 0.38999999
1.822 -10.511 -1.569 0.34999999
1.875 -10.618 -1.587 0.33000001
1.895 -10.536 -1.575 0.34999999
1.952 -10.66 -1.596 0.38
1.992 -10.689 -1.601 0.37
1.999 -10.543 -1.579 0.34
2.062 -10.78 -1.618 0.43000001
2.052 -10.553 -1.582 0.31999999
2.0899999 -10.567 -1.585 0.36000001
2.0869999 -10.387 -1.557 0.25999999
2.201 -10.771 -1.62 0.38999999
2.2290001 -10.735 -1.6160001 0.28
2.27 -10.766 -1.622 0.38
2.3369999 -10.994 -1.66 0.28
2.3150001 -10.728 -1.618 0.33000001
2.3529999 -10.738 -1.62 0.30000001
2.3789999 -10.698 -1.615 0.34
2.414 -10.697 -1.6160001 0.36000001
2.4489999 -10.695 -1.617 0.41
2.5050001 -10.781 -1.632 0.33000001
2.503 -10.7 -1.62 0.38
2.5090001 -10.575 -1.601 0.36000001
2.5829999 -10.736 -1.628 0.33000001
2.628 -10.774 -1.636 0.31
2.6500001 -10.718 -1.628 0.34
2.6659999 -10.64 -1.617 0.34
2.7320001 -10.828 -1.648 0.38
2.7690001 -10.832 -1.65 0.36000001
2.8239999 -10.904 -1.663 0.37
2.8469999 -10.853 -1.6569999 0.37
2.858 -10.756 -1.642 0.36000001
2.9260001 -10.875 -1.663 0.34
2.95 -10.828 -1.6569999 0.37
2.96 -10.796 -1.652 0.38999999
2.9879999 -10.768 -1.649 0.38
3.039 -10.819 -1.659 0.37
3.0869999 -10.857 -1.6670001 0.34
3.119 -10.842 -1.666 0.36000001
3.135 -10.769 -1.656 0.36000001
3.1630001 -10.739 -1.652 0.31999999
3.171 -10.705 -1.648 0.44999999
3.132 -10.455 -1.608 0.34
3.043 -10.047 -1.5420001 0.25
3.21 -10.475 -1.614 0.30000001
3.2920001 -10.623 -1.641 0.38
3.332 -10.633 -1.6440001 0.40000001
3.3299999 -10.51 -1.625 0.30000001
3.4200001 -10.736 -1.664 0.41999999
3.427 -10.643 -1.65 0.31999999
3.483 -10.699 -1.6619999 0.34
3.4809999 -10.581 -1.6440001 0.34999999
3.513 -10.567 -1.643 0.38
3.5569999 -10.587 -1.648 0.36000001
3.6359999 -10.765 -1.679 0.41
3.6630001 -10.735 -1.676 0.38
3.701 -10.735 -1.678 0.36000001
3.7219999 -10.687 -1.6720001 0.37
3.727 -10.596 -1.658 0.28999999
3.766 -10.599 -1.661 0.38
3.783 -10.542 -1.653 0.36000001
3.802 -10.544 -1.655 0.40000001
3.865 -10.613 -1.668 0.38
3.891 -10.579 -1.665 0.28
3.938 -10.606 -1.671 0.34999999
3.983 -10.623 -1.676 0.38
4.0180001 -10.614 -1.677 0.38
4.006 -10.485 -1.6569999 0.38999999
4.0599999 -10.575 -1.673 0.31
4.119 -10.628 -1.6849999 0.46000001
4.1129999 -10.516 -1.668 0.23
4.1950002 -10.626 -1.689 0.31
4.2389998 -10.638 -1.693 0.44999999
4.2859998 -10.66 -1.699 0.38
4.349 -10.719 -1.712 0.30000001
4.3740001 -10.732 -1.715 0.36000001
4.3930001 -10.682 -1.709 0.47999999
4.3540001 -10.495 -1.679 0.28999999
4.4089999 -10.534 -1.688 0.28999999
4.5100002 -10.678 -1.716 0.36000001
4.5219998 -10.615 -1.707 0.47999999
4.5599999 -10.657 -1.716 0.28
4.651 -10.775 -1.738 0.36000001
4.684 -10.758 -1.738 0.34
4.7189999 -10.746 -1.738 0.41
4.7470002 -10.72 -1.737 0.38999999
4.7399998 -10.613 -1.721 0.40000001
4.7020001 -10.442 -1.693 0.28999999
4.756 -10.517 -1.7079999 0.28
4.823 -10.575 -1.721 0.34
4.7579999 -10.347 -1.683 0.34999999
4.776 -10.301 -1.678 0.36000001
4.7800002 -10.227 -1.6670001 0.34
4.849 -10.289 -1.681 0.36000001
4.8969998 -10.306 -1.687 0.30000001
4.9549999 -10.387 -1.702 0.31999999
4.9239998 -10.24 -1.679 0.41
4.9829998 -10.28 -1.689 0.36000001
5.0640001 -10.363 -1.706 0.40000001
5.066 -10.285 -1.6950001 0.33000001
5.1589999 -10.391 -1.717 0.37
5.1630001 -10.317 -1.707 0.34
5.1199999 -10.192 -1.686 0.28999999
5.2179999 -10.305 -1.709 0.34
5.2059999 -10.202 -1.694 0.37
5.1789999 -10.072 -1.673 0.36000001
5.2589998 -10.148 -1.6900001 0.34999999
5.25 -10.055 -1.676 0.25999999
5.3369999 -10.181 -1.7 0.37
5.3270001 -10.086 -1.686 0.31
5.4060001 -10.158 -1.702 0.41
5.4060001 -10.081 -1.691 0.30000001
5.4679999 -10.12 -1.701 0.41
5.3709998 -9.8669996 -1.659 0.25
5.5029998 -10.033 -1.692 0.28999999
5.5 -9.9899998 -1.686 0.40000001
5.4770002 -9.8760004 -1.668 0.30000001
5.5300002 -9.8970003 -1.675 0.38
5.487 -9.7489996 -1.651 0.31999999
5.592 -9.8620005 -1.675 0.28
5.6700001 -9.927 -1.6900001 0.33000001
5.7010002 -9.9090004 -1.6900001 0.33000001
5.723 -9.9119997 -1.692 0.34999999
5.7280002 -9.8479996 -1.684 0.28999999
5.7459998 -9.809 -1.6799999 0.38
5.7119999 -9.6809998 -1.66 0.33000001
5.8179998 -9.79 -1.683 0.34999999
5.8649998 -9.7989998 -1.688 0.34999999
5.8140001 -9.6450005 -1.663 0.34
5.79 -9.5719995 -1.651 0.34
5.8249998 -9.5620003 -1.653 0.36000001
5.8239999 -9.493 -1.643 0.30000001
5.8670001 -9.4949999 -1.647 0.37
5.8829999 -9.4549999 -1.643 0.33000001
5.9590001 -9.5100002 -1.6569999 0.41
5.9650002 -9.4870005 -1.654 0.37
6.0009999 -9.4779997 -1.656 0.30000001
6.0440001 -9.4790001 -1.66 0.41
6.0799999 -9.4700003 -1.6619999 0.34
6.0050001 -9.29 -1.631 0.30000001
6.0570002 -9.3059998 -1.638 0.33000001
6.1799998 -9.4289999 -1.665 0.46000001
6.0869999 -9.2559996 -1.6339999 0.25
6.0900002 -9.1969995 -1.626 0.38999999
6.1820002 -9.2729998 -1.645 0.34999999
6.2270002 -9.2770004 -1.649 0.36000001
6.1420002 -9.0889997 -1.617 0.23999999
6.2449999 -9.1789999 -1.638 0.50999999
6.079 -8.8760004 -1.5829999 0.23
6.0289998 -8.7740002 -1.5650001 0.25
6.3210001 -9.1359997 -1.6390001 0.38
6.3520002 -9.1190004 -1.64 0.38999999
5.4029999 -7.7119999 -1.37 0.20999999
5.415 -7.678 -1.367 0.55000001
6.4250002 -9.0410004 -1.636 0.40000001
6.402 -8.9490004 -1.622 0.25
6.4439998 -8.9770002 -1.63 0.51999998
6.2280002 -8.6210003 -1.564 0.2
6.5110002 -8.9530001 -1.633 0.36000001
6.5469999 -8.9420004 -1.635 0.34
6.625 -8.9890003 -1.648 0.41
6.5939999 -8.8889999 -1.632 0.38999999
6.4720001 -8.6680002 -1.5930001 0.28999999
6.3769999 -8.5139999 -1.564 0.28
6.4190001 -8.5150003 -1.568 0.30000001
6.6999998 -8.8269997 -1.635 0.38
6.6420002 -8.6949997 -1.612 0.30000001
6.6129999 -8.6009998 -1.598 0.34999999
6.579 -8.5019999 -1.582 0.28999999
6.6209998 -8.5270004 -1.589 0.34999999
6.652 -8.5129995 -1.59 0.34
6.6799998 -8.493 -1.591 0.30000001
6.7420001 -8.5170002 -1.6 0.28999999
