# .PCD v0.7 - Point Cloud Data file format
VERSION 0.7
FIELDS x y z intensity
SIZE 4 4 4 4
TYPE F F F F
COUNT 1 1 1 1
WIDTH 1378
HEIGHT 1
VIEWPOINT 0 0 0 1 0 0 0
POINTS 1378
DATA ascii
6.7319999 -8.3210001 -0.53399998 0.28999999
6.5469999 -8.0649996 -0.51300001 0.34
6.5619998 -8.0319996 -0.51200002 0.41999999
6.5910001 -8.0159998 -0.51200002 0.55000001
6.5510001 -7.915 -0.505 0
9.4090004 -11.315 -0.81 0.14
6.6820002 -7.9720001 -0.514 0.2
6.5 -7.7290001 -0.493 0.34
6.5679998 -7.7600002 -0.49700001 0.25999999
6.5809999 -7.7259998 -0.49599999 0.28999999
6.8210001 -7.9590001 -0.51899999 0.38999999
6.6989999 -7.717 -0.50099999 0.36000001
8.5699997 -9.8199997 -0.69499999 0.41999999
7.3590002 -8.401 -0.56599998 0.25
7.54 -8.5530005 -0.58200002 0.19
8.5480003 -9.6409998 -0.68400002 0.34999999
7.4330001 -8.3249998 -0.56599998 0.5
9.8579998 -10.985 -0.81300002 0.2
7.6700001 -8.4840002 -0.58499998 0.20999999
8.4580002 -9.3000002 -0.66299999 0.36000001
7.395 -8.1009998 -0.55299997 0.41
7.7680001 -8.4580002 -0.588 0.2
7.4499998 -8.059 -0.55299997 0.36000001
7.4980001 -8.0600004 -0.55500001 0.25
7.5289998 -8.0430002 -0.55599999 0.57999998
7.5580001 -8.0229998 -0.55599999 0.31
7.6160002 -8.0340004 -0.56 0.49000001
8.3660002 -8.7729998 -0.63200003 0.38
7.8109999 -8.1630001 -0.57499999 0.14
7.7969999 -8.0970001 -0.57099998 0.23
7.8080001 -8.0579996 -0.56999999 0.60000002
7.9749999 -8.1789999 -0.58399999 0.23
9.724 -9.9180002 -0.75400001 0.34
8.375 -8.4829998 -0.61799997 0.22
9.9490004 -10.022 -0.76899999 0.15000001
8.4709997 -8.5 -0.62400001 0.52999997
8.5690002 -8.5459995 -0.63099998 0.43000001
9.1149998 -9.0349998 -0.68099999 0.41
8.6540003 -8.5229998 -0.634 0.18000001
8.5509996 -8.368 -0.62099999 0.47999999
8.6230001 -8.3859997 -0.625 0.23
8.7119999 -8.4460001 -0.63300002 0.51999998
8.698 -8.3800001 -0.62900001 0.34
8.7559996 -8.3830004 -0.63200003 0.56999999
8.7959995 -8.368 -0.63300002 0.33000001
8.9429998 -8.4549999 -0.64499998 0.28999999
8.9790001 -8.4359999 -0.64600003 0.34999999
8.9849997 -8.3879995 -0.64399999 0.50999999
8.9919996 -8.3690004 -0.64300001 0.33000001
9.0240002 -8.3459997 -0.64399999 0.34999999
9.099 -8.3620005 -0.648 0.51999998
9.1400003 -8.3470001 -0.64899999 0.44
9.1850004 -8.3360004 -0.65100002 0.38
9.2700005 -8.3599997 -0.65700001 0.27000001
9.3109999 -8.3439999 -0.65799999 0.69
9.3850002 -8.3839998 -0.66399997 0.28999999
9.4499998 -8.3889999 -0.667 0.44999999
9.4709997 -8.3540001 -0.667 0.41999999
9.5179996 -8.3430004 -0.66900003 0.34
9.5790005 -8.3430004 -0.67199999 0.37
9.6470003 -8.3500004 -0.676 0.41
9.7030001 -8.3459997 -0.67799997 0.44
9.7469997 -8.3559999 -0.68099999 0.31999999
9.8050003 -8.3529997 -0.68400002 0.38999999
9.8599997 -8.3470001 -0.68699998 0.38999999
9.9130001 -8.3389997 -0.68900001 0.44999999
9.9910002 -8.3509998 -0.69400001 0.33000001
10.065 -8.3590002 -0.69800001 0.34
10.114 -8.3470001 -0.69999999 0.40000001
10.18 -8.3739996 -0.70499998 0.41
10.235 -8.3660002 -0.70700002 0.30000001
10.294 -8.3599997 -0.70999998 0.66000003
10.412 -8.4020004 -0.71799999 0.22
11.546 -9.2620001 -0.81599998 0.2
10.538 -8.3950005 -0.72500002 0.34
10.523 -8.3299999 -0.72100002 0.63999999
10.633 -8.3900003 -0.73000002 0.31999999
10.619 -8.3240004 -0.72600001 0.33000001
10.758 -8.3800001 -0.736 0.51999998
10.847 -8.3950005 -0.74199998 0.43000001
10.858 -8.3479996 -0.74000001 0.33000001
10.974 -8.3830004 -0.74800003 0.25999999
10.971 -8.3260002 -0.745 0.44
11.015 -8.3330002 -0.74800003 0.44
11.078 -8.3260002 -0.75099999 0.44999999
11.154 -8.3280001 -0.75599998 0.38
11.22 -8.323 -0.759 0.33000001
11.276 -8.3100004 -0.76200002 0.54000002
11.354 -8.3120003 -0.76599997 0.28
11.414 -8.3009996 -0.76899999 0.44999999
11.48 -8.3219995 -0.773 0.47999999
11.579 -8.3389997 -0.77999997 0.41
11.65 -8.335 -0.78299999 0.22
11.664 -8.2889996 -0.78200001 0.61000001
11.838 -8.3570004 -0.79500002 0.27000001
11.81 -8.2819996 -0.79000002 0.52999997
11.846 -8.2519999 -0.79100001 0.27000001
11.988 -8.323 -0.80199999 0.55000001
12.096 -8.342 -0.80900002 0.28
12.144 -8.3190002 -0.81099999 0.66000003
12.255 -8.3389997 -0.81800002 0.34
12.258 -8.2849998 -0.81599998 0.23
12.298 -8.2559996 -0.81699997 0.51999998
12.403 -8.2700005 -0.824 0.38999999
12.511 -8.3140001 -0.83099997 0.36000001
12.62 -8.3299999 -0.838 0.38
12.691 -8.3190002 -0.84200001 0.38
12.767 -8.3120003 -0.84600002 0.44
13.026 -8.4230003 -0.86500001 0.19
19.302999 -12.411 -1.377 0.14
19.315001 -12.333 -1.375 0.20999999
19.309 -12.287 -1.373 0.18000001
19.332001 -12.216 -1.3710001 0
5.0250001 -3.131 -0.205 0.1
5.0180001 -3.1040001 -0.204 0.16
5.0019999 -3.073 -0.20200001 0.18000001
5.033 -3.0699999 -0.20299999 0.22
5.046 -3.056 -0.204 0
19.346001 -11.679 -1.353 0.11
12.422 -7.4349999 -0.79400003 0.18000001
19.367001 -11.526 -1.349 0.12
12.717 -7.5040002 -0.81400001 0.27000001
12.648 -7.4089999 -0.80599999 0.38
19.400999 -11.3 -1.3430001 0.19
19.393999 -11.255 -1.341 0.23
19.385 -11.168 -1.337 0.2
19.396 -11.093 -1.335 0
5.0320001 -2.835 -0.19499999 0.14
5.0370002 -2.8169999 -0.19499999 0.12
5.0279999 -2.7909999 -0.19400001 0.15000001
5.0370002 -2.776 -0.19400001 0.28
5.0479999 -2.7709999 -0.19400001 0.23999999
5.0640001 -2.7590001 -0.19499999 0
5.085 -2.75 -0.19599999 0
4.8060002 -2.5780001 -0.17299999 0.090000004
4.8049998 -2.5580001 -0.17200001 0.18000001
4.8080001 -2.54 -0.17200001 0.17
4.823 -2.529 -0.17299999 0.18000001
4.836 -2.526 -0.17299999 0.1
17.205999 -8.9250002 -1.131 0.19
17.228001 -8.868 -1.131 0.40000001
17.237 -8.8039999 -1.13 0.37
17.239 -8.7370005 -1.128 0.31999999
17.24 -8.6700001 -1.126 0.31999999
17.229 -8.6300001 -1.124 0.31
17.457001 -8.677 -1.1390001 0
5.3309999 -2.608 -0.206 0.11
5.3590002 -2.6010001 -0.208 0.15000001
5.3559999 -2.579 -0.207 0.31999999
5.3569999 -2.559 -0.206 0
17.259001 -8.2089996 -1.113 0.18000001
5.4330001 -2.575 -0.212 0.07
17.268 -8.1470003 -1.112 0.31999999
17.278 -8.085 -1.11 0.46000001
17.486 -8.1160002 -1.124 0
7.632 -3.4389999 -0.37400001 0
7.6100001 -3.415 -0.37200001 0
7.5929999 -3.378 -0.37 0
7.6149998 -3.359 -0.37099999 0
7.6069999 -3.3269999 -0.36899999 0
7.6329999 -2.6730001 -0.354 0
7.638 -2.648 -0.354 0
7.6459999 -2.6240001 -0.354 0
7.6469998 -2.5969999 -0.354 0
7.677 -2.5810001 -0.35499999 0
7.698 -2.575 -0.35600001 0
8.5979996 -2.434 -0.41299999 0
9.4379997 -2.4360001 -0.46900001 0
24.834999 -6.2870002 -1.5599999 0.28
24.891001 -6.2179999 -1.563 0.34999999
25.104 -6.1880002 -1.577 0.25
25.145 -6.1560001 -1.579 0.27000001
25.201 -6.086 -1.582 0.28
25.261 -6.0170002 -1.585 0.18000001
25.32 -5.947 -1.587 0.20999999
25.349001 -5.8699999 -1.5880001 0.20999999
25.322001 -5.7800002 -1.585 0.17
25.332001 -5.698 -1.584 0.31
25.455999 -5.684 -1.592 0.18000001
25.521 -5.6149998 -1.596 0.23
25.540001 -5.5349998 -1.596 0.2
25.624001 -5.4689999 -1.601 0.30000001
25.712999 -5.4029999 -1.6059999 0.18000001
25.754999 -5.3280001 -1.607 0.34999999
25.723 -5.237 -1.604 0.18000001
25.68 -5.1859999 -1.6 0.25999999
25.908001 -5.1479998 -1.615 0.18000001
25.951 -5.072 -1.617 0.31
26.01 -4.9990001 -1.62 0.19
26.052999 -4.9219999 -1.622 0.16
26.106001 -4.8470001 -1.625 0.13
26.117001 -4.7639999 -1.624 0.17
26.143999 -4.7270002 -1.626 0.30000001
26.198 -4.652 -1.6289999 0.22
26.218 -4.5700002 -1.6289999 0.18000001
26.198999 -4.4819999 -1.627 0.40000001
26.080999 -4.3779998 -1.617 0.23
26.070999 -4.2919998 -1.6160001 0.25999999
26.124001 -4.2160001 -1.619 0.27000001
26.353001 -4.211 -1.6339999 0.18000001
26.427999 -4.138 -1.638 0.31999999
26.511 -4.066 -1.643 0.19
26.593 -3.993 -1.648 0.2
26.825001 -3.9419999 -1.663 0.28999999
27.025999 -3.885 -1.676 0.2
27.226 -3.8269999 -1.6900001 0.5
27.349001 -3.8 -1.698 0.22
27.406 -3.72 -1.701 0.13
27.408001 -3.6329999 -1.7 0.16
27.360001 -3.539 -1.696 0.28999999
27.330999 -3.448 -1.693 0.27000001
27.327999 -3.3599999 -1.692 0.27000001
27.311001 -3.2709999 -1.6900001 0.19
27.278 -3.224 -1.688 0.18000001
27.257999 -3.135 -1.686 0.1
27.252001 -3.0469999 -1.6849999 0.16
27.25 -2.96 -1.684 0.1
27.313999 -2.881 -1.688 0.15000001
27.315001 -2.7939999 -1.687 0.1
27.313999 -2.707 -1.686 0.090000004
27.382 -2.671 -1.691 0.090000004
27.43 -2.5880001 -1.694 0.090000004
27.458 -2.5039999 -1.6950001 0.14
27.493 -2.4200001 -1.697 0.090000004
27.509001 -2.3340001 -1.697 0.14
27.516001 -2.2479999 -1.697 0.2
27.462 -2.2 -1.693 0.11
27.429001 -2.1110001 -1.691 0.16
27.58 -2.0350001 -1.701 0.20999999
27.570999 -1.948 -1.7 0
27.398001 -1.849 -1.687 0
27.323999 -1.757 -1.682 0
27.209 -1.664 -1.673 0
27.15 -1.618 -1.669 0
27.086 -1.528 -1.664 0
27.052 -1.441 -1.6619999 0
27.028999 -1.355 -1.66 0
27.033001 -1.27 -1.66 0
27.045 -1.1849999 -1.66 0
27.082001 -1.102 -1.663 0
27.09 -1.017 -1.663 0
27.080999 -0.97399998 -1.6619999 0
27.087999 -0.889 -1.663 0
27.055 -0.80299997 -1.66 0
27.035 -0.71700001 -1.659 0
26.954 -0.63 -1.653 0
26.889999 -0.54400003 -1.648 0
26.839001 -0.45899999 -1.645 0
26.822001 -0.41600001 -1.6440001 0
26.811001 -0.33199999 -1.643 0
26.798 -0.24699999 -1.642 0
26.795 -0.163 -1.641 0
26.764999 -0.079000004 -1.6390001 0
25.215 0.027000001 -1.6569999 0
25.159 0.106 -1.653 0
25.18 0.145 -1.654 0
25.172001 0.22400001 -1.654 0
25.160999 0.303 -1.653 0
25.17 0.382 -1.654 0
25.165001 0.461 -1.653 0
25.141001 0.54000002 -1.652 0
25.084999 0.61799997 -1.648 0
25.101 0.69700003 -1.649 0
25.063999 0.73500001 -1.646 0
25.014 0.81199998 -1.643 0
25.013 0.89099997 -1.643 0
24.968 0.96799999 -1.64 0
24.981001 1.0470001 -1.641 0
24.972 1.125 -1.641 0
24.926001 1.202 -1.638 0
24.93 1.2410001 -1.638 0.079999998
24.927999 1.3200001 -1.638 0.079999998
24.934 1.398 -1.6390001 0.079999998
24.951 1.478 -1.641 0.090000004
24.985001 1.559 -1.643 0.14
25.014999 1.64 -1.646 0.090000004
25.062 1.682 -1.65 0.15000001
25.079 1.763 -1.651 0.1
25.094999 1.8430001 -1.653 0.16
25.143 1.926 -1.6569999 0.16
25.149 2.006 -1.658 0.16
25.174 2.0880001 -1.66 0.16
25.207001 2.1700001 -1.663 0.17
25.239 2.2130001 -1.666 0.18000001
25.247999 2.2939999 -1.6670001 0.17
25.277 2.3759999 -1.669 0.18000001
25.299 2.4590001 -1.6720001 0.17
25.357 2.5450001 -1.677 0.15000001
25.348 2.625 -1.677 0.31999999
25.400999 2.711 -1.681 0.25
25.476 2.8 -1.687 0
25.507 2.8440001 -1.6900001 0
23.697001 2.7160001 -1.556 0
23.615 2.7809999 -1.551 0
23.608 2.8559999 -1.551 0
25.596001 3.1800001 -1.699 0
23.325001 2.97 -1.531 0
21.164 2.76 -1.3710001 0
20.806 2.7460001 -1.345 0
19.382999 2.743 -1.2410001 0
19.132999 2.7679999 -1.223 0
18.754 2.773 -1.196 0.059999999
18.634001 2.8150001 -1.187 0
18.232 2.783 -1.158 0
18.049999 2.813 -1.145 0
17.941999 2.8540001 -1.137 0
17.820999 2.892 -1.1289999 0.07
17.754999 2.938 -1.125 0.14
17.714001 2.9890001 -1.122 0.12
17.886999 3.076 -1.136 0.15000001
17.878 3.1029999 -1.136 0.52999997
17.808001 3.1489999 -1.131 0.55000001
15.753 2.8329999 -0.97799999 0.14
15.607 2.858 -0.96799999 0.50999999
15.3 2.8510001 -0.94499999 0.23
15.03 2.849 -0.926 0.23999999
14.774 2.848 -0.90700001 0.27000001
14.578 2.8329999 -0.89300001 0.28999999
14.356 2.8369999 -0.87699997 0.30000001
14.167 2.845 -0.86299998 0.31
14.002 2.858 -0.85100001 0.34
13.829 2.8670001 -0.83899999 0.28999999
13.714 2.888 -0.83099997 0.31999999
13.625 2.914 -0.82499999 0.23
13.62 2.9360001 -0.82499999 0.37
13.411 2.934 -0.81 0.19
13.314 2.957 -0.80299997 0.36000001
13.228 2.9809999 -0.79799998 0.43000001
13.2 3.0179999 -0.796 0.41
13.211 3.0650001 -0.79799998 0.30000001
13.198 3.105 -0.79799998 0.31
13.172 3.1210001 -0.796 0.23999999
13.201 3.1719999 -0.79900002 0.38999999
13.2 3.2149999 -0.80000001 0
13.176 3.2539999 -0.79900002 0
13.174 3.2969999 -0.79900002 0
13.171 3.3399999 -0.80000001 0
13.176 3.3859999 -0.801 0
13.198 3.4130001 -0.80299997 0
13.197 3.457 -0.80400002 0
13.193 3.5009999 -0.80400002 0
13.2 3.5469999 -0.80599999 0
13.206 3.5929999 -0.80699998 0
13.218 3.641 -0.80900002 0
13.21 3.684 -0.80900002 0
13.196 3.7019999 -0.80800003 0
13.221 3.7539999 -0.81099999 0
13.215 3.7969999 -0.81199998 0
13.218 3.8429999 -0.81300002 0
13.225 3.8900001 -0.81400001 0
13.242 3.9400001 -0.81599998 0
13.234 3.961 -0.81599998 0
13.231 4.0050001 -0.81699997 0
13.248 4.0560002 -0.81900001 0
13.253 4.1030002 -0.82099998 0
13.244 4.1459999 -0.82099998 0
13.269 4.1999998 -0.824 0
13.289 4.2519999 -0.82700002 0
13.26 4.3119998 -0.82599998 0.17
13.517 4.4429998 -0.847 0
20.198 6.723 -1.367 0.11
23.916 8.0489998 -1.658 0.18000001
19.846001 6.744 -1.3430001 0.23
23.843 8.191 -1.656 0.18000001
23.813 8.2650003 -1.656 0.33000001
19.304001 6.7290001 -1.3049999 0.17
19.073999 6.783 -1.29 0.57999998
18.761999 6.7379999 -1.268 0.18000001
18.615 6.7509999 -1.258 0.38
18.436001 6.7519999 -1.245 0.23
18.25 6.7490001 -1.232 0.18000001
18.135 6.7379999 -1.224 0.23
18.054001 6.7729998 -1.219 0.49000001
17.805 6.743 -1.202 0.18000001
23.396999 8.9530001 -1.645 0.34999999
23.259001 8.9840002 -1.636 0.22
23.076 8.9969997 -1.624 0.23
17.197001 6.7909999 -1.161 0.57999998
16.923 6.744 -1.141 0.20999999
22.606001 9.1009998 -1.594 0.27000001
22.608999 9.184 -1.597 0.25
16.462999 6.8010001 -1.1109999 0.57999998
16.243 6.7399998 -1.094 0.20999999
21.447001 8.9870005 -1.512 0.28999999
15.981 6.7490001 -1.077 0.25999999
21.291 9.0790005 -1.5039999 0.25999999
15.671 6.7340002 -1.0549999 0.23
15.604 6.763 -1.052 0.18000001
15.607 6.822 -1.054 0.57999998
15.342 6.7350001 -1.033 0.23999999
20.500999 9.0860004 -1.451 0.25999999
20.409 9.1219997 -1.446 0.27000001
20.209 9.1090002 -1.432 0.33000001
20.031 9.1040001 -1.42 0.22
19.773001 9.0609999 -1.401 0.31999999
19.679001 9.0930004 -1.396 0.28999999
19.518 9.0559998 -1.3839999 0.28
19.493 9.1190004 -1.3839999 0.31999999
19.462999 9.1789999 -1.3839999 0.30000001
19.285999 9.1700001 -1.372 0.31
19.396999 9.2980003 -1.3839999 0.30000001
13.982 6.7480001 -0.94199997 0.23999999
13.885 6.7550001 -0.93599999 0.25999999
13.792 6.7639999 -0.93000001 0.30000001
13.692 6.7410002 -0.92299998 0.31999999
19.221001 9.5500002 -1.38 0.30000001
19.184 9.6070004 -1.38 0.25
19.127001 9.6529999 -1.377 0.36000001
19.121 9.7259998 -1.3789999 0.28999999
13.175 6.7449999 -0.889 0.23
13.118 6.7680001 -0.88599998 0.40000001
13.097 6.783 -0.88499999 0.41999999
12.915 6.7389998 -0.87199998 0.28
12.812 6.737 -0.86500001 0.25999999
12.731 6.7459998 -0.86000001 0.14
12.766 6.816 -0.86500001 0.57999998
19.504999 10.508 -1.431 0.20999999
12.469 6.757 -0.84399998 0.31999999
19.226 10.474 -1.4119999 0.27000001
19.096001 10.482 -1.404 0.25
12.255 6.816 -0.83200002 0.57999998
18.726 10.508 -1.381 0.23999999
11.958 6.75 -0.81 0.25
18.49 10.491 -1.365 0.25
11.809 6.7379999 -0.80000001 0.23
11.761 6.809 -0.80000001 0.57999998
18.021999 10.526 -1.336 0.25
11.486 6.7459998 -0.77999997 0.27000001
11.405 6.7470002 -0.77499998 0.28
11.358 6.743 -0.77200001 0.28999999
11.276 6.7420001 -0.76700002 0.27000001
17.452999 10.527 -1.3 0.25
11.129 6.7490001 -0.75800002 0.28999999
11.045 6.7459998 -0.75199997 0.25
10.956 6.7379999 -0.74599999 0.28999999
10.897 6.75 -0.74299997 0.34
10.805 6.7160001 -0.736 0.23999999
10.767 6.7389998 -0.73400003 0.33000001
10.68 6.7309999 -0.72899997 0.2
16.705999 10.62 -1.257 0.20999999
10.472 6.6919999 -0.71399999 0.36000001
10.439 6.717 -0.713 0
4.1069999 7.3439999 -0.41800001 0.14
3.9660001 7.1420002 -0.40000001 0.20999999
3.8940001 7.0650001 -0.39300001 0.25999999
3.855 7.046 -0.38999999 0.38999999
3.839 7.0430002 -0.389 0.27000001
3.8699999 7.1529999 -0.398 0.50999999
3.8829999 7.2319999 -0.403 0.27000001
3.835 7.197 -0.39899999 0.31999999
3.813 7.211 -0.39899999 0.38999999
3.892 7.4169998 -0.41600001 0.31
3.826 7.3460002 -0.40900001 0.28
3.8069999 7.3379998 -0.40700001 0.46000001
3.7820001 7.3460002 -0.40700001 0.38
3.7690001 7.3779998 -0.40900001 0.43000001
3.8150001 7.527 -0.41999999 0.28999999
3.622 7.1989999 -0.39199999 0.28999999
3.596 7.204 -0.39199999 0.44999999
3.543 7.1539998 -0.38699999 0.30000001
3.513 7.1220002 -0.384 0.41
3.493 7.1370001 -0.384 0.31
3.4820001 7.171 -0.38600001 0.36000001
3.2709999 6.7880001 -0.354 0.47999999
3.444 7.2680001 -0.391 0.46000001
3.4289999 7.2950001 -0.39199999 0.34999999
3.4289999 7.3260002 -0.39399999 0.5
3.174 6.8309999 -0.35299999 0.25999999
3.1530001 6.8429999 -0.354 0.27000001
6.2820001 13.81 -0.91600001 0.28999999
3.21 7.085 -0.37099999 0.38999999
6.862 15.347 -1.0369999 0.17
3.1140001 7.0180001 -0.36399999 0.28999999
6.0549998 13.65 -0.89899999 0.23999999
3.052 6.9369998 -0.35699999 0.38999999
3.017 6.9169998 -0.354 0.27000001
3.04 7.0289998 -0.36300001 0.33000001
2.816 6.6220002 -0.329 0.37
2.8199999 6.6890001 -0.333 0.16
2.8829999 6.9330001 -0.352 0.18000001
5.6960001 13.704 -0.89200002 0.34
2.9549999 7.1729999 -0.37 0.22
2.9189999 7.1490002 -0.36700001 0.43000001
2.8929999 7.1490002 -0.36700001 0.14
6.2459998 15.657 -1.041 0.44
6.1259999 15.497 -1.026 0.38999999
6.191 15.808 -1.05 0.44
6.1560001 15.79 -1.0470001 0.43000001
6.0339999 15.623 -1.033 0.28999999
6.1199999 15.996 -1.061 0.31999999
6.0650001 16.002001 -1.0599999 0.56999999
6.3270001 16.858 -1.125 0.17
7.1279998 19.184 -1.307 0.57999998
2.526 6.8499999 -0.336 0.33000001
7.086 19.254999 -1.3099999 0.13
6.7820001 18.698999 -1.2640001 0.20999999
6.7680001 18.846001 -1.274 0.34
6.7649999 19.025 -1.2869999 0.19
6.9099998 19.830999 -1.346 0.2
6.777 19.646999 -1.33 0.5
6.6240001 19.299999 -1.302 0.25
2.3269999 6.7979999 -0.32800001 0.13
2.3139999 6.8299999 -0.33000001 0.44999999
6.7779999 20.593 -1.396 0.57999998
6.1269999 18.806 -1.256 0.20999999
6.0240002 18.688999 -1.245 0.20999999
6.5440001 20.417999 -1.3789999 0.23999999
5.9400001 18.73 -1.247 0.38
5.9749999 19.048 -1.27 0.38999999
2.1730001 7.027 -0.34 0.37
2.151 7.0339999 -0.34 0.31999999
2.125 7.0289998 -0.33899999 0.28999999
2.0969999 7.0159998 -0.338 0.41
2.0829999 7.0079999 -0.33700001 0.2
2.066 7.0300002 -0.338 0.31
2.043 7.0349998 -0.338 0.30000001
2.0190001 7.0349998 -0.338 0.43000001
1.992 7.0240002 -0.336 0.30000001
1.964 7.0089998 -0.33500001 0.25
1.947 7.0349998 -0.336 0.37
1.942 7.0570002 -0.338 0.36000001
1.918 7.059 -0.33700001 0.31
1.897 7.0669999 -0.338 0.34999999
1.8839999 7.1100001 -0.34 0.38999999
1.867 7.1350002 -0.34200001 0.30000001
1.905 7.3800001 -0.36000001 0.23
1.9119999 7.5040002 -0.36899999 0.43000001
1.851 7.3119998 -0.354 0.20999999
1.854 7.4239998 -0.36199999 0.25
1.854 7.5229998 -0.36899999 0.41
1.823 7.5 -0.36700001 0.34
1.655 6.8940001 -0.32100001 0.31
1.625 6.8639998 -0.31799999 0.31999999
1.763 7.5609999 -0.37 0.31999999
1.65 7.1209998 -0.33700001 0.15000001
1.5599999 6.8260002 -0.31400001 0.31999999
1.534 6.8109999 -0.31299999 0.41999999
1.507 6.7909999 -0.31099999 0.33000001
1.484 6.7859998 -0.31 0.27000001
1.457 6.7649999 -0.308 0.25999999
1.446 6.8200002 -0.31200001 0.23
1.448 6.881 -0.31600001 0.20999999
1.603 7.7540002 -0.382 0.25
1.581 7.7719998 -0.38299999 0.54000002
1.569 7.8400002 -0.38699999 0.31999999
1.647 8.3769999 -0.42699999 0.25
1.477 7.6259999 -0.37099999 0.34
1.447 7.5960002 -0.368 0.28999999
1.432 7.5819998 -0.36700001 0.41999999
1.4400001 7.7649999 -0.38 0.31999999
1.401 7.6849999 -0.37400001 0.30000001
1.3789999 7.6989999 -0.375 0.23999999
1.352 7.6919999 -0.37400001 0.50999999
1.3430001 7.7849998 -0.38 0.25999999
1.325 7.8299999 -0.384 0.31
1.316 7.8520002 -0.38499999 0.34
1.294 7.868 -0.38600001 0.34
1.278 7.9310002 -0.38999999 0.38999999
1.299 8.2290001 -0.412 0.34
1.291 8.3529997 -0.421 0.37
1.2690001 8.3850002 -0.42300001 0.31999999
1.304 8.8149996 -0.45500001 0.28999999
1.283 8.8599997 -0.458 0.23
1.252 8.7460003 -0.449 0.51999998
1.217 8.6899996 -0.44499999 0.30000001
1.199 8.7629995 -0.44999999 0.41999999
1.17 8.7609997 -0.44999999 0.33000001
1.136 8.7130003 -0.44600001 0.38
1.11 8.7250004 -0.44600001 0.37
1.096 8.8389997 -0.45500001 0.43000001
1.085 8.8649998 -0.456 0.34
1.057 8.868 -0.456 0.41999999
1.028 8.8629999 -0.456 0.47
0.98900002 8.7609997 -0.44800001 0.23
0.96499997 8.7980003 -0.45100001 0.23999999
0.93699998 8.8009996 -0.45100001 0.38999999
0.91100001 8.816 -0.45100001 0.46000001
0.89700001 8.8190002 -0.45199999 0.31
0.87 8.8299999 -0.45199999 0.40000001
0.84500003 8.8570004 -0.454 0.34999999
0.81699997 8.8649998 -0.454 0.34
0.91299999 10.301 -0.56 0.36000001
0.884 10.345 -0.56300002 0.38999999
0.778 9.4250002 -0.495 0.41
0.83499998 10.353 -0.56400001 0.51999998
0.80400002 10.368 -0.565 0.37
0.61199999 8.158 -0.40099999 0.38999999
0.58499998 8.1359997 -0.39899999 0.33000001
0.56 8.1499996 -0.40000001 0.43000001
0.53399998 8.1370001 -0.39899999 0.40000001
0.50199997 8.0319996 -0.391 0.27000001
0.49200001 8.0719995 -0.39399999 0.46000001
0.461 7.9759998 -0.38699999 0.27000001
0.435 7.9710002 -0.38699999 0.34
0.41 7.9689999 -0.38600001 0.41
0.38499999 7.9720001 -0.38600001 0.30000001
0.36199999 8.007 -0.389 0.16
0.611 15.09 -0.91100001 0.54000002
0.56400001 15.094 -0.91100001 0.76999998
0.54000002 15.086 -0.91100001 0.79000002
0.495 15.166 -0.917 0.69
0.24600001 7.9299998 -0.38299999 0.15000001
0.398 15.105 -0.912 0.69999999
0.34999999 15.084 -0.91000003 0.69999999
0.303 15.085 -0.91000003 0.31999999
0.149 8.1140003 -0.396 0.36000001
0.13699999 8.118 -0.39700001 0.38999999
0.111 8.1140003 -0.396 0.36000001
0.085000001 8.0970001 -0.39500001 0.36000001
0.059999999 8.1070004 -0.396 0.18000001
0.041999999 15.128 -0.91299999 0.44
-0.0060000001 15.122 -0.91299999 0.76999998
-0.052999999 15.196 -0.91799998 0.81
-0.077 15.102 -0.91100001 0.36000001
-0.078000002 10.446 -0.56800002 0.25
-0.113 10.642 -0.583 0.54000002
-0.11 8.3699999 -0.41499999 0.16
-0.182 10.726 -0.58899999 0.62
-0.213 10.62 -0.58099997 0.23
-0.186 8.276 -0.40799999 0.27000001
-0.199 8.2519999 -0.40700001 0.38
-0.222 8.1739998 -0.40099999 0.36000001
-0.24699999 8.1309996 -0.398 0.43000001
-0.271 8.1059999 -0.396 0.33000001
-0.29499999 8.0740004 -0.39399999 0.49000001
-0.28999999 7.3649998 -0.34099999 0.22
-0.30899999 7.257 -0.33399999 0.30000001
-0.31999999 7.2519999 -0.333 0.19
-0.745 15.17 -0.91799998 0.25
-0.79000002 15.113 -0.91399997 0.60000002
-0.43599999 8.0930004 -0.396 0.44
-0.44999999 7.8990002 -0.38100001 0.30000001
-0.43900001 7.3260002 -0.33899999 0.28999999
-0.46000001 7.2969999 -0.33700001 0.34
-0.51499999 7.9330001 -0.384 0.20999999
-0.493 7.2729998 -0.33500001 0.37
-0.51599997 7.2810001 -0.336 0.31
-0.53899997 7.2789998 -0.336 0.31999999
-0.56400001 7.2989998 -0.338 0.38999999
-0.58499998 7.2800002 -0.336 0.16
-0.71499997 8.5019999 -0.42699999 0.57999998
-1.349 15.504 -0.94499999 0.14
-0.63800001 7.223 -0.333 0.31999999
-0.662 7.243 -0.33399999 0.34999999
-0.68400002 7.2309999 -0.33399999 0.33000001
-0.70499998 7.2129998 -0.33199999 0.27000001
-0.72799999 7.2090001 -0.33199999 0.36000001
-0.75099999 7.2119999 -0.333 0.31
-0.773 7.2080002 -0.333 0.2
-0.77999997 7.1690001 -0.33000001 0.51999998
-0.78899997 7.046 -0.32100001 0.12
-0.80599999 7 -0.31799999 0.34
-0.829 7.0089998 -0.31799999 0.16
-0.82999998 6.8340001 -0.30599999 0.5
-0.83999997 6.7420001 -0.29899999 0.23
-0.85299999 6.6820002 -0.29499999 0.27000001
-0.86199999 6.6669998 -0.294 0.31
-0.88300002 6.6669998 -0.294 0.20999999
-0.91399997 6.7329998 -0.29899999 0.16
-0.95499998 6.8720002 -0.31 0.14
-0.95200002 6.6989999 -0.29699999 0.31999999
-0.96899998 6.6690001 -0.29499999 0.12
-0.98000002 6.6009998 -0.28999999 0.41
-1.0470001 6.9660001 -0.317 0.16
-1.1720001 7.618 -0.366 0.16
-2.4760001 15.591 -0.96200001 0.47999999
-2.4949999 15.396 -0.94800001 0.23
-1.25 7.6440001 -0.36899999 0.28999999
-1.275 7.6479998 -0.37 0.30000001
-1.301 7.6539998 -0.37 0.47999999
-1.182 6.9060001 -0.315 0.25999999
-1.2029999 6.8979998 -0.31400001 0.28999999
-1.228 6.9120002 -0.31600001 0.30000001
-1.25 6.908 -0.31600001 0.30000001
-1.27 6.8959999 -0.315 0.18000001
-2.8970001 15.285 -0.94499999 0.23
-2.954 15.319 -0.94800001 0.75
-3.0020001 15.311 -0.94800001 0.75
-3.03 15.326 -0.94999999 0.75
-3.0810001 15.328 -0.95099998 0.75
-3.1300001 15.322 -0.95099998 0.75
-3.181 15.326 -0.95200002 0.75999999
-3.23 15.322 -0.95200002 0.77999997
-2.901 13.563 -0.81999999 0.38
-2.9449999 13.561 -0.82099998 0.69999999
-2.9719999 13.582 -0.82300001 0.68000001
-3.4100001 15.336 -0.95599997 0.72000003
-3.461 15.339 -0.95700002 0.75999999
-3.5150001 15.355 -0.95899999 0.74000001
-3.5650001 15.348 -0.95999998 0.75
-3.615 15.348 -0.95999998 0.73000002
-3.6689999 15.36 -0.96200001 0.75999999
-3.6949999 15.36 -0.963 0.75
-3.744 15.354 -0.963 0.75
-3.7980001 15.366 -0.96499997 0.75999999
-3.8469999 15.354 -0.96499997 0.75999999
-3.9000001 15.363 -0.96600002 0.75
-3.9530001 15.368 -0.96799999 0.75
-4.0040002 15.365 -0.96899998 0.74000001
-4.0339999 15.382 -0.97000003 0.72000003
-4.0869999 15.384 -0.97100002 0.70999998
-4.1370001 15.379 -0.972 0.70999998
-4.191 15.387 -0.97399998 0.72000003
-4.244 15.391 -0.97500002 0.74000001
-4.2940001 15.382 -0.97500002 0.74000001
-4.3460002 15.383 -0.97600001 0.73000002
-4.4000001 15.389 -0.97799999 0.73000002
-4.428 15.395 -0.97899997 0.73000002
-4.4829998 15.402 -0.98100001 0.73000002
-4.5349998 15.402 -0.98199999 0.76999998
-4.6550002 15.626 -1 0.62
-2.0769999 6.9429998 -0.33199999 0.14
-2.1059999 6.9619999 -0.33399999 0.1
-4.7459998 15.401 -0.986 0.47
-4.152 13.409 -0.833 0.66000003
-4.8260002 15.403 -0.98799998 0.25
-2.177 6.921 -0.333 0.19
-4.9380002 15.42 -0.99199998 0.31
-4.993 15.423 -0.99299997 0.70999998
-5.0440001 15.417 -0.99400002 0.72000003
-5.1020002 15.429 -0.99599999 0.73000002
-5.132 15.438 -0.99699998 0.70999998
-5.184 15.431 -0.99800003 0.72000003
-5.2410002 15.442 -1 0.73000002
-5.296 15.444 -1.002 0.73000002
-5.349 15.438 -1.002 0.73000002
-5.4050002 15.444 -1.0039999 0.70999998
-5.4619999 15.45 -1.006 0.72000003
-5.4899998 15.452 -1.007 0.70999998
-5.5440001 15.452 -1.008 0.73000002
-5.6030002 15.462 -1.01 0.72000003
-5.6539998 15.45 -1.011 0.72000003
-5.711 15.457 -1.013 0.72000003
-5.7680001 15.461 -1.015 0.70999998
-5.8540001 15.54 -1.022 0.76999998
-4.9860001 13.186 -0.83700001 0.23999999
-5.915 15.481 -1.02 0.49000001
-5.96 15.455 -1.0190001 0.56
-5.1729999 13.298 -0.85000002 0.23
-6.0780001 15.471 -1.023 0.44999999
-4.9120002 12.401 -0.78100002 0.50999999
-4.9260001 12.325 -0.77700001 0.20999999
-4.9429998 12.256 -0.77200001 0.61000001
-5.027 12.405 -0.78500003 0.27000001
-5.0479999 12.347 -0.78100002 0.62
-5.1339998 12.443 -0.79000002 0.40000001
-5.1620002 12.401 -0.78799999 0.30000001
-4.6209998 11.012 -0.67799997 0.27000001
-6.5689998 15.49 -1.038 0.61000001
-5.5560002 12.999 -0.83999997 0.36000001
-6.6630001 15.506 -1.0420001 0.38
-5.6009998 12.934 -0.83700001 0.58999997
-5.585 12.787 -0.82700002 0.33000001
-5.6370001 12.797 -0.829 0.43000001
-5.6069999 12.622 -0.81599998 0.43000001
-4.927 11.006 -0.68699998 0.20999999
-4.9460001 10.956 -0.68400002 0.41
-4.9619999 10.946 -0.68400002 0.5
-5 10.938 -0.685 0.38999999
-5.0339999 10.922 -0.685 0.66000003
-5.072 10.913 -0.685 0.28
-5.098 10.881 -0.68400002 0.47
-5.1370001 10.874 -0.685 0.38
-5.171 10.858 -0.685 0.44
-5.1820002 10.837 -0.68400002 0.44
-5.217 10.823 -0.68400002 0.47999999
-5.2540002 10.812 -0.68400002 0.67000002
-7.6620002 15.617 -1.08 0.28
-6.1059999 12.36 -0.81400001 0.25
-7.7930002 15.635 -1.086 0.64999998
-6.4169998 12.784 -0.85299999 0.28
-6.395 12.641 -0.84200001 0.49000001
-5.1989999 10.248 -0.64499998 0.17
-5.1939998 10.159 -0.639 0.41999999
-5.2179999 10.127 -0.63800001 0.47999999
-5.2540002 10.119 -0.639 0.52999997
-5.2849998 10.101 -0.63800001 0.47999999
-5.3249998 10.1 -0.63999999 0.63
-6.3740001 12.032 -0.80199999 0.31999999
-6.4899998 12.16 -0.81400001 0.58999997
-7.3600001 13.678 -0.94300002 0.27000001
-7.3740001 13.603 -0.93900001 0.43000001
-7.3790002 13.51 -0.93300003 0.41999999
-7.395 13.439 -0.92900002 0.38
-7.4580002 13.452 -0.93199998 0.41
-7.4959998 13.422 -0.93099999 0.63
-7.6339998 13.619 -0.949 0.38999999
-7.5079999 13.296 -0.92400002 0.090000004
-7.5100002 13.203 -0.91799998 0.16
-7.5250001 13.133 -0.91399997 0.27000001
-7.54 13.064 -0.91000003 0.23999999
-7.5320001 12.956 -0.903 0.18000001
-7.5599999 12.912 -0.90100002 0.47999999
-7.5370002 12.826 -0.89499998 0.23
-7.5469999 12.751 -0.88999999 0.20999999
-9.3889999 15.739 -1.149 0.30000001
-7.5710001 12.611 -0.88200003 0.20999999
-9.5310001 15.75 -1.155 0.16
-9.6370001 15.814 -1.163 0.68000001
-9.6499996 15.724 -1.158 0.28999999
-7.573 12.306 -0.86299998 0.18000001
-7.6139998 12.201 -0.85799998 0.23999999
-7.5809999 12.064 -0.84799999 0
-9.4440002 14.912 -1.099 0.12
-7.6230001 11.881 -0.83899999 0.25
-7.6370001 11.821 -0.83499998 0.36000001
-7.6279998 11.767 -0.83200002 0.11
-7.6329999 11.694 -0.82800001 0.2
-7.6040001 11.571 -0.81900001 0.19
-9.9119997 14.966 -1.1210001 0.17
-7.6529999 11.488 -0.81599998 0.2
-7.665 11.427 -0.81199998 0.23
-7.6739998 11.402 -0.81099999 0.40000001
-7.6079998 11.153 -0.79299998 0.19
-10.32 15.011 -1.141 0.13
-7.632 11.039 -0.787 0
-7.6960001 10.983 -0.787 0.23
-7.704 10.921 -0.78299999 0.18000001
-10.583 14.936 -1.147 0.11
-10.649 14.931 -1.15 0.27000001
-10.714 14.921 -1.152 0.36000001
-10.801 14.944 -1.1569999 0.47
-11.203 15.296 -1.196 0.36000001
-11.191 15.178 -1.188 0.44999999
-11.187 15.124 -1.1849999 0.27000001
-11.241 15.097 -1.186 0.54000002
-11.3 15.077 -1.187 0.38
-11.302 14.981 -1.181 0.40000001
-11.329 14.92 -1.179 0.5
-11.368 14.874 -1.178 0.25
-11.374 14.786 -1.173 0.22
-11.357 14.716 -1.168 0.37
-11.473 14.77 -1.177 0.23
-11.555 14.779 -1.181 0.17
-11.432 14.528 -1.161 0.44999999
-11.365 14.35 -1.147 0.36000001
-11.873 14.894 -1.202 0.25999999
-11.46 14.285 -1.148 0.34999999
-11.366 14.122 -1.1339999 0.41999999
-11.62 14.345 -1.159 0.20999999
-11.424 14.014 -1.131 0.41
-11.369 13.857 -1.119 0.19
-11.638 14.094 -1.145 0.44
-11.383 13.698 -1.1109999 0.23999999
-11.447 13.687 -1.113 0.23999999
-11.48 13.683 -1.115 0.57999998
-11.385 13.484 -1.099 0.25
-11.448 13.472 -1.101 0.2
-11.465 13.407 -1.098 0.63
-11.411 13.26 -1.0880001 0.23
-11.458 13.23 -1.0880001 0.25
-11.617 13.329 -1.101 0.61000001
-11.44 13.044 -1.077 0.34999999
-11.457 13.021 -1.077 0.30000001
-11.846 13.377 -1.115 0.23
-11.606 13.025 -1.084 0.34
-11.463 12.784 -1.064 0.19
-11.582 12.835 -1.072 0.60000002
-11.676 12.857 -1.0779999 0.28
-11.431 12.509 -1.0470001 0.30000001
-11.525 12.572 -1.0549999 0.23999999
-11.557 12.528 -1.0549999 0.60000002
-11.432 12.315 -1.0369999 0.28
-11.524 12.336 -1.0420001 0.19
-11.596 12.334 -1.046 0.62
-11.577 12.237 -1.04 0.14
-7.013 7.381 -0.54900002 0.43000001
-6.9829998 7.3270001 -0.54400003 0.51999998
-7.0430002 7.3439999 -0.54799998 0.16
-7.1149998 7.3720002 -0.55299997 0.66000003
-11.641 11.962 -1.028 0.25
-7.0170002 7.1799998 -0.53799999 0.25999999
-7.1290002 7.2490001 -0.54799998 0.38
-7.1700001 7.2449999 -0.55000001 0.40000001
-7.211 7.263 -0.55299997 0.23999999
-7.2280002 7.2350001 -0.55199999 0.63
-7.2480001 7.21 -0.55199999 0.16
-11.526 11.371 -0.99199998 0.47999999
-11.512 11.286 -0.986 0.44999999
-11.527 11.23 -0.98400003 0.34
-11.584 11.215 -0.98699999 0.34999999
-11.731 11.286 -0.99800003 0.25
-11.5 11.029 -0.97299999 0.49000001
-11.517 10.977 -0.97100002 0.28999999
-11.953 11.32 -1.012 0.20999999
-11.5 10.823 -0.96200001 0.5
-12.071 11.288 -1.016 0.34
-11.534 10.72 -0.95899999 0.30000001
-12.106 11.179 -1.013 0.15000001
-11.52 10.606 -0.95200002 0.57999998
-11.658 10.665 -0.963 0.20999999
-11.588 10.535 -0.95200002 0.16
-11.527 10.414 -0.94300002 0.55000001
-11.579 10.395 -0.94499999 0.33000001
-11.561 10.314 -0.94 0.23999999
-11.537 10.227 -0.935 0.20999999
-11.213 9.9099998 -0.90100002 0.31
-11.217 9.8509998 -0.89899999 0.51999998
-11.239 9.8079996 -0.898 0.33000001
-11.286 9.7869997 -0.89899999 0.5
-11.408 9.8290005 -0.90799999 0.5
-11.549 9.8879995 -0.91900003 0.38
-11.574 9.8459997 -0.91799998 0.30000001
-11.541 9.7869997 -0.91399997 0.41
-11.576 9.7539997 -0.91399997 0.20999999
-11.509 9.6359997 -0.90499997 0.55000001
-11.574 9.6289997 -0.90799999 0.28
-11.555 9.552 -0.903 0.44
-11.599 9.5270004 -0.90499997 0.44
-11.61 9.4759998 -0.903 0.23999999
-11.585 9.4250002 -0.89899999 0.34
-11.565 9.3479996 -0.89399999 0.34999999
-11.588 9.3070002 -0.89399999 0.31
-11.611 9.2659998 -0.89300001 0.41999999
-11.596 9.1949997 -0.889 0.28999999
-11.576 9.1199999 -0.884 0.38
-11.603 9.0819998 -0.884 0.38999999
-11.624 9.0690002 -0.88499999 0.28999999
-11.603 8.9949999 -0.88 0.25
-11.578 8.9169998 -0.875 0.40000001
-11.595 8.8719997 -0.87400001 0.38
-11.63 8.8409996 -0.875 0.38
-11.642 8.7930002 -0.87400001 0.27000001
-11.599 8.7040005 -0.86699998 0.30000001
-11.596 8.6450005 -0.86400002 0.43000001
-11.647 8.6540003 -0.86799997 0.38
-11.65 8.599 -0.86500001 0.28999999
-11.604 8.5100002 -0.85900003 0.18000001
-11.574 8.4320002 -0.85399997 0.5
-11.572 8.375 -0.85100001 0.27000001
-11.382 8.184 -0.83099997 0.23999999
-11.462 8.1859999 -0.83600003 0.47999999
-11.539 8.2139997 -0.84200001 0.37
-11.598 8.2010002 -0.84500003 0.31
-11.628 8.1680002 -0.84600002 0.5
-11.608 8.1000004 -0.84100002 0.43000001
-11.586 8.0299997 -0.83700001 0.17
-11.391 7.8429999 -0.81800002 0.56999999
-11.513 7.8730001 -0.82599998 0.25999999
-11.439 7.7969999 -0.81900001 0.41999999
-11.707 7.9250002 -0.83999997 0.41
-11.753 7.902 -0.84200001 0.38
-11.525 7.697 -0.81999999 0.34999999
-11.909 7.8990002 -0.85100001 0.38
-11.9 7.8390002 -0.84899998 0.23999999
-11.983 7.8400002 -0.85399997 0.63999999
-11.731 7.6500001 -0.82999998 0.25
-11.61 7.5190001 -0.81800002 0.36000001
-11.809 7.5949998 -0.833 0.23
-11.808 7.5419998 -0.83099997 0.43000001
-11.786 7.4759998 -0.82700002 0.47
-11.568 7.2870002 -0.80599999 0.28999999
-11.658 7.2930002 -0.81199998 0.37
-11.812 7.3629999 -0.824 0.25999999
-11.868 7.3460002 -0.82700002 0.47999999
-11.851 7.2849998 -0.824 0.41
-11.649 7.1110001 -0.80400002 0.37
-11.68 7.079 -0.80500001 0.25999999
-11.639 7.0040002 -0.79900002 0.28
-11.596 6.9289999 -0.79400003 0.43000001
-11.566 6.8870001 -0.79000002 0.44
-11.501 6.8000002 -0.78299999 0.44999999
-11.485 6.7410002 -0.77999997 0.54000002
-11.494 6.698 -0.77899998 0.52999997
-11.487 6.6459999 -0.77600002 0.54000002
-11.516 6.6149998 -0.77700001 0.51999998
-11.556 6.5900002 -0.77899998 0.47999999
-11.589 6.5840001 -0.78100002 0.5
-11.648 6.5689998 -0.78399998 0.46000001
-11.761 6.5840001 -0.792 0.38
-11.984 6.6589999 -0.80900002 0.47999999
-12.129 6.6890001 -0.81900001 0.57999998
-12.43 6.8039999 -0.84299999 0.28
-12.46 6.77 -0.84299999 0.25
-12.511 6.7470002 -0.84600002 0.31999999
-12.64 6.79 -0.85600001 0.34
-12.497 6.6630001 -0.84200001 0.33000001
-12.721 6.7309999 -0.85900003 0.41999999
-12.905 6.776 -0.87300003 0.38
-12.967 6.756 -0.87599999 0.25
-13.121 6.7839999 -0.88700002 0.44
-13.233 6.8150001 -0.89499998 0.19
-13.25 6.7719998 -0.89499998 0.41
-18.503 9.3719997 -1.327 0.27000001
-13.457 6.7709999 -0.90899998 0.28999999
-14.978 7.4159999 -1.03 0.60000002
-13.715 6.7389998 -0.92500001 0.20999999
-14.848 7.2649999 -1.017 0.28999999
-13.973 6.7839999 -0.94300002 0.30000001
-14.843 7.1469998 -1.012 0.54000002
-14.495 6.9239998 -0.98199999 0.36000001
-14.244 6.75 -0.95999998 0.20999999
-14.448 6.79 -0.97500002 0.27000001
-14.483 6.7519999 -0.97600001 0.34
-14.702 6.7969999 -0.99199998 0.30000001
-14.731 6.7820001 -0.99400002 0.37
-14.886 6.7969999 -1.0039999 0.19
-14.973 6.7800002 -1.01 0.20999999
-15.043 6.7550001 -1.0140001 0.51999998
-17.754 7.9000001 -1.23 0.19
-15.358 6.7800002 -1.036 0.33000001
-20.778 9.085 -1.47 0.2
-15.576 6.7880001 -1.051 0.31
-15.769 6.8130002 -1.064 0.16
-15.846 6.7870002 -1.069 0.28999999
-16.058001 6.8179998 -1.084 0.28
-16.108999 6.7800002 -1.086 0.17
-16.278999 6.7909999 -1.098 0.47
-16.409 6.7849998 -1.107 0.22
-16.528999 6.8039999 -1.1160001 0.28
-16.698 6.8119998 -1.127 0.25
-16.761999 6.777 -1.131 0.33000001
-16.993 6.8070002 -1.147 0.31999999
-17.042999 6.7659998 -1.15 0.23
-17.23 6.777 -1.163 0.31999999
-18.874001 7.3530002 -1.291 0.16
-17.496 6.7859998 -1.181 0.33000001
-17.719 6.8080001 -1.197 0.20999999
-17.823999 6.7839999 -1.204 0.27000001
-18.676001 7.04 -1.2690001 0.28999999
-18.858999 7.0409999 -1.2819999 0.17
-18.295 6.7659998 -1.2359999 0.44
-19.238001 7.0450001 -1.308 0.20999999
-18.934 6.901 -1.284 0.31
-18.914 6.8260002 -1.28 0.28
-18.964001 6.777 -1.283 0.28999999
-18.981001 6.7160001 -1.2819999 0.28999999
-19.065001 6.678 -1.2869999 0.28999999
-19.219 6.664 -1.298 0.31
-19.400999 6.6589999 -1.3099999 0.30000001
-19.587999 6.6880002 -1.324 0.34999999
-19.809999 6.6939998 -1.339 0.25999999
-20.107 6.724 -1.3609999 0.30000001
-20.306 6.7199998 -1.375 0.46000001
-20.507 6.7140002 -1.3890001 0.31
-20.695 6.704 -1.402 0.25
-20.802 6.6659999 -1.408 0
-13.624 4.3520002 -0.852 0
-13.615 4.302 -0.85100001 0
-13.605 4.2519999 -0.84899998 0
-13.535 4.1830001 -0.84200001 0
-13.506 4.1279998 -0.83899999 0
-13.624 4.1170001 -0.847 0
-13.773 4.1149998 -0.85799998 0
-13.818 4.0809999 -0.86000001 0
-13.796 4.0510001 -0.85799998 0
-13.787 4.0009999 -0.85600001 0
-13.794 3.9560001 -0.85600001 0
-13.845 3.924 -0.85900003 0
-14.628 4.0949998 -0.91799998 0
-13.529 3.743 -0.833 0
-13.484 3.6860001 -0.829 0
-14.638 3.974 -0.91600001 0
-14.729 3.9489999 -0.92199999 0
-13.455 3.5639999 -0.824 0
-13.441 3.516 -0.82200003 0
-13.464 3.4760001 -0.82300001 0
-13.768 3.4619999 -0.84500003 0.14
-13.773 3.441 -0.84500003 0.19
-13.796 3.4000001 -0.84500003 0.20999999
-13.787 3.352 -0.84399998 0.2
-13.805 3.3110001 -0.84500003 0.22
-13.804 3.2639999 -0.84399998 0
-13.931 3.2479999 -0.85299999 0
-14.586 3.3510001 -0.90100002 0
-13.551 3.0929999 -0.82300001 0.12
-13.541 3.046 -0.82099998 0
-13.662 3.0280001 -0.82999998 0
-13.77 3.006 -0.83700001 0
-13.912 2.9909999 -0.847 0
-14.183 3.003 -0.86699998 0
-14.335 2.9879999 -0.87800002 0
-14.662 3.0309999 -0.90200001 0
-14.76 3.003 -0.90799999 0
-14.963 2.9949999 -0.92299998 0
-15.368 3.0250001 -0.95300001 0
-15.53 3.006 -0.96399999 0
-15.673 2.9820001 -0.97399998 0.16
-15.564 2.911 -0.96499997 0.17
-17.747 3.2290001 -1.128 0.36000001
-17.719 3.1670001 -1.125 0.69
-17.747 3.1140001 -1.126 0.18000001
-17.764999 3.0599999 -1.127 0.99000001
-17.684 2.9890001 -1.12 0.99000001
-17.938999 2.974 -1.138 0.74000001
-18.173 2.9530001 -1.155 0
-18.028 2.901 -1.1440001 0
-18.238001 2.8759999 -1.159 0
-18.448 2.849 -1.174 0
-18.672001 2.8239999 -1.1900001 0
-19.566 2.7690001 -1.255 0
-20.655001 2.757 -1.334 0
-21.261 2.7690001 -1.3789999 0
-31.337 3.9690001 -2.1259999 0
-31.308001 3.865 -2.1229999 0
-31.292 3.763 -2.1210001 0
-31.275999 3.7119999 -2.1199999 0
-31.254 3.609 -2.1170001 0
-31.240999 3.5090001 -2.115 0
-31.224001 3.4070001 -2.1129999 0
-31.207001 3.306 -2.1110001 0
-31.181999 3.2049999 -2.109 0
-31.216999 3.109 -2.1110001 0
-31.181 3.056 -2.1070001 0.090000004
-31.091 2.9489999 -2.0999999 0.13
-30.937 2.836 -2.0880001 0
-31.079 2.7509999 -2.098 0
-31.062 2.651 -2.096 0
-31.068001 2.553 -2.096 0
-31.052 2.454 -2.0940001 0
-31.035999 2.4030001 -2.0929999 0
-31.014999 2.3039999 -2.0910001 0
-31.01 2.2060001 -2.0899999 0
-30.985001 2.1059999 -2.0869999 0
-30.955999 2.006 -2.085 0
-30.917999 1.906 -2.0810001 0
-30.893999 1.808 -2.079 0
-30.881001 1.758 -2.0780001 0
-30.815001 1.6569999 -2.073 0
-30.806 1.5599999 -2.072 0
-30.805 1.4630001 -2.0710001 0
-30.777 1.365 -2.069 0
-30.787001 1.268 -2.069 0
-30.778999 1.171 -2.0680001 0
-30.757 1.073 -2.0669999 0
-30.740999 1.024 -2.0650001 0
-30.74 0.92799997 -2.0650001 0
-30.732 0.83099997 -2.0639999 0
-30.711 0.73400003 -2.062 0
-30.716999 0.63700002 -2.063 0
-30.723 0.54100001 -2.063 0
-30.709999 0.493 -2.062 0
-30.723 0.396 -2.063 0
-30.712 0.30000001 -2.062 0
-30.707001 0.20299999 -2.062 0
-30.708 0.107 -2.062 0
-30.698 0.0099999998 -2.0610001 0
-30.719999 -0.086000003 -2.062 0
-30.715 -0.183 -2.062 0
-30.715 -0.23100001 -2.062 0
-32.187 -0.39500001 -2.171 0
-32.208 -0.49700001 -2.1719999 0
-32.221001 -0.54699999 -2.1730001 0
-32.195 -0.648 -2.1719999 0
-32.188999 -0.74900001 -2.171 0
-32.175999 -0.85000002 -2.171 0
-32.153999 -0.95099998 -2.1689999 0
-32.137001 -1.051 -2.168 0
-32.120998 -1.152 -2.1670001 0
-32.132999 -1.2029999 -2.168 0
-32.139 -1.304 -2.1689999 0
-32.157001 -1.406 -2.171 0
-32.175999 -1.508 -2.1719999 0
-32.176998 -1.609 -2.1730001 0
-32.223999 -1.7130001 -2.177 0
-32.326 -1.821 -2.1849999 0.13
-32.401001 -1.876 -2.1900001 0
-32.264999 -1.97 -2.181 0.07
-32.264999 -2.072 -2.181 0
-32.064999 -2.1600001 -2.1670001 0
-30.327 -2.1370001 -2.039 0
-30.188999 -2.223 -2.029 0
-30.075001 -2.309 -2.0209999 0
-30.063 -2.3559999 -2.0209999 0
-30.103001 -2.454 -2.0239999 0
-32.311001 -2.7379999 -2.188 0
-32.216999 -2.832 -2.1819999 0
-25.570999 -2.404 -1.691 0.12
-25.253 -2.454 -1.668 0.25
-24.806999 -2.45 -1.636 0.22
-24.523001 -2.4990001 -1.615 0.41
-24.426001 -2.5669999 -1.608 0.31
-24.360001 -2.6370001 -1.604 0.34999999
-24.365999 -2.7149999 -1.605 0.36000001
-24.337 -2.79 -1.604 0.31
-24.318001 -2.865 -1.603 0.38
-24.357 -2.908 -1.6059999 0.34
-24.309 -2.98 -1.603 0.36000001
-24.306999 -3.0569999 -1.604 0.34
-24.320999 -3.1370001 -1.6059999 0.34999999
-24.277 -3.2090001 -1.603 0.31999999
-24.254999 -3.283 -1.602 0.31
-24.292 -3.3659999 -1.6059999 0.36000001
-24.292999 -3.405 -1.6059999 0.38
-24.282 -3.4809999 -1.6059999 0.33000001
-24.33 -3.566 -1.6109999 0.30000001
-24.686001 -3.698 -1.638 0.19
-31.534 -4.8330002 -2.1500001 0.079999998
-31.482 -4.9260001 -2.1470001 0.090000004
-31.424999 -5.0180001 -2.1440001 0.079999998
-31.341999 -5.1059999 -2.1389999 0.079999998
-31.225 -5.1370001 -2.131 0.090000004
-31.108999 -5.2179999 -2.1229999 0.090000004
-31.018 -5.303 -2.118 0.090000004
-30.938 -5.3899999 -2.1129999 0.14
-30.856001 -5.4749999 -2.108 0.090000004
-30.775999 -5.5609999 -2.1029999 0.14
-30.684 -5.6440001 -2.098 0.16
-30.580999 -5.6739998 -2.0910001 0.18000001
-30.316 -5.724 -2.072 0.17
-30.334999 -5.8260002 -2.075 0.40000001
-30.309 -5.9200001 -2.0739999 0.2
-30.198 -5.9959998 -2.0669999 0.18000001
-30.044001 -6.0640001 -2.0569999 0.23999999
-29.843 -6.072 -2.043 0.20999999
-29.443001 -6.0869999 -2.0139999 0.25
-29.127001 -6.1170001 -1.992 0.25999999
-29.110001 -6.2080002 -1.992 0.30000001
-28.903 -6.2589998 -1.978 0.28
-28.757999 -6.322 -1.969 0.31999999
-28.863001 -6.441 -1.978 0.33000001
-28.775999 -6.5159998 -1.973 0.31999999
-28.827999 -6.5760002 -1.978 0.31
-28.870001 -6.6810002 -1.982 0.38
-28.847 -6.7709999 -1.982 0.33000001
-28.799999 -6.855 -1.98 0.22
-28.761 -6.9419999 -1.979 0.41
-28.547001 -6.9850001 -1.964 0.25
-28.436001 -7.052 -1.9579999 0.20999999
-28.415001 -7.0949998 -1.957 0.18000001
-28.391001 -7.1830001 -1.957 0
-28.108999 -7.2059999 -1.937 0.11
-27.413 -7.119 -1.886 0.14
-27.124001 -7.1339998 -1.865 0
-26.857 -7.1539998 -1.847 0.14
-26.575001 -7.1680002 -1.827 0.22
-26.309 -7.1409998 -1.808 0.13
-24.597 -6.757 -1.678 0.25999999
-24.541 -6.8249998 -1.676 0.28999999
-24.577 -6.9180002 -1.6799999 0.41999999
-24.610001 -7.0110002 -1.684 0.22
-24.51 -7.066 -1.678 0.16
-24.487 -7.1430001 -1.678 0.38999999
-24.509001 -7.191 -1.681 0.20999999
-24.48 -7.2659998 -1.6799999 0.28
-24.438 -7.3369999 -1.679 0.27000001
-24.421 -7.4159999 -1.679 0.27000001
-24.431999 -7.5029998 -1.682 0.41999999
-24.408001 -7.5799999 -1.682 0.31
-24.417999 -7.6669998 -1.6849999 0.31999999
-24.431 -7.7129998 -1.687 0.36000001
-24.424 -7.7950001 -1.688 0.25999999
-24.422001 -7.8790002 -1.6900001 0.28999999
-24.431 -7.967 -1.692 0.28999999
-24.423 -8.0500002 -1.694 0.27000001
-24.415001 -8.132 -1.6950001 0.31999999
-24.424999 -8.2209997 -1.698 0.33000001
-24.424999 -8.2639999 -1.699 0.25
-24.433001 -8.3520002 -1.701 0.36000001
-24.414 -8.4309998 -1.702 0.31
-20.426001 -7.1220002 -1.393 0.28
-24.438 -8.6120005 -1.7079999 0.28
-24.396999 -8.684 -1.707 0.28
-24.302 -8.7360001 -1.702 0.23999999
-24.327 -8.8310003 -1.706 0.18000001
-24.445 -8.9180002 -1.716 0.49000001
-24.410999 -8.9919996 -1.716 0.18000001
-8.967 -3.3180001 -0.50300002 0.23
-8.915 -3.3299999 -0.5 0.31
-8.8979998 -3.3559999 -0.49900001 0.28999999
-8.8870001 -3.3829999 -0.49900001 0.38
-8.8710003 -3.4089999 -0.49900001 0.41999999
-8.8669996 -3.424 -0.49900001 0.50999999
-8.8809996 -3.461 -0.50099999 0.27000001
-18.072001 -7.138 -1.23 0.38999999
-17.959999 -7.1589999 -1.223 0.14
-18.134001 -7.2950001 -1.239 0.31999999
-18.218 -7.395 -1.247 0.41999999
-17.870001 -7.3189998 -1.222 0.25999999
-17.774 -7.3119998 -1.215 0.50999999
-17.995001 -7.4699998 -1.234 0.23999999
-17.874001 -7.4850001 -1.227 0.41
-17.08 -7.2140002 -1.165 0.56
-19.122 -8.151 -1.33 0.16
-17.878 -7.6859999 -1.233 0.33000001
-16.941 -7.3449998 -1.159 0.33000001
-17.08 -7.4369998 -1.171 0.17
-16.914 -7.428 -1.16 0.56999999
-17.011999 -7.5349998 -1.17 0.34999999
-16.962999 -7.5770001 -1.168 0.23999999
-16.739 -7.54 -1.151 0.57999998
-16.565001 -7.5240002 -1.1390001 0.25
-15.889 -7.276 -1.086 0.28999999
-17.958 -8.2609997 -1.255 0.46000001
-17.851 -8.2799997 -1.249 0.27000001
-15.746 -7.3610001 -1.079 0.34
-18.617001 -8.7790003 -1.3150001 0.25
-18.445 -8.7690001 -1.304 0.46000001
-16.714001 -8.0080004 -1.164 0.2
-16.739 -8.0839996 -1.168 0.43000001
-18.146 -8.802 -1.285 0.23999999
-16.906 -8.2639999 -1.1849999 0.34999999
-17.552 -8.6499996 -1.24 0.34
-17.704 -8.7939997 -1.255 0.28
-14.309 -7.158 -0.977 0.25
-17.490999 -8.8249998 -1.242 0.38999999
-17.355 -8.8249998 -1.233 0.34
-17.354 -8.8590002 -1.234 0.36000001
-16.989 -8.7390003 -1.206 0.37
-16.854 -8.7370005 -1.197 0.30000001
-16.738001 -8.743 -1.1900001 0.36000001
-16.667999 -8.7729998 -1.187 0.28999999
-16.66 -8.8360004 -1.188 0.28999999
-16.434999 -8.783 -1.1720001 0.47999999
-16.045 -8.6059999 -1.14 0.30000001
-15.952 -8.6199999 -1.135 0.30000001
-16.274 -8.8620005 -1.164 0.25
-16.040001 -8.7989998 -1.147 0.31999999
-15.831 -8.7489996 -1.131 0.49000001
-15.685 -8.7329998 -1.1210001 0.31999999
-15.701 -8.8059998 -1.125 0.28
-15.764 -8.8739996 -1.132 0.30000001
-15.479 -8.7779999 -1.11 0.47
-15.313 -8.7469997 -1.098 0.38
-15.249 -8.7740002 -1.095 0.23999999
-15.31 -8.8730001 -1.102 0.27000001
-15.054 -8.7880001 -1.0829999 0.47999999
-14.544 -8.5500002 -1.0420001 0.25999999
-14.412 -8.5030003 -1.0319999 0.70999998
-14.336 -8.5190001 -1.027 0.27000001
-14.225 -8.5129995 -1.02 0.60000002
-14.132 -8.5179996 -1.0140001 0.36000001
-14.035 -8.5200005 -1.008 0.41
-13.95 -8.5279999 -1.003 0.49000001
-13.852 -8.5279999 -0.99699998 0.49000001
-13.758 -8.5290003 -0.991 0.49000001
-13.687 -8.5150003 -0.986 0.5
-13.594 -8.5170002 -0.98100001 0.5
-13.503 -8.5190001 -0.97500002 0.49000001
-13.417 -8.5240002 -0.97000003 0.51999998
-13.325 -8.5240002 -0.96399999 0.5
-13.236 -8.5249996 -0.95899999 0.51999998
-13.168 -8.5100002 -0.954 0.54000002
-13.074 -8.5080004 -0.94800001 0.54000002
-12.991 -8.5120001 -0.94300002 0.52999997
-12.912 -8.5179996 -0.93800002 0.52999997
-12.826 -8.5190001 -0.93300003 0.54000002
-12.744 -8.5229998 -0.92799997 0.54000002
-12.663 -8.526 -0.92299998 0.55000001
-12.582 -8.5290003 -0.91900003 0.54000002
-12.517 -8.5129995 -0.91399997 0.55000001
-12.438 -8.5170002 -0.90899998 0.56999999
-12.36 -8.5200005 -0.90499997 0.54000002
-12.283 -8.5240002 -0.89999998 0.56999999
-12.202 -8.5249996 -0.89499998 0.57999998
-12.126 -8.5279999 -0.89099997 0.60000002
-12.052 -8.533 -0.88700002 0.60000002
-11.987 -8.5150003 -0.88200003 0.61000001
-11.913 -8.5190001 -0.87800002 0.60000002
-11.833 -8.5179996 -0.87300003 0.56999999
-11.762 -8.5229998 -0.86900002 0.62
-11.69 -8.5270004 -0.86500001 0.62
-11.619 -8.5299997 -0.861 0.58999997
-11.552 -8.5369997 -0.85699999 0.62
-11.49 -8.5200005 -0.85299999 0.60000002
-11.417 -8.5209999 -0.84799999 0.61000001
-11.343 -8.5209999 -0.84399998 0.62
-11.276 -8.526 -0.83999997 0.61000001
-11.203 -8.526 -0.83600003 0.62
-11.134 -8.5290003 -0.83200002 0.63999999
-11.064 -8.5310001 -0.82800001 0.62
-11.013 -8.5190001 -0.824 0.62
-10.944 -8.5200005 -0.81999999 0.63999999
-10.884 -8.5290003 -0.81699997 0.63999999
-10.82 -8.533 -0.81400001 0.64999998
-10.754 -8.5360003 -0.81 0.64999998
-10.688 -8.5380001 -0.80599999 0.63
-10.618 -8.5369997 -0.80199999 0.63999999
-10.564 -8.5209999 -0.79900002 0.63999999
-10.5 -8.5240002 -0.79500002 0.63
-10.428 -8.5200005 -0.79100001 0.64999998
-10.371 -8.5270004 -0.78799999 0.64999998
-10.31 -8.5319996 -0.78500003 0.63999999
-10.239 -8.5270004 -0.77999997 0.66000003
-10.191 -8.5410004 -0.778 0.67000002
-10.142 -8.5279999 -0.77499998 0.66000003
-10.075 -8.5249996 -0.77100003 0.68000001
-10.02 -8.533 -0.76800001 0.68000001
