# .PCD v0.7 - Point Cloud Data file format
VERSION 0.7
FIELDS x y z intensity
SIZE 4 4 4 4
TYPE F F F F
COUNT 1 1 1 1
WIDTH 1411
HEIGHT 1
VIEWPOINT 0 0 0 1 0 0 0
POINTS 1411
DATA ascii
-5.1339998 -7.7059999 -1.518 0.36000001
-5.1069999 -7.7179999 -1.517 0.36000001
-5.105 -7.7420001 -1.521 0.34999999
-5.0679998 -7.7379999 -1.516 0.34
-5.0440001 -7.7540002 -1.516 0.38
-5.0170002 -7.7670002 -1.516 0.31999999
-4.9889998 -7.776 -1.5140001 0.31999999
-4.9629998 -7.79 -1.5140001 0.38
-4.9400001 -7.8070002 -1.5140001 0.31
-4.9180002 -7.8000002 -1.511 0.33000001
-4.8959999 -7.8200002 -1.512 0.36000001
-4.868 -7.829 -1.511 0.34999999
-4.8369999 -7.8340001 -1.5089999 0.38
-4.8080001 -7.842 -1.507 0.31
-4.79 -7.8670001 -1.5089999 0.38999999
-4.756 -7.8670001 -1.506 0.31
-4.7420001 -7.8730001 -1.506 0.36000001
-4.7189999 -7.8899999 -1.506 0.31999999
-4.684 -7.8870001 -1.503 0.31999999
-4.6570001 -7.8990002 -1.502 0.31999999
-4.632 -7.9130001 -1.502 0.34
-4.5999999 -7.9159999 -1.5 0.38999999
-4.5689998 -7.9180002 -1.497 0.31
-4.5640001 -7.9390001 -1.5 0.38
-4.5310001 -7.9400001 -1.497 0.30000001
-4.5040002 -7.9510002 -1.4960001 0.34
-4.4790001 -7.9650002 -1.4960001 0.33000001
-4.4450002 -7.961 -1.493 0.31
-4.4239998 -7.9819999 -1.494 0.41999999
-4.3979998 -7.994 -1.494 0.30000001
-4.381 -7.994 -1.493 0.34999999
-4.3530002 -8.0030003 -1.492 0.34
-4.3309999 -8.0220003 -1.493 0.34999999
-4.2969999 -8.0200005 -1.489 0.33000001
-4.2719998 -8.033 -1.489 0.31
-4.2379999 -8.0290003 -1.4859999 0.30000001
-4.2129998 -8.0419998 -1.4859999 0.37
-4.2030001 -8.0539999 -1.487 0.37
-4.177 -8.0670004 -1.487 0.34
-4.1479998 -8.073 -1.4859999 0.30000001
-4.1240001 -8.0880003 -1.4859999 0.36000001
-4.0960002 -8.0959997 -1.485 0.34999999
-4.0679998 -8.1029997 -1.484 0.33000001
-4.0380001 -8.1070004 -1.482 0.34
-4.026 -8.1149998 -1.483 0.28999999
-4.0019999 -8.132 -1.483 0.28999999
-3.9760001 -8.1420002 -1.483 0.41
-3.9460001 -8.1459999 -1.4809999 0.31999999
-3.9170001 -8.151 -1.48 0.31999999
-3.8900001 -8.1619997 -1.479 0.33000001
-3.8740001 -8.1610003 -1.478 0.33000001
-3.846 -8.1669998 -1.477 0.31999999
-3.825 -8.1899996 -1.479 0.38
-3.7939999 -8.1899996 -1.477 0.34999999
-3.766 -8.1960001 -1.476 0.31999999
-3.74 -8.2080002 -1.476 0.36000001
-3.7149999 -8.2209997 -1.476 0.33000001
-3.687 -8.2290001 -1.475 0.34
-3.677 -8.2410002 -1.476 0.34
-3.6489999 -8.2469997 -1.475 0.31999999
-3.619 -8.2489996 -1.473 0.28999999
-3.5880001 -8.25 -1.471 0.36000001
-3.566 -8.2700005 -1.473 0.36000001
-3.54 -8.2810001 -1.473 0.38
-3.513 -8.2880001 -1.472 0.30000001
-3.4990001 -8.2919998 -1.472 0.37
-3.47 -8.2959995 -1.471 0.30000001
-3.444 -8.3079996 -1.471 0.38
-3.415 -8.3120003 -1.47 0.30000001
-3.3929999 -8.3319998 -1.471 0.37
-3.362 -8.3310003 -1.469 0.34
-3.3369999 -8.3459997 -1.47 0.28999999
-3.3239999 -8.349 -1.47 0.38
-3.2950001 -8.3540001 -1.469 0.31
-3.2679999 -8.3610001 -1.4680001 0.34999999
-3.2390001 -8.3649998 -1.467 0.30000001
-3.2160001 -8.3830004 -1.4680001 0.36000001
-3.187 -8.3850002 -1.467 0.30000001
-3.1600001 -8.3950005 -1.467 0.37
-3.1440001 -8.3929996 -1.465 0.31
-3.119 -8.4049997 -1.466 0.31999999
-3.0869999 -8.3999996 -1.4630001 0.31999999
-3.0639999 -8.4189997 -1.465 0.41
-3.033 -8.415 -1.462 0.31
-3.0020001 -8.4130001 -1.46 0.34
-2.9760001 -8.4230003 -1.46 0.31999999
-2.9619999 -8.4259996 -1.46 0.28999999
-2.9330001 -8.4280005 -1.4579999 0.38999999
-2.9070001 -8.4390001 -1.459 0.31999999
-2.8800001 -8.448 -1.459 0.36000001
-2.848 -8.4379997 -1.455 0.30000001
-2.8210001 -8.4469995 -1.455 0.36000001
-2.7939999 -8.4540005 -1.455 0.34
-2.776 -8.4449997 -1.452 0.30000001
-2.7509999 -8.4580002 -1.4529999 0.36000001
-2.723 -8.46 -1.452 0.28999999
-2.6930001 -8.4580002 -1.45 0.28999999
-2.665 -8.4639997 -1.45 0.38
-2.638 -8.4709997 -1.449 0.31999999
-2.6129999 -8.4829998 -1.45 0.36000001
-2.598 -8.4809999 -1.449 0.31999999
-2.5680001 -8.4799995 -1.447 0.37
-2.539 -8.4779997 -1.4450001 0.31999999
-2.5120001 -8.4860001 -1.4450001 0.33000001
-2.4860001 -8.4960003 -1.446 0.33000001
-2.4579999 -8.5 -1.4450001 0.34
-2.428 -8.4949999 -1.443 0.34999999
-2.4119999 -8.4910002 -1.441 0.34
-2.3859999 -8.4980001 -1.441 0.38
-2.355 -8.4910002 -1.438 0.31
-2.325 -8.4879999 -1.437 0.36000001
-2.2939999 -8.4790001 -1.434 0.30000001
-2.26 -8.4569998 -1.428 0.33000001
-2.2320001 -8.46 -1.428 0.30000001
-2.1889999 -8.349 -1.4069999 0.38999999
-2.1559999 -8.3280001 -1.401 0.40000001
-2.1300001 -8.3339996 -1.401 0.34999999
-2.0999999 -8.3260002 -1.399 0.41
-2.075 -8.3360004 -1.399 0.31999999
-2.049 -8.3459997 -1.4 0.43000001
-2.0179999 -8.3299999 -1.396 0.33000001
-2.0009999 -8.3199997 -1.393 0.44999999
-1.9450001 -8.1990004 -1.37 0.38
-1.914 -8.1789999 -1.365 0.34
-1.908 -8.2749996 -1.382 0.34
-1.888 -8.3079996 -1.387 0.37
-1.859 -8.2980003 -1.3839999 0.40000001
-1.819 -8.2390003 -1.372 0.38999999
-1.7970001 -8.2030001 -1.365 0.43000001
-1.779 -8.2449999 -1.372 0.38999999
-1.771 -8.3330002 -1.387 0.33000001
-1.7410001 -8.3240004 -1.3839999 0.36000001
-1.7079999 -8.2939997 -1.378 0.38999999
-1.692 -8.3479996 -1.386 0.27000001
-1.664 -8.3450003 -1.385 0.54000002
-1.653 -8.3579998 -1.387 0.31999999
-1.623 -8.3439999 -1.383 0.30000001
-1.596 -8.3470001 -1.383 0.41
-1.568 -8.3400002 -1.381 0.34
-1.546 -8.368 -1.385 0.47999999
-1.526 -8.4119997 -1.392 0.31999999
-1.5 -8.415 -1.392 0.33000001
-1.487 -8.4189997 -1.392 0.36000001
-1.461 -8.4289999 -1.393 0.30000001
-1.432 -8.4180002 -1.39 0.36000001
-1.4069999 -8.4300003 -1.392 0.30000001
-1.381 -8.4370003 -1.392 0.37
-1.352 -8.4239998 -1.3890001 0.31
-1.326 -8.4359999 -1.39 0.36000001
-1.313 -8.4399996 -1.391 0.30000001
-1.285 -8.4300003 -1.388 0.34999999
-1.2589999 -8.4379997 -1.3890001 0.28999999
-1.234 -8.4499998 -1.39 0.38
-1.204 -8.434 -1.387 0.30000001
-1.1799999 -8.4510002 -1.3890001 0.37
-1.151 -8.4429998 -1.387 0.30000001
-1.137 -8.4390001 -1.386 0.37
-1.1109999 -8.4469995 -1.387 0.31
-1.084 -8.4460001 -1.386 0.36000001
-1.057 -8.4420004 -1.385 0.31
-1.031 -8.4469995 -1.385 0.36000001
-1.003 -8.4420004 -1.3839999 0.30000001
-0.97600001 -8.4420004 -1.383 0.36000001
-0.963 -8.4390001 -1.382 0.33000001
-0.93599999 -8.4440002 -1.383 0.31
-0.90899998 -8.4370003 -1.381 0.38
-0.88099998 -8.4280005 -1.3789999 0.34999999
-0.85399997 -8.427 -1.378 0.34999999
-0.82700002 -8.4259996 -1.377 0.30000001
-0.80000001 -8.4239998 -1.377 0.36000001
-0.78600001 -8.4180002 -1.375 0.34
-0.759 -8.4119997 -1.374 0.30000001
-0.73299998 -8.4209995 -1.375 0.34999999
-0.70499998 -8.4029999 -1.3710001 0.31
-0.67900002 -8.4020004 -1.3710001 0.28999999
-0.653 -8.4119997 -1.372 0.43000001
-0.62699997 -8.4169998 -1.373 0.31999999
-0.61299998 -8.4160004 -1.372 0.30000001
-0.58600003 -8.4110003 -1.3710001 0.34
-0.56 -8.4060001 -1.37 0.34
-0.53399998 -8.4160004 -1.3710001 0.31999999
-0.50700003 -8.4119997 -1.37 0.31
-0.47999999 -8.4090004 -1.37 0.31
-0.454 -8.4209995 -1.3710001 0.31
-0.44100001 -8.4169998 -1.3710001 0.30000001
-0.414 -8.4189997 -1.3710001 0.31
-0.38800001 -8.4200001 -1.3710001 0.30000001
-0.361 -8.4130001 -1.369 0.27000001
-0.33500001 -8.4160004 -1.37 0.38999999
-0.308 -8.4130001 -1.369 0.31
-0.28200001 -8.4180002 -1.37 0.31999999
-0.26899999 -8.415 -1.369 0.31999999
-0.242 -8.4099998 -1.368 0.28999999
-0.215 -8.3850002 -1.363 0.34
-0.18799999 -8.368 -1.36 0.36000001
-0.163 -8.4160004 -1.369 0.20999999
-0.13500001 -8.3450003 -1.3559999 0.44
-0.11 -8.3809996 -1.362 0.41
-0.097000003 -8.4219999 -1.37 0.31999999
-0.07 -8.4209995 -1.369 0.27000001
-0.044 -8.3859997 -1.363 0.34
-0.017000001 -8.4230003 -1.37 0.38999999
0.0089999996 -8.4429998 -1.373 0.34
0.035999998 -8.4429998 -1.373 0.34
0.061999999 -8.448 -1.374 0.34
0.089000002 -8.4460001 -1.374 0.28999999
0.102 -8.4499998 -1.375 0.36000001
0.12899999 -8.4499998 -1.375 0.30000001
0.155 -8.4390001 -1.373 0.28999999
0.18099999 -8.427 -1.3710001 0.25999999
0.206 -8.3769999 -1.362 0.41
0.234 -8.408 -1.368 0.44999999
0.24699999 -8.4169998 -1.369 0.36000001
0.27200001 -8.3789997 -1.363 0.36000001
0.29699999 -8.3470001 -1.357 0.31999999
0.32300001 -8.3339996 -1.355 0.38999999
0.34999999 -8.3450003 -1.357 0.31999999
0.38100001 -8.448 -1.376 0.34999999
0.40700001 -8.4429998 -1.375 0.41
0.421 -8.4460001 -1.376 0.36000001
0.447 -8.4370003 -1.374 0.34999999
0.47299999 -8.4309998 -1.373 0.31
0.5 -8.4280005 -1.373 0.34999999
0.52600002 -8.4239998 -1.373 0.30000001
0.55299997 -8.4250002 -1.373 0.34999999
0.57800001 -8.4090004 -1.3710001 0.34999999
0.58999997 -8.3959999 -1.369 0.30000001
0.616 -8.3889999 -1.368 0.36000001
0.64200002 -8.3809996 -1.3660001 0.31
0.66799998 -8.375 -1.3660001 0.37
0.69300002 -8.3610001 -1.364 0.31999999
0.71899998 -8.349 -1.362 0.34999999
0.74599999 -8.3559999 -1.364 0.37
0.773 -8.3599997 -1.365 0.30000001
0.78399998 -8.3369999 -1.3609999 0.31999999
0.81 -8.335 -1.3609999 0.34
0.83700001 -8.3400002 -1.362 0.33000001
0.86199999 -8.3249998 -1.36 0.34999999
0.889 -8.3290005 -1.3609999 0.31
0.91600001 -8.3330002 -1.363 0.36000001
0.94 -8.3170004 -1.36 0.36000001
0.94999999 -8.29 -1.3559999 0.38999999
0.98000002 -8.316 -1.3609999 0.44999999
1.005 -8.3030005 -1.359 0.31999999
1.031 -8.2980003 -1.359 0.30000001
1.058 -8.3050003 -1.3609999 0.38999999
1.0829999 -8.2919998 -1.359 0.36000001
1.098 -8.3050003 -1.362 0.40000001
1.124 -8.302 -1.362 0.31999999
1.148 -8.2849998 -1.359 0.34999999
1.173 -8.2749996 -1.358 0.36000001
1.199 -8.2659998 -1.357 0.33000001
1.221 -8.2390003 -1.353 0.31999999
1.247 -8.2390003 -1.354 0.38999999
1.2589999 -8.2270002 -1.352 0.37
1.286 -8.2329998 -1.354 0.36000001
1.311 -8.2189999 -1.352 0.36000001
1.34 -8.2360001 -1.3559999 0.34999999
1.363 -8.2139997 -1.353 0.41999999
1.388 -8.2040005 -1.351 0.34999999
1.414 -8.2060003 -1.353 0.34999999
1.438 -8.1870003 -1.35 0.34999999
1.451 -8.1870003 -1.35 0.34999999
1.478 -8.1879997 -1.351 0.34999999
1.5 -8.1660004 -1.348 0.36000001
1.527 -8.165 -1.349 0.36000001
1.552 -8.1610003 -1.349 0.34999999
1.576 -8.1459999 -1.347 0.34999999
1.604 -8.1549997 -1.35 0.25
1.615 -8.1420002 -1.348 0.38
1.643 -8.151 -1.35 0.37
1.661 -8.1070004 -1.3430001 0.44999999
1.698 -8.158 -1.354 0.38999999
1.737 -8.2119999 -1.364 0.37
1.765 -8.2180004 -1.3660001 0.44
1.7869999 -8.2559996 -1.374 0.36000001
1.814 -8.2559996 -1.375 0.37
1.842 -8.2580004 -1.376 0.37
1.869 -8.2589998 -1.378 0.41
1.8940001 -8.25 -1.377 0.38
1.919 -8.2379999 -1.376 0.37
1.946 -8.2379999 -1.377 0.37
1.97 -8.2220001 -1.375 0.37
1.9809999 -8.2110004 -1.374 0.33000001
2.003 -8.1899996 -1.3710001 0.47999999
2.027 -8.1759996 -1.37 0.38
2.0539999 -8.1750002 -1.3710001 0.43000001
2.0799999 -8.1719999 -1.3710001 0.41
2.1070001 -8.1680002 -1.372 0.41
2.132 -8.1610003 -1.372 0.47999999
2.151 -8.1780005 -1.376 0.38
2.174 -8.1639996 -1.374 0.38
2.2049999 -8.1759996 -1.378 0.34999999
2.233 -8.177 -1.3789999 0.38
2.257 -8.1660004 -1.378 0.34
2.2809999 -8.1529999 -1.377 0.33000001
2.3099999 -8.1549997 -1.3789999 0.31999999
2.3210001 -8.1479998 -1.378 0.33000001
2.349 -8.1459999 -1.3789999 0.34
2.372 -8.1309996 -1.378 0.33000001
2.3989999 -8.1280003 -1.3789999 0.37
2.425 -8.1239996 -1.3789999 0.30000001
2.451 -8.118 -1.38 0.34999999
2.464 -8.1120005 -1.3789999 0.30000001
2.49 -8.1059999 -1.38 0.36000001
2.516 -8.1000004 -1.38 0.30000001
2.5420001 -8.0959997 -1.381 0.36000001
2.5680001 -8.0900002 -1.381 0.31
2.599 -8.0970001 -1.3839999 0.30000001
2.622 -8.0830002 -1.383 0.31
2.6259999 -8.0509996 -1.378 0.36000001
2.6440001 -8.0220003 -1.374 0.44999999
2.6589999 -7.9819999 -1.368 0.46000001
2.704 -8.033 -1.3789999 0.38
2.7379999 -8.0509996 -1.3839999 0.33000001
2.76 -8.0310001 -1.382 0.31999999
2.7909999 -8.0410004 -1.385 0.34
2.8180001 -8.0360003 -1.386 0.31999999
2.8310001 -8.0310001 -1.386 0.31999999
2.8559999 -8.0240002 -1.386 0.31
2.882 -8.0150003 -1.386 0.30000001
2.905 -8.0030003 -1.386 0.30000001
2.9330001 -7.9990001 -1.387 0.31
2.957 -7.9879999 -1.386 0.30000001
2.9820001 -7.9780002 -1.386 0.31999999
2.9960001 -7.9770002 -1.387 0.34999999
3.0239999 -7.9749999 -1.3890001 0.33000001
3.0469999 -7.96 -1.387 0.31999999
3.072 -7.9530001 -1.388 0.34
3.095 -7.9369998 -1.387 0.34
3.1289999 -7.9499998 -1.391 0.23
3.138 -7.9369998 -1.39 0.31
3.154 -7.9039998 -1.385 0.47
3.1819999 -7.9029999 -1.387 0.37
3.2060001 -7.8909998 -1.386 0.34999999
3.2290001 -7.875 -1.385 0.34999999
3.2520001 -7.862 -1.385 0.38
3.29 -7.882 -1.391 0.37
3.316 -7.9099998 -1.397 0.31999999
3.342 -7.901 -1.397 0.31
3.368 -7.8940001 -1.398 0.33000001
3.3959999 -7.8909998 -1.399 0.34999999
3.414 -7.8660002 -1.397 0.25999999
3.414 -7.7989998 -1.386 0.25999999
3.411 -7.7249999 -1.373 0.37
3.4200001 -7.7129998 -1.372 0.47999999
3.493 -7.8109999 -1.393 0.34
3.5 -7.7610002 -1.386 0.25
3.467 -7.625 -1.3609999 0.38
3.5350001 -7.71 -1.38 0.41
3.5799999 -7.7420001 -1.3890001 0.34
3.5929999 -7.7069998 -1.3839999 0.46000001
3.6359999 -7.7350001 -1.392 0.38
3.6659999 -7.7670002 -1.399 0.37
3.6600001 -7.6929998 -1.387 0.38
3.723 -7.7610002 -1.402 0.38
3.756 -7.7670002 -1.406 0.40000001
3.7639999 -7.7220001 -1.399 0.41
3.8010001 -7.737 -1.405 0.38
3.8369999 -7.7480001 -1.409 0.34
3.848 -7.7399998 -1.409 0.47
3.8640001 -7.71 -1.405 0.34999999
3.904 -7.7290001 -1.4119999 0.43000001
3.9300001 -7.7210002 -1.4119999 0.41
3.951 -7.7010002 -1.411 0.38999999
3.9690001 -7.678 -1.409 0.38
3.9790001 -7.6669998 -1.408 0.41
4.0009999 -7.651 -1.4069999 0.41
4.0149999 -7.619 -1.403 0.37
4.0300002 -7.5910001 -1.4 0.52999997
4.0560002 -7.5819998 -1.401 0.30000001
4.0830002 -7.5760002 -1.402 0.38
4.105 -7.559 -1.401 0.44999999
4.1269999 -7.5700002 -1.405 0.31999999
4.1669998 -7.586 -1.411 0.38
4.145 -7.493 -1.3940001 0.36000001
4.2259998 -7.5809999 -1.415 0.38999999
4.2360001 -7.5430002 -1.41 0.36000001
4.2249999 -7.4689999 -1.398 0.43000001
4.2280002 -7.4190001 -1.39 0.41999999
4.2740002 -7.447 -1.399 0.34999999
4.2080002 -7.3060002 -1.3710001 0.41
4.2309999 -7.2919998 -1.3710001 0.38
4.2740002 -7.3130002 -1.378 0.38
4.3179998 -7.335 -1.385 0.36000001
4.3179998 -7.283 -1.377 0.31999999
4.316 -7.2290001 -1.369 0.43000001
4.3779998 -7.2789998 -1.382 0.33000001
4.3959999 -7.2839999 -1.385 0.36000001
4.4549999 -7.329 -1.397 0.38
4.4749999 -7.3099999 -1.396 0.38999999
4.4809999 -7.2690001 -1.39 0.31999999
4.507 -7.2600002 -1.391 0.43000001
4.4860001 -7.1760001 -1.377 0.31
4.4990001 -7.1719999 -1.377 0.41
4.5370002 -7.1810002 -1.382 0.34
4.527 -7.1170001 -1.372 0.44999999
4.5190001 -7.0549998 -1.362 0.38
4.632 -7.1810002 -1.391 0.37
4.6110001 -7.0999999 -1.377 0.34999999
4.6269999 -7.0760002 -1.375 0.34
4.612 -7.0289998 -1.367 0.44
4.6350002 -7.0159998 -1.367 0.38
4.7199998 -7.0949998 -1.387 0.40000001
4.7649999 -7.1139998 -1.3940001 0.41999999
4.7220001 -7.0029998 -1.374 0.31999999
4.7649999 -7.0190001 -1.38 0.34
4.8439999 -7.0869999 -1.398 0.47999999
4.8410001 -7.0580001 -1.3940001 0.34
4.882 -7.0710001 -1.4 0.37
4.875 -7.013 -1.391 0.36000001
4.9109998 -7.0170002 -1.395 0.41
4.9510002 -7.027 -1.4 0.38
4.9569998 -6.9889998 -1.395 0.36000001
4.8540001 -6.7989998 -1.357 0.37
4.9439998 -6.8800001 -1.378 0.38
4.9990001 -6.9330001 -1.392 0.28999999
4.895 -6.7449999 -1.354 0.47999999
5.0370002 -6.8930001 -1.39 0.43000001
5.0310001 -6.8410001 -1.382 0.31
4.9860001 -6.7350001 -1.362 0.38
5.0209999 -6.7379999 -1.3660001 0.41
5.099 -6.7979999 -1.383 0.46000001
5.1240001 -6.809 -1.387 0.25999999
5.0999999 -6.7329998 -1.374 0.43000001
5.098 -6.6869998 -1.367 0.41999999
5.1100001 -6.6589999 -1.364 0.44999999
5.1339998 -6.6469998 -1.365 0.36000001
5.217 -6.71 -1.383 0.43000001
5.2220001 -6.6939998 -1.382 0.38
5.25 -6.6869998 -1.3839999 0.34999999
5.3109999 -6.7220001 -1.395 0.41
5.3779998 -6.7620001 -1.408 0.31999999
5.329 -6.6570001 -1.388 0.41
5.3720002 -6.6680002 -1.3940001 0.25
5.3730001 -6.6269999 -1.3890001 0.54000002
5.427 -6.6719999 -1.401 0.34
5.4180002 -6.618 -1.393 0.41
5.513 -6.691 -1.413 0.31
5.5250001 -6.6630001 -1.411 0.43000001
5.4520001 -6.5339999 -1.385 0.34
5.5640001 -6.625 -1.41 0.41999999
5.5799999 -6.6009998 -1.409 0.41
5.5560002 -6.5310001 -1.397 0.34
5.5900002 -6.5510001 -1.403 0.31
5.678 -6.6110001 -1.421 0.44999999
5.723 -6.6209998 -1.428 0.34
5.7220001 -6.5780001 -1.4220001 0.43000001
5.7410002 -6.559 -1.4220001 0.38999999
5.7800002 -6.5609999 -1.427 0.34
5.803 -6.5669999 -1.4299999 0.44999999
5.8239999 -6.5489998 -1.4299999 0.28999999
5.8060002 -6.4879999 -1.42 0.41
5.8000002 -6.4400001 -1.413 0.36000001
5.8109999 -6.4120002 -1.411 0.36000001
5.8449998 -6.408 -1.414 0.41
5.849 -6.3720002 -1.41 0.33000001
5.8829999 -6.3889999 -1.416 0.34999999
5.8909998 -6.3579998 -1.413 0.43000001
5.9390001 -6.369 -1.42 0.34999999
5.9629998 -6.355 -1.421 0.41
5.921 -6.27 -1.405 0.34999999
5.9310002 -6.2420001 -1.403 0.43000001
6.0229998 -6.2979999 -1.421 0.34
6.0219998 -6.2779999 -1.419 0.31999999
6.0669999 -6.2859998 -1.425 0.41
6.1020002 -6.2820001 -1.429 0.33000001
6.039 -6.178 -1.408 0.44
6.0710001 -6.1719999 -1.411 0.31
6.1030002 -6.1659999 -1.414 0.44999999
6.1329999 -6.1570001 -1.4170001 0.34
6.1529999 -6.158 -1.42 0.47999999
6.1690001 -6.1350002 -1.419 0.43000001
6.2280002 -6.1550002 -1.429 0.34999999
6.2600002 -6.1469998 -1.432 0.34
6.3119998 -6.1589999 -1.4400001 0.38
6.348 -6.1560001 -1.444 0.44
6.3670001 -6.1360002 -1.444 0.30000001
6.3829999 -6.131 -1.4450001 0.47999999
6.4060001 -6.1149998 -1.447 0.36000001
6.4369998 -6.1059999 -1.449 0.38999999
6.4590001 -6.0879998 -1.45 0.44
6.5009999 -6.0890002 -1.456 0.34
6.5110002 -6.0609999 -1.454 0.37
6.5359998 -6.046 -1.455 0.41
6.5489998 -6.0380001 -1.456 0.36000001
6.5669999 -6.0180001 -1.456 0.41
6.599 -6.0089998 -1.459 0.34999999
6.6240001 -5.993 -1.46 0.41999999
6.6360002 -5.9660001 -1.4579999 0.34
6.671 -5.9590001 -1.462 0.40000001
6.7010002 -5.9489999 -1.465 0.34
6.7080002 -5.9169998 -1.462 0.37
6.7220001 -5.9109998 -1.4630001 0.43000001
6.7859998 -5.9299998 -1.474 0.28999999
6.8119998 -5.915 -1.476 0.5
6.8590002 -5.9180002 -1.483 0.40000001
6.902 -5.9169998 -1.488 0.34999999
6.9169998 -5.8920002 -1.487 0.34
6.9390001 -5.8730001 -1.488 0.33000001
6.9590001 -5.8709998 -1.4910001 0.33000001
6.9710002 -5.8439999 -1.489 0.34
6.9910002 -5.823 -1.489 0.31
7.0170002 -5.8080001 -1.4910001 0.34
7.0300002 -5.7820001 -1.49 0.40000001
7.053 -5.763 -1.4910001 0.41999999
7.0900002 -5.7750001 -1.498 0.38
7.1110001 -5.7550001 -1.498 0.30000001
7.1529999 -5.7519999 -1.5039999 0.38999999
7.1760001 -5.7329998 -1.505 0.30000001
7.1820002 -5.7010002 -1.502 0.44
7.2210002 -5.6950002 -1.507 0.25999999
7.2329998 -5.6680002 -1.506 0.46000001
7.2389998 -5.6539998 -1.505 0.34
7.2639999 -5.6370001 -1.507 0.44
7.2820001 -5.6139998 -1.507 0.34999999
7.2989998 -5.592 -1.507 0.44
7.3280001 -5.5770001 -1.5089999 0.34999999
7.349 -5.5560002 -1.51 0.40000001
7.3579998 -5.527 -1.508 0.31999999
7.368 -5.5170002 -1.508 0.34
7.381 -5.4899998 -1.507 0.34
7.3899999 -5.461 -1.506 0.31999999
7.4039998 -5.4359999 -1.505 0.31999999
7.4260001 -5.4159999 -1.506 0.31999999
7.4369998 -5.388 -1.505 0.33000001
7.4489999 -5.3610001 -1.503 0.30000001
7.4640002 -5.336 -1.503 0.28999999
7.4710002 -5.3239999 -1.503 0.44
7.4889998 -5.3010001 -1.503 0.30000001
7.52 -5.2880001 -1.506 0.34999999
7.54 -5.2659998 -1.507 0.33000001
7.566 -5.2490001 -1.5089999 0.31999999
7.5830002 -5.2259998 -1.5089999 0.31999999
7.5869999 -5.211 -1.508 0.31
7.6170001 -5.1960001 -1.511 0.38999999
7.6360002 -5.1750002 -1.512 0.28999999
4.6459999 -3.1389999 -0.87 0.27000001
4.6479998 -3.119 -0.86799997 0.17
4.6149998 -3.076 -0.85900003 0.28999999
4.619 -3.059 -0.85799998 0.49000001
4.6409998 -3.062 -0.86199999 0.37
7.7480001 -5.0570002 -1.517 0.18000001
4.7420001 -3.086 -0.87900001 0.41999999
7.7979999 -5.02 -1.521 0.28
7.8049998 -4.9899998 -1.5190001 0.28
7.8369999 -4.9759998 -1.522 0.41999999
4.8839998 -3.0799999 -0.89999998 0.25999999
7.8559999 -4.9530001 -1.523 0.22
4.8850002 -3.0599999 -0.898 0.34999999
4.8730001 -3.0309999 -0.89300001 0.25999999
7.9250002 -4.8759999 -1.526 0.30000001
7.9460001 -4.8540001 -1.527 0.28999999
7.974 -4.8369999 -1.53 0.36000001
8.0010004 -4.8189998 -1.5319999 0.34999999
8.0170002 -4.7940001 -1.5319999 0.34999999
8.033 -4.7870002 -1.534 0.34
8.0480003 -4.7610002 -1.534 0.30000001
8.0690002 -4.7399998 -1.536 0.34999999
8.0860004 -4.7160001 -1.536 0.31999999
8.1070004 -4.6939998 -1.5369999 0.28
8.1289997 -4.6719999 -1.539 0.38
8.1450005 -4.665 -1.541 0.31999999
8.158 -4.638 -1.54 0.34
8.1739998 -4.6129999 -1.541 0.31999999
8.1969995 -4.592 -1.5420001 0.31999999
8.2030001 -4.5619998 -1.541 0.33000001
8.2220001 -4.539 -1.5420001 0.31999999
8.2329998 -4.5110002 -1.541 0.31999999
8.2419996 -4.4990001 -1.541 0.34
8.2609997 -4.4759998 -1.5420001 0.31
8.2819996 -4.454 -1.544 0.31999999
8.2910004 -4.4250002 -1.543 0.31999999
8.3059998 -4.4000001 -1.543 0.34
8.3249998 -4.3759999 -1.544 0.31999999
8.3369999 -4.349 -1.544 0.31
8.3549995 -4.342 -1.546 0.31999999
8.3739996 -4.3179998 -1.5470001 0.33000001
8.3979998 -4.2969999 -1.549 0.31999999
8.4110003 -4.2709999 -1.549 0.31999999
8.4300003 -4.2470002 -1.55 0.33000001
8.4499998 -4.224 -1.551 0.31
8.4580002 -4.1950002 -1.55 0.30000001
8.4700003 -4.184 -1.551 0.33000001
8.4849997 -4.158 -1.552 0.34
8.5089998 -4.1370001 -1.554 0.30000001
8.5319996 -4.1149998 -1.556 0.31
8.5559998 -4.0929999 -1.558 0.30000001
8.5719995 -4.0679998 -1.559 0.30000001
8.5760002 -4.0370002 -1.557 0.34999999
8.6020002 -4.033 -1.561 0.34999999
8.6309996 -4.013 -1.564 0.28999999
8.6199999 -3.9749999 -1.559 0.27000001
8.6140003 -3.9400001 -1.556 0.34
8.6339998 -3.9159999 -1.557 0.31
8.632 -3.8829999 -1.554 0.47
8.6689997 -3.8670001 -1.559 0.38
8.6999998 -3.8640001 -1.564 0.37
8.7399998 -3.849 -1.5700001 0.34999999
8.7840004 -3.835 -1.576 0.31
8.8070002 -3.812 -1.5779999 0.31
8.835 -3.7920001 -1.581 0.31
8.8730001 -3.7750001 -1.586 0.31
8.8719997 -3.7409999 -1.5829999 0.25999999
8.9169998 -3.744 -1.591 0.38999999
8.9289999 -3.7160001 -1.591 0.30000001
8.8809996 -3.6630001 -1.58 0.25
8.8900003 -3.635 -1.579 0.30000001
8.8719997 -3.595 -1.574 0.33000001
8.677 -3.4849999 -1.534 0.2
8.6750002 -3.4519999 -1.5319999 0.22
8.6709995 -3.4189999 -1.529 0.090000004
8.6599998 -3.3989999 -1.526 0.15000001
8.665 -3.3699999 -1.525 0.22
8.6759996 -3.3429999 -1.525 0.090000004
8.7010002 -3.3210001 -1.528 0.090000004
8.7720003 -3.316 -1.539 0.090000004
8.8789997 -3.325 -1.557 0.2
8.9390001 -3.3310001 -1.568 0.11
9.0349998 -3.3340001 -1.584 0.15000001
9.2930002 -3.3959999 -1.631 0.28999999
9.309 -3.368 -1.632 0.34999999
9.3050003 -3.3340001 -1.6289999 0.28
9.2950001 -3.2969999 -1.625 0.19
9.302 -3.267 -1.624 0.28
9.29 -3.2460001 -1.6210001 0.23999999
9.302 -3.2179999 -1.622 0.23999999
9.2770004 -3.177 -1.615 0.25
9.3129997 -3.1559999 -1.62 0.36000001
9.3149996 -3.125 -1.618 0.28999999
9.3009996 -3.0869999 -1.614 0.33000001
9.3079996 -3.0569999 -1.614 0.23
9.2889996 -3.0350001 -1.609 0.25999999
9.2119999 -2.9779999 -1.5930001 0.22
9.2889996 -2.971 -1.6059999 0.2
9.276 -2.934 -1.601 0.27000001
9.2340002 -2.8889999 -1.592 0.19
9.1899996 -2.8440001 -1.582 0.13
9.1219997 -2.7920001 -1.568 0.18000001
9.1400003 -2.766 -1.5700001 0.12
9.2010002 -2.7690001 -1.58 0.18000001
9.2229996 -2.744 -1.582 0.23
9.2880001 -2.7309999 -1.5930001 0.1
9.2489996 -2.688 -1.584 0.039999999
9.2329998 -2.652 -1.58 0.039999999
9.2790003 -2.6340001 -1.587 0.039999999
9.2519999 -2.595 -1.58 0.07
9.3199997 -2.598 -1.592 0.039999999
9.3400002 -2.572 -1.594 0.15000001
9.4200001 -2.562 -1.607 0.28999999
9.4469995 -2.5369999 -1.6109999 0
8.1540003 -2.1659999 -1.372 0
8.2030001 -2.151 -1.38 0
9.4720001 -2.4330001 -1.61 0.30000001
9.4799995 -2.4030001 -1.61 0.25
9.4840002 -2.372 -1.61 0.19
9.4829998 -2.3410001 -1.608 0.28
9.5080004 -2.3150001 -1.6109999 0.23
9.5209999 -2.286 -1.613 0.2
9.5360003 -2.2739999 -1.615 0.28999999
9.434 -2.2190001 -1.595 0.13
8.6809998 -2.0150001 -1.456 0.090000004
8.6160002 -1.972 -1.443 0.19
8.632 -1.947 -1.4450001 0.11
8.6280003 -1.9170001 -1.443 0.18000001
8.6400003 -1.892 -1.444 0.11
8.6370001 -1.877 -1.443 0.18000001
8.6409998 -1.849 -1.443 0
8.6429996 -1.821 -1.442 0
8.7030001 -1.8049999 -1.452 0.090000004
8.9940004 -1.835 -1.5039999 0.22
9.0190001 -1.811 -1.507 0
9.3669996 -1.849 -1.569 0.12
9.6560001 -1.89 -1.6210001 0.22
9.6479998 -1.857 -1.618 0.28999999
9.6669998 -1.829 -1.6210001 0.36000001
9.6630001 -1.7970001 -1.619 0.30000001
9.6549997 -1.7640001 -1.617 0.28999999
9.651 -1.732 -1.615 0.28999999
9.6719999 -1.704 -1.618 0.31999999
9.6879997 -1.691 -1.62 0.28
9.7480001 -1.67 -1.63 0.25
9.7749996 -1.643 -1.6339999 0.30000001
9.7910004 -1.614 -1.636 0.43000001
9.7950001 -1.5829999 -1.636 0.31999999
9.7880001 -1.55 -1.633 0.31999999
9.783 -1.518 -1.632 0.31999999
9.7810001 -1.502 -1.631 0.28999999
9.776 -1.47 -1.6289999 0.27000001
9.7709999 -1.438 -1.628 0.30000001
9.776 -1.4069999 -1.628 0.28
9.776 -1.376 -1.627 0.25999999
9.7819996 -1.346 -1.627 0.25
9.7670002 -1.312 -1.624 0.17
9.7939997 -1.3 -1.628 0.30000001
9.7849998 -1.268 -1.626 0.25
9.7959995 -1.238 -1.627 0.27000001
9.802 -1.207 -1.628 0.28
9.802 -1.176 -1.627 0.25
9.8100004 -1.146 -1.628 0.25999999
9.8149996 -1.115 -1.628 0.27000001
9.8050003 -1.098 -1.626 0.27000001
9.8109999 -1.068 -1.626 0.25999999
9.8140001 -1.0369999 -1.626 0.18000001
9.8249998 -1.007 -1.628 0.28
9.8240004 -0.97600001 -1.627 0.25
9.8369999 -0.94599998 -1.6289999 0.28
9.8260002 -0.91399997 -1.626 0.25999999
9.8389997 -0.89899999 -1.628 0.19
9.8500004 -0.86900002 -1.63 0.27000001
9.835 -0.83700001 -1.626 0.23999999
9.8219995 -0.80400002 -1.624 0.18000001
9.8579998 -0.77600002 -1.63 0.27000001
9.842 -0.74400002 -1.626 0.23
9.8529997 -0.713 -1.628 0.20999999
9.8629999 -0.68300003 -1.6289999 0.25
9.8520002 -0.667 -1.627 0.20999999
9.8559999 -0.63599998 -1.628 0.2
9.8579998 -0.60500002 -1.628 0.23
9.8559999 -0.574 -1.627 0.22
9.8610001 -0.54299998 -1.628 0.20999999
9.8649998 -0.51200002 -1.628 0.23999999
9.8570004 -0.48100001 -1.626 0.18000001
9.8690004 -0.46599999 -1.628 0.23
9.8830004 -0.435 -1.63 0.19
9.8699999 -0.40400001 -1.628 0.23
9.8690004 -0.373 -1.628 0.19
9.8719997 -0.34200001 -1.628 0.12
9.8620005 -0.31 -1.626 0.20999999
9.8780003 -0.28 -1.6289999 0.11
9.8830004 -0.264 -1.6289999 0.18000001
9.8739996 -0.233 -1.628 0.23
9.882 -0.20200001 -1.6289999 0.19
9.8809996 -0.171 -1.6289999 0.22
9.8789997 -0.14 -1.628 0.18000001
9.8739996 -0.109 -1.627 0.23
9.8879995 -0.093999997 -1.63 0.19
9.882 -0.061999999 -1.6289999 0.22
9.8760004 -0.030999999 -1.628 0.2
9.8719997 -0 -1.627 0.22
9.5279999 0.001 -1.636 0.039999999
9.5279999 0.016000001 -1.636 0.039999999
9.5319996 0.046 -1.637 0.07
9.5279999 0.075999998 -1.636 0.039999999
9.5299997 0.106 -1.637 0.07
9.5270004 0.13600001 -1.636 0.039999999
9.5410004 0.16599999 -1.6390001 0.07
9.5360003 0.19599999 -1.638 0.039999999
9.5299997 0.211 -1.637 0.07
9.5349998 0.241 -1.638 0.039999999
9.5340004 0.271 -1.638 0.07
9.526 0.301 -1.637 0.039999999
9.5340004 0.331 -1.638 0.07
9.5290003 0.361 -1.638 0.039999999
9.5299997 0.391 -1.638 0.039999999
9.5369997 0.40599999 -1.6390001 0.039999999
9.526 0.43599999 -1.638 0.039999999
9.5369997 0.46599999 -1.64 0.07
9.5369997 0.49599999 -1.64 0.039999999
9.5369997 0.52600002 -1.641 0.07
9.5240002 0.55599999 -1.638 0.039999999
9.526 0.58600003 -1.6390001 0.07
9.5310001 0.60100001 -1.64 0.079999998
9.5170002 0.63 -1.638 0.039999999
9.5310001 0.66100001 -1.641 0.07
9.5190001 0.69 -1.6390001 0.039999999
9.5249996 0.72100002 -1.641 0.07
9.526 0.75099999 -1.641 0.039999999
9.5159998 0.77999997 -1.64 0
9.5190001 0.796 -1.641 0
9.5179996 0.82599998 -1.641 0
9.5080004 0.85500002 -1.6390001 0
9.507 0.88499999 -1.64 0
9.5120001 0.91600001 -1.641 0
9.5050001 0.94499999 -1.641 0
9.4899998 0.97399998 -1.638 0
9.5120001 0.991 -1.643 0
9.5089998 1.021 -1.643 0
9.5019999 1.05 -1.642 0
9.5030003 1.081 -1.643 0
9.493 1.11 -1.642 0
9.4879999 1.1390001 -1.641 0
9.4919996 1.17 -1.643 0
9.4899998 1.1849999 -1.643 0
9.4940004 1.216 -1.6440001 0
9.4960003 1.2460001 -1.645 0
9.4899998 1.276 -1.645 0
9.474 1.304 -1.643 0
9.4799995 1.335 -1.645 0
9.474 1.365 -1.6440001 0
9.4700003 1.3789999 -1.6440001 0
9.4729996 1.41 -1.645 0
9.4569998 1.438 -1.643 0
9.4639997 1.47 -1.645 0
9.4589996 1.5 -1.645 0
9.4449997 1.528 -1.643 0
9.4420004 1.558 -1.6440001 0
9.4359999 1.572 -1.643 0.059999999
9.4309998 1.602 -1.643 0.039999999
9.4200001 1.63 -1.642 0.029999999
9.4280005 1.6619999 -1.645 0.029999999
9.4230003 1.692 -1.645 0.029999999
9.4309998 1.724 -1.647 0.029999999
9.4280005 1.7539999 -1.647 0.029999999
9.4309998 1.77 -1.649 0.029999999
9.4309998 1.8 -1.65 0.029999999
9.4460001 1.834 -1.654 0.039999999
9.4350004 1.863 -1.653 0.039999999
9.4420004 1.895 -1.655 0.029999999
9.4460001 1.926 -1.6569999 0.039999999
9.4460001 1.957 -1.658 0.039999999
9.4580002 1.975 -1.661 0.039999999
9.4610004 2.007 -1.663 0.029999999
9.4510002 2.036 -1.6619999 0.039999999
9.4619999 2.069 -1.665 0.07
9.4689999 2.102 -1.668 0.039999999
9.4580002 2.131 -1.6670001 0.07
9.4560003 2.161 -1.668 0.039999999
9.4770002 2.1819999 -1.673 0.079999998
9.4700003 2.2119999 -1.673 0.039999999
9.4560003 2.24 -1.671 0.039999999
9.4659996 2.273 -1.674 0.07
9.4510002 2.3010001 -1.673 0.039999999
9.4569998 2.3340001 -1.675 0.07
9.4779997 2.3710001 -1.681 0.090000004
9.4549999 2.381 -1.677 0.079999998
9.4519997 2.4119999 -1.678 0.039999999
9.4689999 2.448 -1.683 0.07
9.4499998 2.4749999 -1.681 0.039999999
9.4460001 2.5050001 -1.681 0.07
9.4659996 2.543 -1.687 0.16
9.4510002 2.5699999 -1.6849999 0.16
9.46 2.589 -1.688 0.039999999
9.4729996 2.6240001 -1.692 0.07
9.4619999 2.6530001 -1.691 0.079999998
9.4619999 2.6849999 -1.693 0.16
9.4720001 2.72 -1.697 0.16
9.4560003 2.7479999 -1.6950001 0.16
9.4469995 2.7780001 -1.6950001 0.039999999
9.4639997 2.7980001 -1.699 0.079999998
9.4549999 2.8280001 -1.699 0.039999999
9.4499998 2.859 -1.7 0.07
9.4560003 2.8929999 -1.7029999 0.039999999
9.4499998 2.924 -1.7029999 0.07
9.4729996 2.964 -1.71 0
9.4750004 2.997 -1.712 0
7.4850001 2.3859999 -1.327 0
7.4699998 2.4070001 -1.326 0.029999999
7.4679999 2.4330001 -1.327 0
7.382 2.431 -1.312 0.02
7.3429999 2.4430001 -1.3049999 0.07
7.2490001 2.4630001 -1.29 0.38
7.2340002 2.471 -1.288 0
7.1680002 2.474 -1.277 0
7.1290002 2.4849999 -1.271 0
7.052 2.484 -1.257 0
5.7059999 2.3959999 -1.0190001 0
4.8309999 2.4089999 -0.87300003 0
4.8080001 2.4159999 -0.87 0
4.757 2.428 -0.86199999 0
4.6700001 2.431 -0.84799999 0
4.645 2.4360001 -0.84500003 0
4.1199999 2.5139999 -0.76700002 0
3.825 2.573 -0.727 0.039999999
3.8269999 2.5910001 -0.72899997 0.17
3.8169999 2.602 -0.72899997 0.2
3.816 2.6099999 -0.73000002 0.38
3.806 2.6210001 -0.72899997 0.25
3.813 2.6429999 -0.73299998 0.15000001
3.773 2.6340001 -0.72600001 0.090000004
3.76 2.642 -0.72500002 0.090000004
3.7550001 2.6559999 -0.72500002 0.039999999
3.7390001 2.6630001 -0.72399998 0
3.7460001 2.6760001 -0.72600001 0
3.7490001 2.6960001 -0.72899997 0
3.7390001 2.707 -0.72799999 0
3.7360001 2.723 -0.73000002 0
3.7309999 2.737 -0.73000002 0
3.727 2.7520001 -0.73199999 0
3.743 2.773 -0.736 0
3.727 2.779 -0.73400003 0
3.7149999 2.789 -0.73400003 0
3.7190001 2.8099999 -0.73699999 0
3.71 2.8210001 -0.73699999 0
3.6960001 2.829 -0.736 0
3.697 2.848 -0.73799998 0
3.7060001 2.865 -0.741 0
3.688 2.869 -0.73900002 0
3.687 2.8870001 -0.741 0
3.687 2.9059999 -0.74299997 0
3.6819999 2.921 -0.74400002 0
3.675 2.9330001 -0.74400002 0
3.6860001 2.961 -0.74900001 0
3.6700001 2.9679999 -0.74800003 0
3.675 2.9809999 -0.75 0
3.678 3.0020001 -0.75300002 0
3.664 3.01 -0.75199997 0
3.6689999 3.0339999 -0.755 0
3.6689999 3.053 -0.75700003 0
3.6619999 3.0669999 -0.75800002 0
3.6600001 3.085 -0.75999999 0
3.6659999 3.099 -0.76200002 0
3.6500001 3.1059999 -0.76099998 0
3.6670001 3.1400001 -0.76800001 0
3.6619999 3.155 -0.76899999 0
3.6489999 3.164 -0.76800001 0
3.6570001 3.191 -0.77200001 0
3.6589999 3.2130001 -0.77499998 0
3.658 3.223 -0.77600002 0
3.658 3.243 -0.77899998 0
3.6559999 3.2609999 -0.78100002 0
3.651 3.2780001 -0.78200001 0
3.6440001 3.2920001 -0.78299999 0
3.6570001 3.3239999 -0.78899997 0
3.652 3.3410001 -0.79000002 0
3.6559999 3.355 -0.792 0
3.6730001 3.391 -0.79900002 0
3.6619999 3.4030001 -0.79900002 0
3.664 3.427 -0.80199999 0
3.668 3.451 -0.80599999 0
3.6559999 3.4619999 -0.80599999 0
3.6659999 3.493 -0.81099999 0
3.671 3.5079999 -0.81400001 0
3.664 3.5239999 -0.815 0
3.6670001 3.549 -0.81800002 0
3.6730001 3.5769999 -0.82300001 0
3.6830001 3.609 -0.82800001 0
3.688 3.6370001 -0.833 0
3.6819999 3.654 -0.83399999 0
3.688 3.671 -0.83700001 0
3.704 3.71 -0.84399998 0
3.7160001 3.7460001 -0.85000002 0
3.7750001 3.8759999 -0.875 0.28999999
3.7420001 3.8670001 -0.87 0.07
6.4369998 6.6880002 -1.591 0.27000001
6.382 6.6719999 -1.582 0.38
6.3460002 6.677 -1.5779999 0.31999999
6.3400002 6.7119999 -1.582 0.37
6.316 6.7290001 -1.581 0.33000001
6.2589998 6.711 -1.571 0.31999999
6.1950002 6.6630001 -1.557 0.34
6.204 6.7160001 -1.5650001 0.36000001
6.191 6.744 -1.567 0.36000001
6.1389999 6.73 -1.559 0.41
6.0560002 6.6810002 -1.5420001 0.31
6.0180001 6.6810002 -1.5369999 0.31999999
5.9860001 6.6880002 -1.534 0.43000001
5.928 6.645 -1.521 0.28999999
5.9130001 6.6690001 -1.522 0.33000001
5.8790002 6.6729999 -1.5190001 0.30000001
5.8670001 6.7020001 -1.521 0.50999999
5.7820001 6.6479998 -1.5039999 0.25999999
5.7680001 6.6729999 -1.505 0.31999999
5.7389998 6.6820002 -1.503 0.36000001
5.7119999 6.6929998 -1.501 0.43000001
5.6479998 6.6389999 -1.4859999 0.27000001
5.638 6.6700001 -1.489 0.31
5.5900002 6.6560001 -1.482 0.34999999
5.5289998 6.6259999 -1.47 0.28
5.4920001 6.6230001 -1.465 0.30000001
5.467 6.6360002 -1.464 0.31999999
5.4400001 6.6459999 -1.462 0.27000001
5.4060001 6.625 -1.456 0.25
5.3600001 6.612 -1.448 0.37
5.3629999 6.658 -1.455 0.36000001
5.5669999 6.9530001 -1.521 0.31
5.316 6.6849999 -1.454 0.25
5.2740002 6.6750002 -1.448 0.28999999
5.2740002 6.7179999 -1.454 0.31
5.244 6.7020001 -1.448 0.46000001
5.2080002 6.6999998 -1.444 0.36000001
5.1500001 6.6680002 -1.432 0.25
5.1529999 6.7150002 -1.4400001 0.36000001
5.1259999 6.723 -1.438 0.33000001
5.0869999 6.7160001 -1.432 0.49000001
5.0019999 6.6469998 -1.413 0.23
5.0250001 6.7010002 -1.423 0.34
5.0079999 6.7210002 -1.424 0.36000001
4.9689999 6.7129998 -1.419 0.47999999
4.8899999 6.6500001 -1.401 0.27000001
4.8899999 6.6939998 -1.4069999 0.31999999
4.855 6.6900001 -1.403 0.25999999
4.8429999 6.7179999 -1.406 0.51999998
4.7620001 6.6500001 -1.387 0.25
4.803 6.7290001 -1.403 0.31999999
4.783 6.7459998 -1.404 0.34
4.7199998 6.7020001 -1.39 0.51999998
4.6389999 6.631 -1.3710001 0.25
4.638 6.6750002 -1.377 0.33000001
4.6230001 6.697 -1.3789999 0.30000001
4.6030002 6.7140002 -1.38 0.50999999
4.5669999 6.684 -1.3710001 0.30000001
4.52 6.6599998 -1.363 0.30000001
4.5170002 6.7010002 -1.369 0.33000001
4.4910002 6.7080002 -1.367 0.31999999
4.4590001 6.7059999 -1.364 0.54000002
4.3839998 6.638 -1.345 0.22
4.3889999 6.691 -1.354 0.37
4.3730001 6.6900001 -1.352 0.40000001
4.3210001 6.6560001 -1.342 0.30000001
4.3150001 6.6929998 -1.347 0.44999999
4.2399998 6.6230001 -1.329 0.23
4.257 6.6950002 -1.341 0.34
4.2340002 6.7049999 -1.341 0.34
4.2090001 6.7129998 -1.34 0.44
4.1849999 6.698 -1.335 0.43000001
4.1269999 6.651 -1.322 0.25999999
4.1479998 6.7319999 -1.337 0.37
4.1269999 6.7449999 -1.337 0.31
4.0910001 6.7350001 -1.332 0.50999999
3.9949999 6.6230001 -1.3049999 0.23
4.0250001 6.7199998 -1.323 0.25
4.0359998 6.763 -1.331 0.43000001
3.961 6.6849999 -1.311 0.38
3.8659999 6.5739999 -1.285 0.34
3.8440001 6.5830002 -1.284 0.30000001
3.848 6.6370001 -1.293 0.25999999
4.0419998 7.02 -1.372 0.34999999
3.9070001 6.8369999 -1.331 0.28999999
3.776 6.658 -1.29 0.28999999
3.9530001 6.9920001 -1.36 0.19
4.013 7.1500001 -1.39 0.38999999
3.9200001 7.0370002 -1.364 0.2
3.9679999 7.1750002 -1.39 0.33000001
3.9630001 7.2179999 -1.397 0.47
3.8870001 7.1339998 -1.377 0.28999999
3.9059999 7.2220001 -1.393 0.28
3.8180001 7.086 -1.363 0.15000001
3.839 7.1799998 -1.38 0.15000001
4.7649999 8.9659996 -1.752 0.31999999
3.891 7.4419999 -1.427 0.19
4.7119999 9.0699997 -1.7640001 0.2
4.6799998 9.0790005 -1.763 0.15000001
4.691 9.1339998 -1.773 0.16
4.6469998 9.191 -1.779 0.16
3.7750001 7.5339999 -1.433 0.2
4.5869999 9.2150002 -1.778 0.27000001
4.5929999 9.3000002 -1.7920001 0.25
3.77 7.704 -1.46 0.12
3.7809999 7.757 -1.47 0.079999998
3.7820001 7.8200002 -1.4809999 0.2
3.7709999 7.862 -1.487 0.11
3.7750001 7.9330001 -1.499 0.19
4.4229999 9.3599997 -1.788 0.050000001
4.4099998 9.4090004 -1.796 0.16
4.4000001 9.4639997 -1.804 0.18000001
4.4070001 9.5170002 -1.814 0.27000001
4.1789999 9.1029997 -1.726 0.17
4.092 8.9890003 -1.701 0.15000001
4.1030002 9.0880003 -1.7180001 0.15000001
3.9590001 8.8439999 -1.666 0.2
3.931 8.8559999 -1.666 0.11
3.9419999 8.9569998 -1.684 0.16
4.0419998 9.2200003 -1.7359999 0.31999999
3.9460001 9.0819998 -1.705 0.13
4.0009999 9.2849998 -1.744 0.15000001
3.8710001 9.0649996 -1.697 0.18000001
3.8210001 9.026 -1.687 0.20999999
3.79 9.0310001 -1.6849999 0.14
3.8239999 9.191 -1.715 0.16
3.9590001 9.5550003 -1.7869999 0.28999999
3.98 9.6929998 -1.812 0.27000001
3.9690001 9.7530003 -1.821 0.28
3.961 9.8199997 -1.832 0.28
3.954 9.8920002 -1.844 0.28
3.9430001 9.9560003 -1.854 0.27000001
3.9260001 10.003 -1.8609999 0.30000001
3.925 10.092 -1.876 0.27000001
3.934 10.164 -1.89 0.22
3.9319999 10.254 -1.905 0.18000001
3.938 10.365 -1.924 0.41999999
3.914 10.401 -1.929 0.33000001
3.8970001 10.454 -1.937 0.28999999
3.8800001 10.509 -1.946 0.2
3.8670001 10.574 -1.956 0.27000001
3.872 10.639 -1.9680001 0.23
3.8540001 10.694 -1.976 0.19
3.8410001 10.765 -1.988 0.28999999
3.8410001 10.872 -2.006 0.20999999
3.8410001 10.982 -2.0250001 0.18000001
3.832 11.067 -2.04 0.27000001
3.8139999 11.127 -2.049 0.23999999
3.8110001 11.176 -2.0569999 0.20999999
3.777 11.191 -2.0580001 0.13
3.7449999 11.211 -2.0599999 0.20999999
3.7279999 11.278 -2.0710001 0.11
3.687 11.273 -2.0669999 0.2
3.6600001 11.309 -2.072 0.11
3.619 11.305 -2.069 0.19
3.6110001 11.339 -2.075 0.11
3.576 11.352 -2.075 0.18000001
3.546 11.384 -2.079 0.22
3.513 11.405 -2.0810001 0.1
3.4719999 11.397 -2.0769999 0.18000001
3.4419999 11.427 -2.0810001 0.11
3.3959999 11.405 -2.075 0.18000001
3.3900001 11.45 -2.082 0.050000001
3.3499999 11.448 -2.0799999 0.17
3.3210001 11.481 -2.0840001 0.2
3.289 11.504 -2.0869999 0.1
3.2490001 11.501 -2.0840001 0.18000001
3.2160001 11.525 -2.0869999 0.2
3.177 11.525 -2.085 0.2
3.1440001 11.545 -2.0869999 0.050000001
3.1240001 11.544 -2.085 0.18000001
3.092 11.571 -2.089 0.050000001
3.0539999 11.571 -2.0869999 0.18000001
3.023 11.601 -2.0910001 0.2
2.99 11.624 -2.0929999 0.1
2.951 11.624 -2.092 0.18000001
2.9200001 11.658 -2.096 0.050000001
2.898 11.647 -2.0929999 0.18000001
2.869 11.685 -2.099 0.19
2.8299999 11.686 -2.0969999 0.1
2.7939999 11.699 -2.098 0.18000001
2.76 11.719 -2.0999999 0.050000001
2.717 11.701 -2.095 0.17
2.6889999 11.748 -2.1029999 0.050000001
2.668 11.739 -2.0999999 0.17
2.635 11.766 -2.1040001 0.050000001
2.5969999 11.769 -2.1029999 0.16
2.566 11.805 -2.108 0.050000001
2.523 11.785 -2.1029999 0.17
2.494 11.829 -2.109 0.11
2.4530001 11.819 -2.1059999 0.18000001
2.4360001 11.829 -2.1070001 0.050000001
2.3970001 11.829 -2.1059999 0.17
2.365 11.863 -2.1110001 0.2
2.325 11.855 -2.108 0.1
2.2809999 11.83 -2.102 0.16
2.247 11.854 -2.105 0.050000001
2.201 11.815 -2.096 0.18000001
2.187 11.84 -2.0999999 0.050000001
2.1440001 11.819 -2.095 0.18000001
2.1099999 11.842 -2.098 0.2
2.0710001 11.838 -2.096 0.1
2.0339999 11.843 -2.096 0.18000001
1.999 11.863 -2.099 0.2
1.961 11.867 -2.098 0.1
1.921 11.856 -2.095 0.18000001
1.906 11.88 -2.099 0.050000001
1.8660001 11.87 -2.096 0.18000001
1.835 11.919 -2.1040001 0.2
1.798 11.925 -2.1040001 0.1
1.755 11.897 -2.098 0.18000001
1.723 11.936 -2.1040001 0.1
1.686 11.945 -2.105 0.19
1.67 11.965 -2.108 0.1
1.63 11.957 -2.105 0.18000001
1.596 11.989 -2.1110001 0.2
1.5599999 12.004 -2.112 0.1
1.5190001 11.987 -2.108 0.18000001
1.4859999 12.023 -2.1140001 0.2
1.449 12.036 -2.1159999 0.1
1.429 12.026 -2.1129999 0.18000001
1.393 12.052 -2.1170001 0.050000001
1.352 12.023 -2.1110001 0.17
1.318 12.061 -2.1170001 0.2
1.2819999 12.082 -2.1210001 0.1
1.2410001 12.065 -2.1170001 0.19
1.206 12.09 -2.1210001 0.19
1.169 12.105 -2.1229999 0.090000004
1.148 12.092 -2.1199999 0.16
0.59299999 6.5929999 -1.099 0.23999999
0.57300001 6.5949998 -1.099 0.38999999
0.56599998 6.763 -1.13 0.15000001
0.52399999 6.5180001 -1.084 0.34999999
0.50300002 6.506 -1.081 0.30000001
0.514 6.7810001 -1.132 0
0.46900001 6.7389998 -1.124 0.23
0.44800001 6.7459998 -1.125 0.31
0.41499999 6.5749998 -1.0930001 0.31999999
0.396 6.6040001 -1.098 0.37
0.38299999 6.7309999 -1.1210001 0.30000001
0.37400001 6.7529998 -1.125 0.36000001
0.35299999 6.7579999 -1.126 0.28
0.331 6.7490001 -1.124 0.28999999
0.31 6.7600002 -1.126 0.38999999
0.28299999 6.631 -1.102 0.25
0.25799999 6.5479999 -1.086 0.36000001
0.245 6.7270002 -1.119 0.30000001
0.22499999 6.757 -1.125 0.38
0.214 6.7540002 -1.124 0.28
0.193 6.7470002 -1.123 0.34999999
0.17200001 6.7529998 -1.124 0.37
0.149 6.6929998 -1.112 0.28999999
0.124 6.5419998 -1.084 0.31999999
0.107 6.6989999 -1.114 0.31
0.086999997 6.7509999 -1.123 0.31999999
0.075999998 6.7449999 -1.122 0.28999999
0.055 6.7589998 -1.124 0.41
0.034000002 6.7509999 -1.123 0.30000001
0.013 6.7449999 -1.122 0.30000001
-0.0089999996 6.5609999 -1.0880001 0.40000001
-0.029999999 6.6589999 -1.1059999 0.28
-0.050999999 6.7490001 -1.123 0.34
-0.061999999 6.7490001 -1.123 0.28
-0.082999997 6.757 -1.124 0.37
-0.104 6.7639999 -1.126 0.36000001
-0.125 6.7540002 -1.124 0.28999999
-0.14399999 6.5890002 -1.0930001 0.23999999
-0.163 6.5409999 -1.084 0.31999999
-0.248 9.2080002 -1.5779999 0.1
-0.25799999 9.0310001 -1.545 0.090000004
-0.29800001 9.4119997 -1.615 0.16
-0.32699999 9.4110003 -1.615 0.18000001
-0.34999999 9.2309999 -1.582 0.31999999
-0.27599999 6.539 -1.085 0.18000001
-0.29699999 6.5380001 -1.085 0.34
-0.42399999 8.9259996 -1.527 0.28
-0.45699999 9.0310001 -1.546 0.20999999
-0.47299999 9.0740004 -1.554 0.31999999
-0.48699999 8.783 -1.501 0.23
-0.51300001 8.7620001 -1.497 0.27000001
-0.54699999 8.8640003 -1.517 0.17
-0.43099999 6.546 -1.0880001 0.41999999
-0.54699999 8.0050001 -1.358 0.23
-0.574 8.033 -1.364 0.30000001
-0.57999998 7.9439998 -1.347 0.41
-0.61000001 8.0010004 -1.358 0.23
-0.62400001 7.8569999 -1.332 0.30000001
-0.64700001 7.836 -1.3279999 0.49000001
-0.56599998 6.546 -1.09 0.28
-0.58600003 6.5440001 -1.09 0.15000001
-0.72899997 7.9159999 -1.344 0.27000001
-0.736 7.8559999 -1.3329999 0.44999999
-0.755 7.7969999 -1.323 0.38999999
-0.77100003 7.7020001 -1.306 0.25999999
-0.67900002 6.5409999 -1.091 0.38
-0.82499999 7.75 -1.316 0.20999999
-0.84899998 7.7490001 -1.316 0.37
-0.745 6.5760002 -1.098 0.33000001
-0.755 6.5669999 -1.097 0.27000001
-0.91000003 7.7459998 -1.317 0.27000001
-0.93599999 7.7529998 -1.319 0.40000001
-0.93699998 7.5609999 -1.283 0.2
-0.83700001 6.5510001 -1.096 0.33000001
-1.001 7.6799998 -1.307 0.30000001
-1.031 7.7249999 -1.316 0.37
-0.90100002 6.5599999 -1.099 0.36000001
-1.069 7.7319999 -1.318 0.15000001
-1.096 7.75 -1.322 0.31999999
-1.1210001 7.7470002 -1.322 0.34999999
-1.154 7.803 -1.3329999 0.49000001
-1.153 7.625 -1.3 0.27000001
-1.015 6.553 -1.101 0.27000001
-1.219 7.7399998 -1.323 0.27000001
-1.257 7.901 -1.354 0.44999999
-1.275 7.8559999 -1.346 0.2
-1.285 7.763 -1.329 0.30000001
-1.302 7.7119999 -1.321 0.40000001
-1.324 7.6960001 -1.319 0.38
-1.155 6.566 -1.107 0.34
-1.419 7.9549999 -1.369 0.33000001
-1.442 8.007 -1.3789999 0.34999999
-1.631 8.9180002 -1.551 0.25
-1.664 8.9399996 -1.556 0.28999999
-1.7 8.9770002 -1.564 0.33000001
-1.734 9.0030003 -1.5700001 0.16
-1.262 6.4039998 -1.082 0.07
-1.768 8.8760004 -1.548 0.16
-1.84 9.0880003 -1.589 0.23
-1.811 8.8699999 -1.548 0.18000001
-1.862 8.9809999 -1.5700001 0.28999999
-2.0739999 9.8590002 -1.737 0.2
-2.1489999 10.059 -1.776 0.1
-1.436 6.5770001 -1.119 0.34
-2.2079999 10.026 -1.772 0.18000001
-2.25 10.069 -1.7819999 0.30000001
-2.2720001 10.092 -1.7869999 0.30000001
-2.2909999 10.031 -1.777 0.25999999
-2.335 10.076 -1.7869999 0.40000001
-1.551 6.5609999 -1.1210001 0.15000001
-1.581 6.5939999 -1.128 0.38999999
-2.4349999 10.074 -1.791 0.20999999
-2.473 10.095 -1.796 0.38999999
-2.4890001 10.091 -1.796 0.30000001
-2.5239999 10.097 -1.799 0.28
-2.5550001 10.087 -1.798 0.44999999
-1.7 6.5869999 -1.132 0.25
-1.72 6.5780001 -1.132 0.23
-2.6570001 10.087 -1.803 0.31
-2.6930001 10.098 -1.807 0.31
-2.7079999 10.088 -1.806 0.36000001
-2.74 10.083 -1.806 0.30000001
-2.7809999 10.107 -1.812 0.37
-1.841 6.5770001 -1.138 0.28999999
-1.864 6.579 -1.1390001 0.20999999
-2.881 10.097 -1.816 0.28
-2.911 10.082 -1.8150001 0.36000001
-2.9289999 10.087 -1.816 0.28
-2.967 10.099 -1.8200001 0.36000001
-2.994 10.074 -1.818 0.25
-1.989 6.5830002 -1.146 0.31999999
-3.066 10.083 -1.823 0.14
-3.1010001 10.083 -1.825 0.30000001
-3.1359999 10.086 -1.827 0.43000001
-3.175 10.097 -1.831 0.20999999
-2.0899999 6.5809999 -1.151 0.25999999
-2.1110001 6.5760002 -1.152 0.41999999
-2.135 6.5809999 -1.154 0.25
-3.29 10.077 -1.834 0.30000001
-3.3299999 10.092 -1.839 0.30000001
-3.3640001 10.088 -1.84 0.31999999
-3.3940001 10.073 -1.84 0.25
-2.2379999 6.5799999 -1.16 0.30000001
-2.2620001 6.5819998 -1.1619999 0.14
-3.4849999 10.08 -1.846 0.31
-3.5190001 10.076 -1.848 0.28999999
-3.562 10.098 -1.854 0.34999999
-3.5910001 10.078 -1.852 0.34
-3.622 10.065 -1.852 0.23
-2.3900001 6.5830002 -1.17 0.31999999
-3.678 10.072 -1.857 0.14
-3.7160001 10.078 -1.86 0.33000001
-3.756 10.087 -1.864 0.31999999
-3.7920001 10.088 -1.867 0.31999999
-3.8310001 10.096 -1.8710001 0.37
-3.868 10.097 -1.874 0.27000001
-2.51 6.4660001 -1.1569999 0
-2.5569999 6.5560002 -1.176 0
-3.9530001 10.081 -1.876 0
-1.751 4.3850002 -0.74800003 0
-1.757 4.3590002 -0.74400002 0
-1.7539999 4.3119998 -0.736 0
-1.752 4.2680001 -0.72799999 0
-1.753 4.2329998 -0.722 0
-1.744 4.191 -0.71399999 0
-1.748 4.1630001 -0.70999998 0
-1.747 4.125 -0.70300001 0
-1.751 4.098 -0.699 0
-1.755 4.0710001 -0.69400001 0
-1.757 4.0419998 -0.69 0
-1.762 4.0180001 -0.68599999 0
-1.758 3.99 -0.68099999 0
-1.766 3.9749999 -0.67900002 0
-1.758 3.9230001 -0.67000002 0
-1.766 3.9070001 -0.66799998 0
-1.771 3.8870001 -0.66500002 0
-1.778 3.869 -0.662 0
-1.779 3.8399999 -0.65700001 0
-1.778 3.8210001 -0.65399998 0
-1.786 3.806 -0.65200001 0
-1.785 3.7739999 -0.64700001 0
-1.793 3.7590001 -0.64499998 0
-1.798 3.74 -0.64200002 0
-1.802 3.7160001 -0.63800001 0
-1.8099999 3.7030001 -0.63700002 0
-1.806 3.681 -0.63300002 0
-1.816 3.6719999 -0.63200003 0
-1.8150001 3.641 -0.62699997 0
-1.819 3.6199999 -0.62400001 0
-1.826 3.605 -0.62199998 0
-1.839 3.6029999 -0.62300003 0
-1.844 3.585 -0.62 0
-1.847 3.563 -0.61699998 0
-1.846 3.546 -0.61400002 0
-1.851 3.5280001 -0.61199999 0
-1.859 3.517 -0.61000001 0
-1.874 3.5179999 -0.61199999 0
-1.88 3.5039999 -0.61000001 0
-1.885 3.4860001 -0.60799998 0
-1.887 3.464 -0.60399997 0
-1.878 3.434 -0.59899998 0
-1.8890001 3.4289999 -0.59899998 0
-1.892 3.408 -0.59600002 0
-2.0190001 3.2880001 -0.588 0
-2.0280001 3.2780001 -0.588 0
-2.0510001 3.293 -0.59200001 0
-2.7119999 3.2030001 -0.65100002 0
-2.7160001 3.187 -0.64899999 0
-3.2309999 3.171 -0.71200001 0
-3.2409999 3.161 -0.71200001 0
-4.086 3.1129999 -0.82499999 0
-4.1609998 3.108 -0.83499998 0
-4.9819999 3.619 -1.013 0
-6.1900001 4.4749999 -1.2869999 0
-6.1929998 4.447 -1.284 0
-6.2249999 4.4400001 -1.288 0
-6.223 4.4089999 -1.285 0
-6.2270002 4.3829999 -1.283 0
-6.23 4.3709998 -1.2819999 0
-6.2389998 4.348 -1.281 0
-5.9429998 4.112 -1.211 0
-6.1529999 4.23 -1.255 0
-6.066 4.1420002 -1.233 0
-5.6539998 3.832 -1.138 0
-6.2659998 4.2220001 -1.272 0
-6.2810001 4.2179999 -1.273 0
-6.2779999 4.1869998 -1.27 0
-6.2880001 4.165 -1.2690001 0
-6.302 4.1459999 -1.2690001 0
-6.2909999 4.1100001 -1.2640001 0
-6.309 4.0939999 -1.265 0
-6.3070002 4.0640001 -1.262 0
-6.3010001 4.033 -1.258 0
-6.2989998 4.0170002 -1.256 0
-6.2989998 3.9890001 -1.253 0
-6.3080001 3.967 -1.252 0
-6.3070002 3.9389999 -1.249 0
-6.3119998 3.915 -1.248 0
-6.2909999 3.8740001 -1.2410001 0
-6.2670002 3.832 -1.233 0
-6.2579999 3.813 -1.229 0
-6.2540002 3.7839999 -1.226 0
-6.2579999 3.7590001 -1.224 0
-6.2649999 3.7360001 -1.223 0
-6.2750001 3.7160001 -1.223 0
-6.2810001 3.6930001 -1.222 0
-6.2940001 3.674 -1.222 0
-6.309 3.6689999 -1.224 0
