# .PCD v0.7 - Point Cloud Data file format
VERSION 0.7
FIELDS x y z intensity
SIZE 4 4 4 4
TYPE F F F F
COUNT 1 1 1 1
WIDTH 1461
HEIGHT 1
VIEWPOINT 0 0 0 1 0 0 0
POINTS 1461
DATA ascii
13.61 11.078 -1.4119999 0.15000001
13.588 11.13 -1.413 0.090000004
13.558 11.177 -1.414 0.15000001
13.539 11.233 -1.416 0.1
13.525 11.294 -1.419 0.15000001
13.49 11.336 -1.419 0.1
13.489 11.371 -1.421 0.15000001
13.473 11.43 -1.423 0.1
13.437 11.473 -1.423 0.14
13.425 11.536 -1.426 0.1
13.41 11.596 -1.428 0.16
13.373 11.638 -1.428 0.23
13.339 11.683 -1.429 0.1
13.351 11.73 -1.432 0.15000001
13.317 11.774 -1.433 0.1
13.293 11.828 -1.434 0.15000001
13.271 11.883 -1.436 0.090000004
13.247 11.937 -1.438 0.14
13.214 11.982 -1.438 0.1
13.198 12.044 -1.441 0.15000001
13.185 12.07 -1.442 0.1
13.155 12.118 -1.443 0.15000001
13.137 12.178 -1.4450001 0.23
13.112 12.231 -1.447 0.25
13.092 12.29 -1.449 0.25
13.062 12.34 -1.451 0.23999999
13.053 12.37 -1.452 0.25
13.034 12.43 -1.454 0.25999999
13.017 12.491 -1.457 0.25999999
12.992 12.546 -1.459 0.11
12.978 12.612 -1.462 0.16
12.948 12.662 -1.464 0.12
12.934 12.728 -1.467 0.16
12.948 12.782 -1.471 0.27000001
12.969 12.883 -1.479 0.11
12.966 12.961 -1.484 0.18000001
12.904 12.981 -1.4809999 0.23
12.799 12.956 -1.473 0.19
12.674 12.911 -1.462 0.20999999
12.574 12.89 -1.454 0.19
12.513 12.868 -1.449 0.28999999
12.46 12.894 -1.447 0.19
12.398 12.911 -1.444 0.18000001
12.354 12.947 -1.444 0.20999999
12.315 12.987 -1.444 0.19
12.248 12.998 -1.4400001 0.20999999
12.24 13.03 -1.442 0.18000001
12.174 13.042 -1.439 0.31999999
12.127 13.073 -1.438 0.2
12.084 13.11 -1.438 0.19
12.028 13.132 -1.436 0.31
11.977 13.159 -1.434 0
11.719 12.958 -1.405 0
11.553 12.815 -1.385 0
11.45 12.782 -1.376 0
11.393 12.798 -1.374 0
11.357 12.838 -1.374 0
11.341 12.902 -1.378 0.050000001
11.669 13.359 -1.429 0.17
11.643 13.371 -1.429 0.12
11.602 13.409 -1.429 0.17
11.547 13.43 -1.427 0.12
11.508 13.47 -1.427 0.18000001
11.439 13.475 -1.424 0.12
11.401 13.516 -1.424 0.17
11.343 13.533 -1.4220001 0.28999999
11.315 13.544 -1.421 0.2
11.264 13.568 -1.42 0.18000001
11.205 13.584 -1.4170001 0.12
11.157 13.613 -1.4170001 0.16
11.096 13.626 -1.414 0.12
11.061 13.67 -1.415 0.17
11.007 13.691 -1.414 0.12
10.99 13.714 -1.414 0.17
10.921 13.716 -1.41 0.12
10.879 13.752 -1.411 0.16
10.822 13.769 -1.409 0.28
10.765 13.785 -1.4069999 0
10.701 13.793 -1.404 0
9.2950001 12.103 -1.202 0.23
9.1630001 12.009 -1.187 0.13
9.1000004 12.004 -1.184 0
8.9200001 11.922 -1.168 0.14
8.8400002 11.893 -1.161 0.079999998
8.7650003 11.871 -1.155 0
8.6750002 11.787 -1.1440001 0
8.573 11.726 -1.1339999 0
8.4870005 11.685 -1.126 0
8.4090004 11.655 -1.12 0
8.3260002 11.617 -1.113 0
8.2379999 11.572 -1.105 0
8.1820002 11.531 -1.099 0
8.1009998 11.494 -1.091 0
7.9569998 11.441 -1.08 0
7.8709998 11.394 -1.072 0
7.7880001 11.352 -1.064 0
7.71 11.314 -1.057 0
7.6539998 11.27 -1.051 0
7.5780001 11.234 -1.045 0
7.5159998 11.219 -1.04 0
7.4400001 11.181 -1.033 0
7.381 11.168 -1.029 0
7.3099999 11.136 -1.023 0
7.2410002 11.107 -1.018 0
7.1849999 11.06 -1.011 0
7.1220002 11.039 -1.007 0
7.053 11.008 -1.001 0
6.9860001 10.98 -0.995 0
6.9180002 10.948 -0.98900002 0
6.8499999 10.917 -0.98400003 0
6.7870002 10.893 -0.97899997 0
6.7329998 10.845 -0.972 0
6.664 10.808 -0.96600002 0
6.6059999 10.79 -0.96200001 0
6.6230001 10.894 -0.97100002 0
6.6100001 10.951 -0.97500002 0
6.5900002 10.995 -0.977 0
6.4320002 10.771 -0.95200002 0
6.3590002 10.725 -0.94499999 0
6.2509999 10.62 -0.93199998 0
6.197 10.605 -0.92799997 0
6.1459999 10.593 -0.92500001 0
6.0869999 10.568 -0.92000002 0
6.0409999 10.564 -0.91799998 0
6.0100002 10.55 -0.91500002 0
5.9689999 10.555 -0.91399997 0
5.9169998 10.54 -0.91000003 0.1
5.8330002 10.546 -0.90700001 0.16
5.881 10.711 -0.92199999 0.2
5.8299999 10.737 -0.92199999 0.18000001
5.8010001 10.764 -0.92299998 0.12
5.7319999 10.717 -0.91600001 0.13
5.6960001 10.731 -0.91600001 0
5.8039999 11.017 -0.94400001 0.13
5.7020001 10.906 -0.93000001 0.11
5.6360002 10.905 -0.92699999 0.36000001
5.5929999 10.906 -0.926 0.62
5.651 11.103 -0.94400001 0
5.546 10.984 -0.93000001 0
5.5229998 11.024 -0.93199998 0
5.5 11.065 -0.935 0
5.4819999 11.072 -0.935 0
5.4549999 11.105 -0.93599999 0
5.4460001 11.174 -0.94199997 0
5.4089999 11.187 -0.94099998 0
5.3670001 11.19 -0.94 0
5.381 11.309 -0.94999999 0
5.3590002 11.357 -0.95300001 0
5.3649998 11.414 -0.958 0
5.3189998 11.409 -0.95599997 0
5.2870002 11.435 -0.95700002 0
5.2680001 11.489 -0.96100003 0
5.2680001 11.583 -0.96899998 0
5.2480001 11.636 -0.972 0
5.2259998 11.685 -0.97600001 0
5.23 11.743 -0.98100001 0
5.1999998 11.775 -0.98199999 0
5.178 11.824 -0.98500001 0
5.1589999 11.883 -0.99000001 0
6.2719998 14.558 -1.256 0.12
6.2210002 14.565 -1.255 0
6.165 14.561 -1.252 0.059999999
4.145 9.9420004 -0.78899997 0
4.086 9.8889999 -0.78200001 0.1
4.0419998 9.868 -0.77899998 0.28
3.987 9.8240004 -0.77399999 0.30000001
3.9389999 9.7939997 -0.76899999 0.28999999
3.9119999 9.7700005 -0.76599997 0.28999999
3.869 9.7530003 -0.76300001 0.28999999
3.816 9.7080002 -0.75800002 0.28999999
3.7739999 9.6899996 -0.755 0.27000001
3.733 9.6759996 -0.75199997 0.28
3.6889999 9.6520004 -0.74900001 0.28999999
3.641 9.6149998 -0.74400002 0.28
3.6140001 9.5909996 -0.741 0.28999999
3.5710001 9.5690002 -0.73799998 0.28
3.529 9.5480003 -0.73500001 0.28999999
3.493 9.5410004 -0.73299998 0.27000001
3.45 9.5159998 -0.72899997 0.25
3.4059999 9.4890003 -0.72600001 0.28
3.3699999 9.4829998 -0.72399998 0.28
3.3429999 9.4549999 -0.72100002 0.27000001
3.3099999 9.4560003 -0.72000003 0.22
3.2750001 9.4510002 -0.71799999 0.14
3.2249999 9.4029999 -0.713 0.5
3.191 9.3999996 -0.71100003 0.23999999
3.158 9.3990002 -0.70999998 0.12
3.1040001 9.335 -0.70300001 0.46000001
3.0880001 9.3380003 -0.70300001 0.23
3.059 9.3470001 -0.70300001 0.14
3.0090001 9.2950001 -0.69700003 0.44999999
2.973 9.283 -0.69499999 0.22
2.944 9.2919998 -0.69499999 0.13
2.8970001 9.2449999 -0.69 0.43000001
2.8729999 9.2690001 -0.69099998 0.14
2.8380001 9.2089996 -0.685 0
2.8069999 9.2119999 -0.68400002 0
2.664 9.1529999 -0.67500001 0.25
2.6530001 9.1700001 -0.67699999 0.17
2.6099999 9.1289997 -0.67199999 0.25
2.585 9.1499996 -0.67299998 0.14
2.5409999 9.1029997 -0.66799998 0.14
2.5050001 9.0860004 -0.66500002 0
2.4749999 9.0880003 -0.66500002 0.050000001
2.451 9.1129999 -0.66600001 0.15000001
2.448 9.1590004 -0.67000002 0.14
2.3989999 9.0900002 -0.66299999 0.17
2.2490001 8.6370001 -0.61900002 0.12
2.2079999 8.5900002 -0.61400002 0.14
2.1889999 8.6300001 -0.61699998 0.14
2.191 8.7510004 -0.62800002 0.16
2.155 8.7250004 -0.625 0.23999999
2.148 8.7530003 -0.62699997 0.18000001
2.118 8.7519999 -0.62699997 0.23
2.096 8.7799997 -0.62900001 0.18000001
2.069 8.7860003 -0.62900001 0.23999999
2.0480001 8.8219995 -0.63099998 0.16
2.02 8.8280001 -0.63099998 0.23
2.006 8.96 -0.64300001 0.44
1.925 8.7309999 -0.62099999 0.11
1.886 8.6850004 -0.616 0.090000004
1.867 8.7279997 -0.61900002 0
2.0969999 9.9350004 -0.73199999 0
1.765 8.5150003 -0.59799999 0.090000004
1.765 8.5799999 -0.60399997 0.14
1.737 8.5819998 -0.60399997 0.34
1.7079999 8.5790005 -0.60299999 0.20999999
1.9859999 10.114 -0.74599999 0.12
1.967 10.189 -0.75300002 0
1.633 8.7740002 -0.61900002 0.13
1.6109999 8.7299995 -0.61500001 0.16
1.581 8.7229996 -0.61400002 0.20999999
1.552 8.7159996 -0.61299998 0
1.524 8.7209997 -0.61299998 0
0.99199998 9.0880003 -0.639 0
0.96399999 9.099 -0.63999999 0
0.95099998 9.1110001 -0.64099997 0
0.92299998 9.1160002 -0.64099997 0
0.89600003 9.1400003 -0.64300001 0
0.86799997 9.1529999 -0.64399999 0
0.84100002 9.1669998 -0.64499998 0
0.81300002 9.184 -0.64700001 0.07
0.787 9.2159996 -0.64899999 0.14
0.77499998 9.2410002 -0.65100002 0.090000004
0.74900001 9.2869997 -0.65499997 0.14
0.722 9.3129997 -0.65799999 0
0.69300002 9.3179998 -0.65799999 0
0.66500002 9.3380003 -0.65899998 0
0.63499999 9.3380003 -0.65899998 0
0.43700001 9.8039999 -0.70099998 0
0.421 9.8059998 -0.70099998 0.12
0.51599997 12.77 -0.97399998 0.19
0.477 12.79 -0.97500002 0.25999999
0.44 12.871 -0.98299998 0.28999999
0.40200001 12.968 -0.99199998 0.18000001
0.361 12.961 -0.991 0.37
0.34299999 13.025 -0.99699998 0.11
0.30899999 13.299 -1.022 0.34999999
0.26699999 13.274 -1.0190001 0.30000001
0.22499999 13.271 -1.0190001 0.33000001
0.183 13.244 -1.016 0.28999999
0.141 13.234 -1.015 0.31
0.098999999 13.217 -1.0140001 0.31
0.078000002 13.197 -1.012 0.34
0.037 13.179 -1.01 0.23
-0.0049999999 13.076 -1.001 0.19
-0.046 12.86 -0.98100001 0.11
-0.086999997 13.131 -1.006 0.27000001
-0.12800001 13.119 -1.005 0.34
-0.169 13.098 -1.003 0.28999999
-0.19 13.084 -1.002 0.31
-0.23100001 13.074 -1.001 0.30000001
-0.27200001 13.063 -1 0.34
-0.31200001 13.04 -0.99800003 0.30000001
-0.35299999 13.021 -0.99599999 0.30000001
-0.39300001 13.004 -0.995 0.37
-0.43599999 13.064 -1 0.28999999
-0.46000001 13.157 -1.0089999 0.15000001
-0.50400001 13.237 -1.017 0.47
-0.55000001 13.363 -1.028 0.20999999
-0.59500003 13.431 -1.035 0.23999999
-0.63800001 13.441 -1.036 0.31999999
-0.671 13.246 -1.018 0
-0.699 13.388 -1.031 0
-0.75099999 13.569 -1.048 0
-0.80000001 13.676 -1.058 0
-0.84200001 13.671 -1.058 0
-0.88599998 13.676 -1.059 0
-0.93000001 13.695 -1.061 0
-0.97299999 13.68 -1.0599999 0
-0.99400002 13.685 -1.0599999 0
-1.038 13.696 -1.061 0
-1.081 13.692 -1.061 0
-1.125 13.697 -1.062 0
-1.169 13.705 -1.063 0
-1.211 13.689 -1.062 0
-1.256 13.703 -1.064 0
-1.278 13.711 -1.0650001 0
-1.3200001 13.699 -1.064 0
-1.364 13.699 -1.064 0
-1.409 13.712 -1.066 0
-1.452 13.714 -1.067 0
-1.4630001 13.022 -1.003 0.12
-1.483 13.015 -1.003 0.16
-1.522 12.991 -1.001 0.12
-1.564 12.994 -1.002 0.16
-1.601 12.965 -1 0.20999999
-1.64 12.942 -0.99800003 0.25
-1.682 12.951 -0.99900001 0.25999999
-1.698 12.909 -0.99599999 0.1
-1.739 12.909 -0.99599999 0.15000001
-1.777 12.888 -0.995 0.1
-1.817 12.878 -0.99400002 0.15000001
-1.853 12.839 -0.991 0.090000004
-1.896 12.849 -0.99299997 0.15000001
-1.933 12.821 -0.991 0
-1.95 12.8 -0.98900002 0
-1.993 12.81 -0.991 0.12
-2.0280001 12.772 -0.98799998 0.11
-2.0669999 12.756 -0.98699999 0.14
-2.1059999 12.747 -0.98699999 0.1
-2.1440001 12.727 -0.98500001 0.15000001
-2.115 12.31 -0.94700003 0.28
-2.135 12.312 -0.94800001 0.27000001
-2.1689999 12.278 -0.94499999 0.27000001
-2.2060001 12.261 -0.94400001 0.28
-2.2479999 12.274 -0.94599998 0.25999999
-2.279 12.226 -0.94199997 0.30000001
-2.326 12.266 -0.94599998 0.30000001
-2.401 12.452 -0.96499997 0.16
-2.444 12.567 -0.97600001 0.28
-2.4920001 12.603 -0.98000002 0.2
-2.5280001 12.577 -0.97799999 0
-2.5569999 12.516 -0.97299999 0
-2.8989999 13.446 -1.063 0
-2.9890001 13.657 -1.084 0
-3.033 13.653 -1.084 0
-3.0829999 13.676 -1.0880001 0
-3.1229999 13.655 -1.087 0
-3.1670001 13.647 -1.087 0
-3.2119999 13.647 -1.0880001 0
-3.2360001 13.653 -1.089 0
-3.279 13.643 -1.089 0
-3.322 13.635 -1.089 0
-3.3670001 13.632 -1.09 0
-3.4089999 13.619 -1.089 0
-3.4579999 13.634 -1.092 0
-3.4820001 13.638 -1.0930001 0
-3.5250001 13.625 -1.0930001 0
-3.5780001 13.656 -1.097 0
-3.615 13.62 -1.094 0.050000001
-3.237 12.034 -0.94400001 0.11
-3.276 12.028 -0.94499999 0.30000001
-3.3180001 12.031 -0.94599998 0.31
-3.332 12.009 -0.94400001 0.31
-3.369 11.994 -0.94400001 0.28999999
-3.4130001 12.007 -0.94599998 0.25
-3.454 12.007 -0.94700003 0.28
-3.4909999 11.994 -0.94700003 0.28
-3.5280001 11.981 -0.94700003 0.30000001
-3.5680001 11.98 -0.94800001 0.28999999
-3.585 11.969 -0.94700003 0.28
-3.6240001 11.961 -0.94800001 0.25999999
-3.6689999 11.974 -0.94999999 0.16
-3.7019999 11.948 -0.949 0.44999999
-3.743 11.945 -0.94999999 0.23
-3.7820001 11.939 -0.94999999 0.16
-3.819 11.925 -0.94999999 0.44999999
-3.8429999 11.936 -0.95200002 0.25
-3.8829999 11.932 -0.95200002 0.2
-3.9189999 11.916 -0.95200002 0.38
-3.961 11.917 -0.95300001 0.23
-4.0029998 11.919 -0.95499998 0.15000001
-4.0359998 11.894 -0.95300001 0.41999999
-4.079 11.896 -0.95499998 0.22
-3.934 11.413 -0.90899998 0.28999999
-3.964 11.383 -0.90700001 0.25999999
-4.0029998 11.38 -0.90799999 0
-2.7969999 7.848 -0.565 0
-2.8199999 7.835 -0.565 0.07
-2.845 7.8270001 -0.565 0
-2.8629999 7.7989998 -0.56300002 0
-2.8499999 7.7249999 -0.55599999 0
-2.8640001 7.6900001 -0.55299997 0
-2.872 7.6360002 -0.54900002 0
-2.8770001 7.5770001 -0.54400003 0
-2.8900001 7.54 -0.54100001 0
-2.9070001 7.5120001 -0.53899997 0
-2.901 7.4629998 -0.53500003 0
-2.9130001 7.4239998 -0.53200001 0
-2.9200001 7.3740001 -0.528 0
-2.9330001 7.27 -0.51999998 0
-2.9349999 7.21 -0.51499999 0
-2.96 7.2059999 -0.51499999 0
-2.9990001 7.2709999 -0.52200001 0
-3.108 7.4699998 -0.54299998 0
-3.148 7.5 -0.54699999 0
-3.181 7.513 -0.54900002 0
-3.2130001 7.5209999 -0.551 0
-3.253 7.5489998 -0.55500001 0
-3.2920001 7.5760002 -0.55800003 0
-3.3280001 7.625 -0.56400001 0
-3.3659999 7.6479998 -0.56699997 0
-4.902 10.977 -0.90399998 0.23999999
-4.9320002 10.953 -0.903 0.31
-4.9679999 10.941 -0.903 0.30000001
-5.0029998 10.927 -0.90399998 0.28999999
-5.0209999 10.921 -0.90399998 0.30000001
-5.0599999 10.914 -0.90499997 0.28999999
-5.0910001 10.893 -0.90399998 0.28999999
-5.1259999 10.877 -0.90399998 0.28999999
-5.1609998 10.863 -0.90399998 0.31
-5.1900001 10.837 -0.903 0.28999999
-5.2280002 10.828 -0.90399998 0.28999999
-5.2509999 10.832 -0.90499997 0.30000001
-5.2810001 10.809 -0.90499997 0.28999999
-5.3179998 10.797 -0.90499997 0.28999999
-5.3520002 10.781 -0.90499997 0.28999999
-5.3600001 10.712 -0.89999998 0
-5.3499999 10.608 -0.89099997 0
-5.3759999 10.619 -0.89300001 0.11
-5.4699998 10.721 -0.90499997 0.25
-5.5009999 10.699 -0.90499997 0.28999999
-5.54 10.692 -0.90600002 0.30000001
-5.5710001 10.669 -0.90499997 0.28
-5.6079998 10.659 -0.90600002 0.31999999
-5.652 10.66 -0.90799999 0.31
-5.664 10.643 -0.90700001 0.31
-5.6900001 10.611 -0.90600002 0.31
-5.73 10.605 -0.90700001 0.30000001
-5.7670002 10.594 -0.90799999 0.30000001
-5.7989998 10.574 -0.90799999 0.30000001
-5.8379998 10.566 -0.90899998 0.28999999
-5.8660002 10.539 -0.90799999 0.28999999
-5.8850002 10.533 -0.90799999 0.28999999
-5.9229999 10.524 -0.90899998 0.30000001
-5.9559999 10.505 -0.90899998 0.28999999
-5.9899998 10.488 -0.90899998 0.28999999
-6.027 10.476 -0.91000003 0.28
-6.059 10.457 -0.91000003 0.28999999
-6.0960002 10.445 -0.91100001 0.28999999
-6.1149998 10.439 -0.91100001 0.28999999
-6.1440001 10.414 -0.91000003 0.30000001
-6.1799998 10.4 -0.91100001 0.28999999
-6.2199998 10.393 -0.912 0.28999999
-6.2509999 10.37 -0.912 0.28
-6.2870002 10.357 -0.91299999 0.30000001
-6.3270001 10.349 -0.91399997 0.27000001
-6.3410001 10.335 -0.91399997 0.31999999
-6.3740001 10.315 -0.91399997 0.28999999
-6.4159999 10.312 -0.91500002 0.30000001
-6.4510002 10.295 -0.91600001 0.28999999
-6.4809999 10.272 -0.91500002 0.30000001
-6.5170002 10.256 -0.91600001 0.28999999
-6.5380001 10.255 -0.917 0.28
-6.5739999 10.241 -0.91799998 0.28
-6.605 10.218 -0.917 0.30000001
-6.632 10.189 -0.91600001 0.28999999
-6.671 10.178 -0.91799998 0.28999999
-6.7080002 10.166 -0.91799998 0.27000001
-6.7360001 10.138 -0.91799998 0.25999999
-6.7639999 10.146 -0.92000002 0.27000001
-6.7989998 10.129 -0.92000002 0.28999999
-6.8330002 10.111 -0.921 0.28
-6.868 10.094 -0.921 0.28
-6.9070001 10.084 -0.92299998 0.28999999
-6.9380002 10.061 -0.92199999 0.28999999
-6.9819999 10.057 -0.92400002 0.25999999
-6.9980001 10.046 -0.92400002 0.30000001
-7.0320001 10.027 -0.92500001 0.28999999
-7.0689998 10.013 -0.926 0.25999999
-7.1079998 10.003 -0.92699999 0.27000001
-7.138 9.9790001 -0.92699999 0.30000001
-7.1789999 9.9689999 -0.92799997 0.27000001
-7.2220001 9.9630003 -0.93000001 0.30000001
-7.2360001 9.9499998 -0.93000001 0.30000001
-7.27 9.9300003 -0.93000001 0.28999999
-7.309 9.9180002 -0.93099999 0.30000001
-7.3449998 9.9020004 -0.93199998 0.28999999
-7.381 9.8850002 -0.93300003 0.28
-7.4190001 9.8710003 -0.93400002 0.30000001
-7.4489999 9.8459997 -0.93400002 0.27000001
-7.473 9.8459997 -0.935 0.30000001
-7.5050001 9.8240004 -0.935 0.28999999
-7.5440001 9.8109999 -0.93699998 0.30000001
-7.5799999 9.7939997 -0.93699998 0.30000001
-7.6160002 9.776 -0.93800002 0.30000001
-7.6459999 9.7519999 -0.93800002 0.28999999
-7.6729999 9.7539997 -0.94 0.30000001
-7.711 9.7399998 -0.94099998 0.31
-7.7459998 9.7220001 -0.94199997 0.31999999
-7.7849998 9.7080002 -0.94300002 0.31
-7.8210001 9.6899996 -0.94400001 0.31
-7.8540001 9.6680002 -0.94400001 0.30000001
-7.8889999 9.6499996 -0.94499999 0.30000001
-7.9169998 9.6529999 -0.94599998 0.28999999
-7.9520001 9.6339998 -0.94700003 0.30000001
-7.9860001 9.6140003 -0.94800001 0.28999999
-8.0279999 9.6020002 -0.949 0.34
-8.0620003 9.5819998 -0.94999999 0.28
-8.0959997 9.5609999 -0.95099998 0.28999999
-8.1359997 9.5469999 -0.95200002 0.30000001
-8.1569996 9.5419998 -0.95300001 0.28999999
-8.1990004 9.5299997 -0.95499998 0.28999999
-8.2349997 9.5120001 -0.95499998 0.30000001
-8.276 9.4980001 -0.95700002 0.30000001
-8.316 9.4840002 -0.958 0.30000001
-8.3479996 9.4610004 -0.95899999 0.28999999
-8.3719997 9.4580002 -0.95999998 0.30000001
-8.4060001 9.4359999 -0.96100003 0.28999999
-8.4519997 9.4280005 -0.963 0.28999999
-8.4849997 9.4049997 -0.963 0.28999999
-8.5229998 9.3879995 -0.96399999 0.28999999
-8.5670004 9.3769999 -0.96600002 0.30000001
-8.5979996 9.3520002 -0.96700001 0.31
-8.6330004 9.3599997 -0.96899998 0.30000001
-8.6630001 9.3339996 -0.97000003 0.30000001
-8.7060003 9.3219995 -0.97100002 0.31999999
-8.7410002 9.3000002 -0.972 0.31
-8.7880001 9.2910004 -0.97399998 0.31999999
-8.8219995 9.2700005 -0.97500002 0.31
-8.8579998 9.2489996 -0.97600001 0.28999999
-8.8879995 9.2510004 -0.97799999 0.31999999
-8.9160004 9.2209997 -0.97799999 0.28999999
-8.96 9.2089996 -0.98000002 0.33000001
-9 9.1920004 -0.98100001 0.31999999
-9.0410004 9.177 -0.98299998 0.31999999
-9.0769997 9.1549997 -0.98400003 0.31999999
-9.118 9.1400003 -0.986 0.31999999
-9.1379995 9.1309996 -0.986 0.31999999
-9.1739998 9.1090002 -0.98699999 0.31
-9.224 9.1009998 -0.99000001 0.34999999
-10.264 10.069 -1.1210001 0.25
-10.32 10.06 -1.124 0.31
-10.364 10.04 -1.125 0.31
-10.382 10.025 -1.125 0.31999999
-10.433 10.012 -1.128 0.31
-10.486 10 -1.131 0.31
-10.523 9.9720001 -1.132 0.31
-10.572 9.9549999 -1.1339999 0.31999999
-10.61 9.9289999 -1.135 0.31999999
-10.656 9.9090004 -1.136 0.31999999
-10.688 9.9069996 -1.138 0.33000001
-10.741 9.8940001 -1.141 0.36000001
-10.779 9.8669996 -1.142 0.30000001
-10.831 9.8520002 -1.145 0.31
-10.876 9.8310003 -1.147 0.31999999
-10.91 9.8000002 -1.147 0.31999999
-11.151 9.9540005 -1.173 0
-5.9180002 5.184 -0.52200001 0
-5.9330001 5.164 -0.52200001 0
-5.9400001 5.1370001 -0.52100003 0
-5.9689999 5.1290002 -0.52200001 0
-6.0149999 5.1360002 -0.52600002 0.090000004
-11.289 9.6389999 -1.163 0.14
-11.342 9.6230001 -1.166 0.31
-11.396 9.6079998 -1.169 0.31999999
-11.43 9.5740004 -1.169 0.30000001
-11.484 9.559 -1.1720001 0.30000001
-11.539 9.5430002 -1.175 0.31
-11.561 9.5310001 -1.176 0.31
-11.611 9.5109997 -1.179 0.31
-11.664 9.4940004 -1.181 0.30000001
-11.708 9.4680004 -1.183 0.34999999
-11.758 9.448 -1.1849999 0.30000001
-11.803 9.4230003 -1.187 0.31
-11.848 9.3990002 -1.189 0.31999999
-11.88 9.3940001 -1.191 0.31999999
-11.933 9.375 -1.194 0.34
-11.987 9.3570004 -1.197 0.34
-12.027 9.3280001 -1.198 0.34
-12.082 9.309 -1.201 0.28
-12.132 9.2869997 -1.2029999 0.34999999
-12.18 9.2629995 -1.205 0.28
-12.215 9.2600002 -1.2079999 0.36000001
-12.261 9.2349997 -1.21 0.28999999
-12.313 9.2130003 -1.212 0.36000001
-12.362 9.1899996 -1.215 0.34
-12.407 9.1630001 -1.217 0.28
-12.468 9.1470003 -1.22 0.36000001
-12.513 9.1199999 -1.222 0.28999999
-12.55 9.1169996 -1.225 0.36000001
-12.594 9.0889997 -1.227 0.28999999
-12.65 9.0690002 -1.23 0.36000001
-12.69 9.0369997 -1.2309999 0.30000001
-12.748 9.0179996 -1.234 0.37
-12.8 8.9949999 -1.237 0.30000001
-12.832 8.9879999 -1.239 0.37
-12.883 8.9630003 -1.242 0.30000001
-12.939 8.9420004 -1.245 0.36000001
-12.989 8.9160004 -1.247 0.30000001
-13.046 8.8950005 -1.25 0.36000001
-13.095 8.8690004 -1.253 0.28999999
-13.156 8.8500004 -1.256 0.34999999
-13.19 8.8430004 -1.2589999 0.30000001
-13.241 8.8170004 -1.261 0.34999999
-13.293 8.7919998 -1.2640001 0.28999999
-13.351 8.7700005 -1.267 0.36000001
-13.408 8.7469997 -1.27 0.28999999
-13.352 8.651 -1.261 0
-12.692 8.1929998 -1.188 0.11
-13.096 8.3970003 -1.229 0.2
-12.874 8.1969995 -1.202 0.16
-12.903 8.1590004 -1.202 0.36000001
-12.949 8.1309996 -1.204 0.14
-13.264 8.2130003 -1.233 0.73000002
-13.495 8.3280001 -1.257 0
-13.548 8.302 -1.2589999 0
-14.036 8.4809999 -1.306 0.27000001
-14.094 8.4549999 -1.3099999 0.36000001
-14.134 8.4189997 -1.311 0.33000001
-14.196 8.3959999 -1.3150001 0.31999999
-14.244 8.3940001 -1.319 0.34999999
-14.29 8.3620005 -1.321 0.28
-14.358 8.3409996 -1.325 0.30000001
-14.424 8.3179998 -1.329 0.36000001
-14.472 8.2860003 -1.332 0.31999999
-14.366 8.1059999 -1.3150001 0.74000001
-14.467 8.1330004 -1.324 0.31999999
-14.707 8.2069998 -1.347 0.31999999
-14.769 8.1809998 -1.351 0.31999999
-14.826 8.1520004 -1.354 0.34
-14.883 8.1230001 -1.357 0.34
-14.943 8.0950003 -1.3609999 0.33000001
-15.011 8.0710001 -1.365 0.34
-15.062 8.0679998 -1.369 0.34
-15.115 8.0349998 -1.372 0.34
-15.178 8.0080004 -1.376 0.33000001
-15.236 7.9770002 -1.38 0.33000001
-15.3 7.9499998 -1.3839999 0.33000001
-15.362 7.921 -1.388 0.31999999
-15.419 7.8889999 -1.391 0.31999999
-15.463 7.881 -1.3940001 0.28999999
-15.529 7.8530002 -1.398 0.36000001
-15.59 7.823 -1.402 0.34999999
-15.661 7.7969999 -1.4069999 0.31
-15.727 7.7680001 -1.411 0.36000001
-15.803 7.744 -1.4170001 0.34
-15.835 7.7290001 -1.419 0.28999999
-15.897 7.698 -1.4220001 0.36000001
-15.976 7.6750002 -1.428 0.33000001
-16.040001 7.6430001 -1.432 0.33000001
-16.101999 7.6110001 -1.436 0.33000001
-16.172001 7.5819998 -1.441 0.31
-16.228001 7.5469999 -1.444 0.34
-16.285 7.5419998 -1.449 0.33000001
-16.363001 7.5159998 -1.454 0.34
-16.421 7.48 -1.4579999 0.34
-16.49 7.4489999 -1.462 0.30000001
-16.559 7.4180002 -1.467 0.36000001
-16.615 7.3800001 -1.47 0.33000001
-16.679001 7.3769999 -1.475 0.28999999
-16.759001 7.3499999 -1.4809999 0.36000001
-16.82 7.3140001 -1.485 0.34
-16.896 7.2839999 -1.49 0.34
-16.968 7.2519999 -1.495 0.34999999
-17.028999 7.2150002 -1.499 0.31999999
-17.096001 7.1799998 -1.503 0.33000001
-17.164 7.177 -1.5089999 0.33000001
-17.231001 7.1420002 -1.513 0.33000001
-17.302999 7.1079998 -1.518 0.34
-17.391001 7.0809999 -1.525 0.33000001
-17.455999 7.0430002 -1.529 0.34
-17.517 7.0040002 -1.533 0.28999999
-17.604 6.9749999 -1.539 0.34999999
-17.674 6.9699998 -1.545 0.28999999
-17.738001 6.9320002 -1.549 0.36000001
-17.827 6.902 -1.556 0.28999999
-17.889 6.862 -1.5599999 0.36000001
-17.965 6.8260002 -1.5650001 0.34999999
-18.046 6.7919998 -1.571 0.31999999
-18.122999 6.756 -1.577 0.31999999
-18.191 6.7490001 -1.582 0.31
-18.278 6.7160001 -1.589 0.31999999
-18.347 6.677 -1.594 0.31999999
-18.431999 6.6420002 -1.6 0.31999999
-18.518 6.6069999 -1.6059999 0.31
-18.597 6.5700002 -1.612 0.31999999
-18.669001 6.5630002 -1.618 0.31999999
-18.76 6.5279999 -1.625 0.31
-18.804001 6.4780002 -1.627 0.30000001
-18.841999 6.4239998 -1.6289999 0.34
-18.993999 6.4099998 -1.641 0.31999999
-19.084 6.3740001 -1.648 0.31999999
-19.101999 6.3130002 -1.648 0.31999999
-19.229 6.322 -1.659 0.25999999
-19.287001 6.2740002 -1.663 0.28
-19.355 6.2290001 -1.668 0.20999999
-19.417 6.1810002 -1.6720001 0.30000001
-19.447001 6.1240001 -1.673 0.11
-19.48 6.0669999 -1.674 0.14
-19.466 5.9959998 -1.671 0.12
-19.539 5.9850001 -1.677 0
-19.576 5.9289999 -1.679 0
-19.615999 5.8740001 -1.681 0
-10.64 3.0639999 -0.81699997 0.55000001
-10.586 3.013 -0.81099999 0
-10.65 3.013 -0.81599998 0.15000001
-19.966999 5.605 -1.705 0.18000001
-19.896999 5.5180001 -1.697 0.20999999
-19.927 5.4590001 -1.698 0.34999999
-20.089001 5.4359999 -1.712 0.20999999
-20.075001 5.3639998 -1.709 0.18000001
-20.169001 5.322 -1.716 0.41
-20.243999 5.3080001 -1.723 0.22
-20.280001 5.2490001 -1.724 0.23999999
-20.316 5.1900001 -1.726 0.20999999
-20.375999 5.138 -1.73 0.17
-20.416 5.079 -1.733 0.40000001
-20.464001 5.0229998 -1.7359999 0.20999999
-20.495001 4.9970002 -1.738 0.23
-20.569 4.947 -1.743 0.2
-20.606001 4.8870001 -1.745 0.22
-20.677 4.835 -1.751 0.18000001
-20.747 4.783 -1.756 0.31
-20.826 4.7329998 -1.762 0.2
-20.905001 4.6820002 -1.768 0.19
-20.968 4.6609998 -1.773 0.22
-21.049 4.6100001 -1.779 0.2
-21.115999 4.5549998 -1.784 0.20999999
-21.191999 4.5019999 -1.79 0.18000001
-21.245001 4.4439998 -1.794 0.31999999
-21.287001 4.3829999 -1.796 0.2
-21.334999 4.323 -1.8 0.18000001
-21.351999 4.2909999 -1.801 0.12
-21.386999 4.2290001 -1.803 0.18000001
-21.424999 4.1659999 -1.8049999 0.12
-21.479 4.1069999 -1.809 0.17
-21.539 4.0479999 -1.813 0.30000001
-21.570999 3.984 -1.8150001 0.2
-21.636999 3.9260001 -1.8200001 0.18000001
-21.662001 3.8959999 -1.822 0.31999999
-21.712 3.8340001 -1.825 0.2
-21.757 3.7720001 -1.829 0.17
-21.775 3.704 -1.829 0.31
-21.826 3.6429999 -1.8329999 0.2
-21.893999 3.5829999 -1.8380001 0.18000001
-21.900999 3.5139999 -1.8380001 0.34999999
-21.993 3.493 -1.846 0.2
-22.063 3.434 -1.851 0.2
-22.113001 3.3699999 -1.855 0.20999999
-22.169001 3.3080001 -1.859 0.18000001
-22.224001 3.2449999 -1.863 0.20999999
-22.27 3.1800001 -1.867 0.19
-22.301001 3.1489999 -1.869 0.20999999
-22.346001 3.0829999 -1.872 0.18000001
-22.391001 3.0179999 -1.876 0.31
-22.445999 2.954 -1.88 0.2
-22.518 2.891 -1.886 0.18000001
-22.579 2.8269999 -1.89 0.31
-22.617001 2.76 -1.893 0.19
-22.667 2.73 -1.897 0.16
-22.667 2.658 -1.897 0.13
-22.712999 2.5910001 -1.9 0.18000001
-22.757 2.523 -1.903 0.28999999
-22.818001 2.4579999 -1.908 0.19
-22.879 2.392 -1.913 0.18000001
-22.565001 2.2509999 -1.883 0.2
-22.628 2.1860001 -1.888 0.31
-22.674 2.118 -1.892 0.2
-22.742001 2.053 -1.898 0.19
-22.787001 2.0209999 -1.902 0.20999999
-22.819 1.951 -1.904 0.18000001
-22.872999 1.883 -1.908 0.31
-22.9 1.813 -1.91 0.2
-22.981001 1.747 -1.9170001 0.17
-23.011999 1.677 -1.92 0.13
-23.077 1.645 -1.925 0.16
-23.121 1.576 -1.929 0.28999999
-23.153999 1.505 -1.932 0.19
-23.188999 1.434 -1.934 0.18000001
-23.223 1.363 -1.937 0.30000001
-23.277 1.293 -1.942 0.19
-23.354 1.223 -1.948 0.16
-23.386 1.188 -1.951 0.13
-23.433001 1.117 -1.955 0.16
-23.469999 1.045 -1.9579999 0.12
-23.555 0.97500002 -1.966 0.16
-23.601999 0.90200001 -1.97 0.28
-23.639999 0.829 -1.973 0.25999999
-23.701 0.75700003 -1.978 0.25999999
-23.778999 0.722 -1.9859999 0.25999999
-23.853001 0.64999998 -1.992 0.25
-23.915001 0.57599998 -1.998 0.27000001
-23.974001 0.50199997 -2.003 0.27000001
-24.016001 0.428 -2.007 0.19
-24.059 0.35299999 -2.01 0.18000001
-24.131001 0.31600001 -2.017 0.17
-24.211 0.241 -2.0239999 0.14
-24.23 0.16500001 -2.026 0.15000001
-24.33 0.090000004 -2.0350001 0.16
-24.365999 0.013 -2.0380001 0.12
-24.422001 -0.063000001 -2.0439999 0.17
-24.434999 -0.14 -2.0450001 0.28999999
-24.497 -0.17900001 -2.0510001 0.27000001
-24.511999 -0.25600001 -2.052 0.11
-24.547001 -0.333 -2.0550001 0.16
-24.57 -0.41100001 -2.0569999 0.12
-24.615999 -0.48899999 -2.062 0.17
-24.629999 -0.56699997 -2.063 0.12
-24.694 -0.64600003 -2.069 0.18000001
-24.747 -0.68599999 -2.0739999 0.30000001
-24.798 -0.76499999 -2.079 0.2
-24.836 -0.84500003 -2.0829999 0.17
-24.891001 -0.92500001 -2.0880001 0.18000001
-24.913 -1.0039999 -2.0910001 0.30000001
-24.940001 -1.0829999 -2.0929999 0.19
-25.002001 -1.165 -2.099 0.14
-24.958 -1.202 -2.096 0.27000001
-25.073999 -1.286 -2.1070001 0.16
-25.136999 -1.369 -2.1129999 0.1
-25.177 -1.45 -2.1170001 0.15000001
-24.962999 -1.517 -2.098 0.18000001
-25.098 -1.604 -2.1099999 0.38999999
-25.101999 -1.683 -2.1110001 0.2
-25.500999 -1.75 -2.148 0.18000001
-25.628 -1.84 -2.161 0.18000001
-25.652 -1.9220001 -2.1630001 0.36000001
-25.747 -2.0109999 -2.1730001 0.25999999
-26.066999 -2.118 -2.2030001 0.34
-26.173 -2.2090001 -2.2130001 0.23
-26.396 -2.2690001 -2.234 0.27000001
-26.542999 -2.3659999 -2.2479999 0.41
-26.667 -2.461 -2.26 0.28999999
-26.782 -2.5569999 -2.2720001 0.38999999
-26.916 -2.655 -2.2850001 0.30000001
-27.044001 -2.753 -2.2969999 0.27000001
-27.212 -2.8559999 -2.3139999 0.27000001
-27.334 -2.9119999 -2.325 0.19
-27.396 -3.006 -2.332 0.28999999
-27.448 -3.099 -2.3380001 0.25999999
-27.500999 -3.1919999 -2.3440001 0.11
-27.531 -3.283 -2.3469999 0.16
-27.540001 -3.372 -2.349 0.1
-27.573 -3.464 -2.3529999 0
-27.594999 -3.5109999 -2.3559999 0
-27.631001 -3.6040001 -2.3599999 0
-27.642 -3.694 -2.362 0
-27.702999 -3.79 -2.369 0
-27.756001 -3.8859999 -2.375 0
-27.82 -3.984 -2.382 0
-27.844 -4.0320001 -2.385 0
-27.844999 -4.1220002 -2.3859999 0
-27.834 -4.21 -2.3859999 0
-27.836 -4.3000002 -2.388 0
-27.862 -4.3930001 -2.391 0
-27.875 -4.4850001 -2.3940001 0
-27.896 -4.5780001 -2.3970001 0
-27.98 -4.6370001 -2.4059999 0
-28.039 -4.737 -2.4130001 0
-28.132 -4.8439999 -2.4230001 0
-28.181999 -4.9439998 -2.4289999 0
-28.237 -5.0450001 -2.4349999 0
-28.26 -5.1409998 -2.4389999 0
-28.312 -5.2420001 -2.4449999 0
-28.358999 -5.2969999 -2.45 0
-28.41 -5.3990002 -2.457 0
-28.415001 -5.4920001 -2.4590001 0
-28.487 -5.599 -2.467 0
-28.518999 -5.698 -2.4719999 0
-28.575001 -5.802 -2.4790001 0
-28.632 -5.8610001 -2.4849999 0
-28.66 -5.961 -2.4890001 0
-28.715 -6.066 -2.4960001 0
-28.754999 -6.1690001 -2.5020001 0
-28.761999 -6.2649999 -2.5039999 0
-28.756001 -6.3579998 -2.506 0
-28.711 -6.4429998 -2.503 0
-28.802999 -6.5110002 -2.513 0
-28.941999 -6.638 -2.5280001 0
-28.990999 -6.7449999 -2.5350001 0
-29.143999 -6.8769999 -2.5510001 0
-29.334 -7.0190001 -2.5710001 0
-29.311001 -7.1110001 -2.5710001 0
-29.339001 -7.2160001 -2.576 0
-29.297001 -7.2540002 -2.573 0
-29.291 -7.3499999 -2.575 0
-29.243 -7.4359999 -2.572 0
-29.183001 -7.5180001 -2.569 0
-29.153 -7.6090002 -2.5680001 0
-29.145 -7.704 -2.5699999 0
-29.134001 -7.7989998 -2.5710001 0
-29.148001 -7.8520002 -2.573 0
-29.129 -7.9450002 -2.5739999 0
-29.127001 -8.0430002 -2.576 0
-29.111 -8.1370001 -2.5769999 0
-29.093 -8.2309999 -2.5780001 0
-29.087 -8.3280001 -2.5799999 0
-29.080999 -8.4250002 -2.582 0
-29.091 -8.4770002 -2.5840001 0
-29.063999 -8.5690002 -2.5840001 0
-29.047001 -8.6630001 -2.585 0
-29.021 -8.7550001 -2.585 0
-29.02 -8.8540001 -2.5880001 0
-28.996 -8.9460001 -2.5880001 0
-28.993 -8.9949999 -2.589 0
-28.982 -9.092 -2.5910001 0
-28.972 -9.1890001 -2.592 0
-28.948999 -9.2810001 -2.5929999 0
-28.924 -9.3739996 -2.5929999 0
-28.913 -9.4709997 -2.595 0
-28.893999 -9.5649996 -2.596 0
-28.898001 -9.6169996 -2.598 0
-28.886999 -9.7139997 -2.5999999 0
-28.879 -9.8120003 -2.602 0
-28.851999 -9.9040003 -2.6029999 0
-28.843 -10.003 -2.605 0
-28.826 -10.098 -2.6059999 0
-28.813 -10.196 -2.608 0
-28.801001 -10.242 -2.608 0
-28.784 -10.338 -2.6099999 0
-28.798 -10.445 -2.6140001 0
-28.804001 -10.55 -2.618 0
-28.820999 -10.659 -2.6229999 0
-28.830999 -10.766 -2.6270001 0
-28.688999 -10.815 -2.6170001 0
-28.695999 -10.87 -2.619 0
-28.684 -10.968 -2.6210001 0
-28.698999 -11.078 -2.6259999 0
-28.707001 -11.184 -2.631 0
-28.733 -11.298 -2.6370001 0
-28.753 -11.411 -2.642 0
-28.787001 -11.529 -2.6489999 0
-28.847 -11.605 -2.6570001 0
-28.886 -11.727 -2.664 0
-28.948 -11.858 -2.674 0
-28.974001 -11.975 -2.6800001 0
-29.037001 -12.108 -2.6900001 0
-29.083 -12.234 -2.6989999 0
-29.139 -12.312 -2.7060001 0
-29.190001 -12.441 -2.7149999 0
-29.237 -12.57 -2.724 0
-29.299999 -12.706 -2.734 0
-29.292999 -12.812 -2.737 0
-29.298 -12.924 -2.7420001 0
-29.301001 -13.036 -2.7460001 0
-29.313 -13.096 -2.75 0
-29.326 -13.213 -2.7550001 0
-29.332001 -13.326 -2.76 0
-29.323999 -13.434 -2.763 0
-29.337999 -13.552 -2.7690001 0
-29.371 -13.679 -2.777 0
-29.393999 -13.747 -2.7809999 0
-29.431999 -13.877 -2.79 0
-29.424 -13.986 -2.793 0
-29.429001 -14.102 -2.7980001 0
-29.431 -14.217 -2.803 0
-29.459999 -14.345 -2.8099999 0
-29.554001 -14.506 -2.825 0
-29.802999 -14.686 -2.8529999 0
-30.124001 -14.962 -2.8900001 0
-30.243999 -15.14 -2.9070001 0
-29.804001 -15.037 -2.8670001 0
-29.830999 -15.168 -2.875 0
-29.886 -15.314 -2.885 0
-29.941999 -15.462 -2.8959999 0
-30.143999 -15.626 -2.9200001 0
-30.166 -15.758 -2.927 0
-30.094999 -15.841 -2.925 0
-29.983 -15.903 -2.918 0
-29.865999 -15.962 -2.911 0
-29.723 -16.004999 -2.902 0
-29.629 -16.075001 -2.8970001 0
-29.528 -16.080999 -2.8889999 0
-29.399 -16.129999 -2.881 0
-29.292 -16.191999 -2.875 0
-29.216999 -16.27 -2.8729999 0
-29.129 -16.341 -2.869 0
-29.054001 -16.419001 -2.8659999 0
-29.040001 -16.472 -2.8670001 0
-28.972 -16.554001 -2.8659999 0
-28.900999 -16.634001 -2.8640001 0
-28.851999 -16.726999 -2.8640001 0
-28.808001 -16.822001 -2.865 0
-28.792999 -16.934999 -2.869 0
-28.781 -17.049 -2.8729999 0
-28.768999 -17.104 -2.875 0
-28.736 -17.205999 -2.8770001 0
-28.697001 -17.306 -2.8789999 0
-28.681999 -17.42 -2.8829999 0
-28.632 -17.513 -2.8840001 0
-28.577 -17.603001 -2.8840001 0
-28.546 -17.645 -2.8829999 0
-28.502001 -17.742001 -2.885 0
-28.434 -17.823999 -2.8829999 0
-28.365 -17.905001 -2.882 0
-28.337 -18.011999 -2.885 0
-28.289 -18.107 -2.8859999 0
-28.228001 -18.193001 -2.8859999 0
-28.212999 -18.246 -2.8870001 0
-28.171 -18.344999 -2.8889999 0
-28.108 -18.43 -2.888 0
-28.066 -18.528999 -2.8900001 0
-28.030001 -18.631001 -2.892 0
-27.966 -18.716 -2.892 0
-27.914 -18.808001 -2.892 0
-27.893999 -18.858999 -2.8940001 0
-27.836 -18.947001 -2.8940001 0
-27.764 -19.025999 -2.892 0
-27.731001 -19.132 -2.895 0
-27.673 -19.219999 -2.8959999 0
-27.607 -19.304001 -2.895 0
-27.545 -19.389 -2.895 0
-27.507999 -19.427999 -2.8940001 0
-27.448999 -19.514999 -2.8940001 0
-27.408001 -19.615999 -2.8970001 0
-27.358999 -19.712 -2.898 0
-27.355 -19.84 -2.905 0
-27.348 -19.965 -2.911 0
-27.351999 -20.034 -2.915 0
-27.329 -20.149 -2.9200001 0
-27.306999 -20.266001 -2.924 0
-27.245001 -20.353001 -2.924 0
-27.222 -20.469 -2.9289999 0
-7.2340002 -5.5349998 -0.63599998 0
-7.1999998 -5.527 -0.63300002 0.090000004
-7.1929998 -5.5580001 -0.63499999 0
-7.1539998 -5.5630002 -0.63200003 0
-7.1389999 -5.5879998 -0.63200003 0
-7.1469998 -5.6300001 -0.63499999 0
-25.021999 -19.757999 -2.7290001 0
-25.121 -19.964001 -2.7479999 0.12
-25.135 -20.039 -2.753 0.30000001
-24.360001 -19.548 -2.6700001 0.11
-24.294001 -19.747 -2.6760001 0.16
-24.611 -20.132999 -2.721 0.14
-24.669001 -20.309999 -2.7360001 0.11
-24.476 -20.216 -2.717 0
-24.549 -20.406 -2.733 0
-24.538 -20.527 -2.7390001 0.12
-22.877001 -19.263 -2.5480001 0.28999999
-22.705999 -19.24 -2.5339999 0.20999999
-22.586 -19.261 -2.527 0.23999999
-22.537001 -19.343 -2.529 0.30000001
-22.438999 -19.32 -2.52 0.31999999
-22.365 -19.378 -2.5190001 0.31
-22.263 -19.413 -2.5139999 0.23
-22.163 -19.448999 -2.5090001 0.38
-22.132 -19.545 -2.513 0.28999999
-22.063 -19.607 -2.5120001 0.31999999
-22.025 -19.698 -2.5150001 0.16
-16.332001 -14.662 -1.816 0.34
-16.237 -14.669 -1.8099999 0.43000001
-16.146999 -14.68 -1.8049999 0.49000001
-16.035 -14.67 -1.796 0.31999999
-15.927 -14.664 -1.789 0.19
-15.822 -14.66 -1.781 0.20999999
-15.741 -14.631 -1.774 0.47
-15.868 -14.842 -1.796 0.27000001
-15.942 -15.005 -1.811 0.17
-15.948 -15.105 -1.818 0.44999999
-16.08 -15.326 -1.841 0.19
-23.261999 -22.295 -2.76 0.090000004
-23.113001 -22.292 -2.75 0.14
-23.087999 -22.337999 -2.7520001 0.1
-22.985001 -22.378 -2.747 0.090000004
-22.907 -22.444 -2.7460001 0.14
-22.801001 -22.48 -2.7420001 0.090000004
-22.718 -22.539 -2.74 0.090000004
-22.639999 -22.604 -2.7390001 0.090000004
-22.570999 -22.677 -2.74 0.079999998
-22.540001 -22.716999 -2.74 0.079999998
-22.462 -22.781 -2.7390001 0.079999998
-22.402 -22.864 -2.7409999 0.079999998
-22.326 -22.93 -2.74 0.079999998
-22.249001 -22.993999 -2.74 0.079999998
-22.223 -23.113001 -2.7460001 0.2
-15.191 -15.96 -1.824 0.38999999
-15.068 -15.931 -1.814 0.31999999
-14.925 -15.88 -1.802 0.28999999
-14.815 -15.863 -1.794 0.30000001
-14.738 -15.88 -1.79 0.38
-14.679 -15.916 -1.789 0.33000001
-14.645 -15.93 -1.788 0.31999999
-14.595 -15.976 -1.788 0.34
-14.545 -16.021999 -1.788 0.40000001
-14.535 -16.112 -1.793 0.38999999
-14.537 -16.216999 -1.801 0.28999999
-14.553 -16.337 -1.8099999 0.37
-14.536 -16.421 -1.8150001 0
-21.655001 -24.521999 -2.806 0
-21.6 -24.615 -2.809 0
-21.591 -24.761 -2.8180001 0.13
-21.539 -24.858999 -2.822 0.1
-21.547001 -25.025999 -2.8340001 0.090000004
-21.517 -25.150999 -2.8410001 0.079999998
-21.533001 -25.25 -2.849 0.079999998
-21.514 -25.389 -2.858 0
-21.476999 -25.507 -2.8640001 0
-21.452999 -25.641001 -2.872 0
-21.416 -25.76 -2.878 0
-21.375999 -25.878 -2.8840001 0.13
-21.349001 -26.011 -2.892 0.090000004
-21.368 -26.117001 -2.9000001 0.090000004
-21.33 -26.238001 -2.9070001 0.079999998
-21.27 -26.333 -2.9100001 0.079999998
-21.214001 -26.434 -2.914 0.079999998
-21.176001 -26.556 -2.921 0.079999998
-21.139 -26.681999 -2.928 0.079999998
-21.087999 -26.789 -2.9319999 0.079999998
-21.108999 -26.903999 -2.9419999 0.090000004
-21.059999 -27.014999 -2.947 0.090000004
-21.014 -27.132 -2.9530001 0.13
-20.972 -27.253 -2.9590001 0.1
-20.903 -27.341 -2.9619999 0.090000004
-20.841999 -27.438999 -2.9660001 0.090000004
-20.832001 -27.514999 -2.971 0.090000004
-20.778999 -27.625 -2.9760001 0.090000004
-20.753 -27.771 -2.9849999 0.079999998
-20.712999 -27.9 -2.993 0.079999998
-20.677999 -28.037001 -3.0009999 0.079999998
-20.636 -28.165001 -3.0079999 0.079999998
-20.573 -28.264999 -3.0120001 0.079999998
-20.59 -28.381001 -3.0220001 0.079999998
-20.549 -28.513 -3.029 0.079999998
-20.514 -28.653999 -3.0380001 0.090000004
-20.482 -28.799 -3.0469999 0.14
-20.452 -28.950001 -3.0569999 0.090000004
-20.431 -29.113001 -3.0680001 0.16
-20.410999 -29.280001 -3.079 0.16
-20.424 -29.396999 -3.089 0.1
-20.408001 -29.570999 -3.1010001 0.15000001
-20.378 -29.726999 -3.1110001 0.090000004
-20.351999 -29.889 -3.122 0
-20.299999 -30.016001 -3.1289999 0
-20.216999 -30.096001 -3.131 0
-20.105 -30.132999 -3.128 0
-20.030001 -30.122999 -3.1240001 0
-19.950001 -30.209 -3.1259999 0
-19.837 -30.243 -3.1229999 0
-19.735001 -30.295 -3.122 0
-19.629 -30.34 -3.1199999 0
-19.523001 -30.385 -3.118 0
-19.461 -30.393999 -3.1159999 0
-19.346001 -30.424999 -3.1129999 0
-19.228001 -30.450001 -3.109 0
-19.118999 -30.488001 -3.1059999 0
-15.104 -24.436001 -2.4389999 0
-15.104 -24.608 -2.4530001 0
-18.658001 -30.495001 -3.085 0
-18.569 -30.563 -3.086 0
-18.499001 -30.666 -3.0910001 0
-18.445999 -30.796 -3.098 0
-18.378 -30.900999 -3.1029999 0
-18.302 -30.995001 -3.1070001 0
-18.209 -31.061001 -3.108 0
-18.169001 -31.103001 -3.1099999 0
-18.105 -31.219 -3.1159999 0
-18.007999 -31.277 -3.1159999 0
-17.923 -31.358 -3.119 0
-17.823999 -31.412001 -3.118 0
-17.736 -31.487 -3.1199999 0
-17.702 -31.542999 -3.1229999 0
-16.554001 -29.718 -2.925 0
-16.492001 -29.827 -2.931 0
-16.427 -29.931 -2.937 0
-16.33 -29.978001 -2.9360001 0
-16.228001 -30.014999 -2.9349999 0
-16.117001 -30.034 -2.9319999 0.050000001
-4.8790002 -9.165 -0.75300002 0.13
-4.8460002 -9.1719999 -0.75199997 0.23999999
-4.7600002 -9.0790005 -0.741 0
-15.727 -30.098 -2.9200001 0
-15.618 -30.118999 -2.9170001 0
-15.534 -30.188999 -2.9189999 0
-15.468 -30.177 -2.9159999 0
-15.369 -30.218 -2.915 0
-15.262 -30.240999 -2.9119999 0
-15.139 -30.233999 -2.9070001 0
-15.023 -30.238001 -2.902 0
-14.943 -30.318001 -2.905 0
-14.843 -30.354 -2.904 0
-14.803 -30.393 -2.9059999 0
-14.718 -30.461 -2.908 0
-14.638 -30.539 -2.9119999 0
-14.562 -30.628 -2.9159999 0
-14.475 -30.694 -2.918 0
-14.395 -30.773001 -2.921 0
-14.312 -30.849001 -2.924 0
-14.28 -30.908001 -2.928 0
-14.197 -30.981001 -2.931 0
-14.115 -31.059999 -2.9349999 0
-14.044 -31.164 -2.941 0.079999998
-13.98 -31.283001 -2.948 0
-13.915 -31.403 -2.9560001 0
-13.901 -31.503 -2.964 0
-13.844 -31.643 -2.973 0
-13.819 -31.858 -2.9909999 0
-13.765 -32.009998 -3.0009999 0
-13.724 -32.192001 -3.0150001 0
-13.795 -32.639999 -3.056 0
-13.989 -33.389999 -3.1259999 0
-14.184 -34.006001 -3.1849999 0
-14.084 -34.067001 -3.187 0
-13.955 -34.055 -3.181 0
-13.839 -34.078999 -3.1789999 0
-13.699 -34.041 -3.171 0
-13.554 -33.987999 -3.1619999 0
-13.475 -33.944 -3.155 0
-13.344 -33.924999 -3.1489999 0
-13.214 -33.907001 -3.1440001 0
-13.08 -33.875999 -3.1359999 0
-12.966 -33.898998 -3.135 0
-12.842 -33.895 -3.1300001 0
-12.713 -33.873001 -3.1240001 0
-12.647 -33.860001 -3.1210001 0
-12.525 -33.855999 -3.1170001 0
-12.409 -33.870998 -3.1140001 0
-12.284 -33.856998 -3.109 0
-12.162 -33.853001 -3.105 0
-12.033 -33.828999 -3.099 0
-11.938 -33.898998 -3.102 0
-11.868 -33.869999 -3.0969999 0
-11.753 -33.882999 -3.095 0
-11.632 -33.875999 -3.0910001 0.050000001
-5.5300002 -16.657 -1.4119999 0.62
-5.5370002 -16.851999 -1.429 0
-5.454 -16.690001 -1.413 0.14
-5.382 -16.823999 -1.423 0.36000001
-5.349 -16.903999 -1.429 0.38
-5.0089998 -16.009001 -1.341 0.17
-4.869 -15.737 -1.313 0.81999999
-4.9640002 -16.131001 -1.35 0
-4.8439999 -15.922 -1.329 0.12
-4.809 -15.985 -1.3329999 0.14
-4.7729998 -16.049 -1.3380001 0.25999999
-4.7389998 -16.118 -1.3430001 0.17
-4.6719999 -16.077 -1.3380001 0.54000002
-4.6570001 -16.216 -1.35 0.19
-4.9990001 -17.502001 -1.472 0
-9.4849997 -33.52 -3.0009999 0.1
-4.296 -15.42 -1.27 0.16
-4.2309999 -15.374 -1.265 0
-4.1700001 -15.339 -1.26 0.07
-4.1700001 -15.529 -1.277 0.16
-4.1269999 -15.567 -1.279 0.25
-4.092 -15.531 -1.275 0
-4.0630002 -15.621 -1.283 0
-4.0900002 -15.929 -1.311 0
-3.9719999 -15.675 -1.285 0.059999999
-4.678 -18.934999 -1.592 0.23999999
-4.6300001 -18.868999 -1.585 0.34
-4.5539999 -18.818001 -1.5779999 0.34999999
-4.4809999 -18.771999 -1.573 0.37
-4.4029999 -18.707001 -1.5650001 0.37
-4.3299999 -18.658001 -1.559 0.37
-4.257 -18.610001 -1.554 0.40000001
-3.612 -16.038 -1.3099999 0.44999999
-3.5969999 -16.09 -1.314 0.19
-4.0609999 -18.419001 -1.533 0.2
-3.9960001 -18.398001 -1.529 0.44999999
-3.9200001 -18.329 -1.522 0.14
-3.8570001 -18.313999 -1.5190001 0.27000001
-3.78 -18.233999 -1.511 0.56999999
-3.74 -18.186001 -1.505 0.23
-2.773 -13.734 -1.087 0.27000001
-2.7190001 -13.686 -1.082 0.38999999
-2.6659999 -13.644 -1.077 0.28999999
-2.622 -13.647 -1.076 0.34999999
-2.575 -13.635 -1.074 0.38
-2.53 -13.631 -1.073 0.38999999
-2.5090001 -13.637 -1.074 0.38
-2.4649999 -13.637 -1.073 0.43000001
-2.4300001 -13.69 -1.077 0.30000001
-2.3940001 -13.735 -1.08 0.54000002
-3.0239999 -17.638 -1.444 0.13
-2.29 -13.646 -1.071 0.34999999
-2.247 -13.655 -1.071 0.44999999
-2.8570001 -17.486 -1.427 0.23999999
-2.7980001 -17.469999 -1.425 0.38999999
-2.7360001 -17.433001 -1.421 0.37
-2.6700001 -17.372999 -1.414 0.38
-2.6070001 -17.326 -1.409 0.38
-2.5450001 -17.281 -1.404 0.38
-2.51 -17.232 -1.399 0.34
-2.4560001 -17.245001 -1.4 0.56999999
-2.382 -17.107 -1.386 0.12
-2.3269999 -17.104 -1.386 0
-2.279 -17.159 -1.39 0
-0.354 -6.1960001 -0.37 0
-0.33500001 -6.1999998 -0.37 0
-0.31600001 -6.2030001 -0.37 0.07
-0.296 -6.2090001 -0.37 0.079999998
-0.28600001 -6.1999998 -0.37 0.079999998
-0.266 -6.1929998 -0.36899999 0.079999998
-0.24699999 -6.1939998 -0.36899999 0.079999998
-0.227 -6.1880002 -0.368 0.090000004
-0.208 -6.197 -0.36899999 0.15000001
-0.189 -6.198 -0.36899999 0.16
-0.169 -6.1919999 -0.368 0.16
-0.15899999 -6.1890001 -0.368 0.16
-0.14 -6.191 -0.368 0.16
-0.12 -6.1869998 -0.368 0.16
-0.101 -6.1880002 -0.368 0.090000004
-0.081 -6.1880002 -0.368 0
-0.061999999 -6.1960001 -0.36899999 0
-0.041999999 -6.1849999 -0.368 0
-0.033 -6.197 -0.36899999 0
-0.013 -6.2069998 -0.37 0
0.0060000001 -6.217 -0.37 0
0.026000001 -6.224 -0.37099999 0
0.045000002 -6.2579999 -0.37400001 0
0.064999998 -6.2259998 -0.37099999 0
0.075000003 -6.2319999 -0.37200001 0
0.093999997 -6.2459998 -0.373 0
0.114 -6.2529998 -0.37400001 0
0.134 -6.2589998 -0.375 0
0.154 -6.2620001 -0.375 0
0.17399999 -6.2719998 -0.37599999 0
0.19400001 -6.283 -0.377 0
0.204 -6.2909999 -0.37799999 0
0.22400001 -6.3060002 -0.37900001 0
0.244 -6.3130002 -0.38 0
0.26499999 -6.3299999 -0.38100001 0
0.28400001 -6.3319998 -0.382 0
0.30500001 -6.335 -0.382 0
0.32699999 -6.3829999 -0.38699999 0
0.33700001 -6.3829999 -0.38699999 0
0.35699999 -6.3920002 -0.38800001 0
0.38 -6.434 -0.39199999 0
0.40200001 -6.4650002 -0.39399999 0
0.42199999 -6.4679999 -0.39500001 0
0.447 -6.5320001 -0.40099999 0
0.46000001 -6.573 -0.405 0
0.48300001 -6.605 -0.40799999 0
0.50800002 -6.6570001 -0.41299999 0
2.9070001 -25.372999 -2.1459999 0.38
3.4660001 -29.469 -2.526 0.17
3.536 -29.268 -2.5079999 0.38999999
3.652 -29.452 -2.527 0.23999999
3.6659999 -29.193001 -2.503 0.22
3.757 -29.174 -2.5020001 0.19
3.8570001 -28.530001 -2.4449999 0.19
3.9489999 -28.533001 -2.4460001 0.16
4.1100001 -29.030001 -2.494 0.31
4.1900001 -28.940001 -2.487 0.17
4.2470002 -29.014 -2.494 0.25999999
4.2270002 -28.247999 -2.424 0.23
4.3379998 -28.382 -2.438 0.27000001
4.4679999 -28.636 -2.4630001 0.23999999
4.585 -28.789 -2.4779999 0.17
4.618 -28.421 -2.4449999 0.25999999
4.638 -28.26 -2.431 0.20999999
4.789 -28.621 -2.4660001 0.25999999
4.849 -28.433001 -2.45 0.2
4.9590001 -28.537001 -2.461 0.41
5.0300002 -28.415001 -2.451 0.16
5.1570001 -28.607 -2.471 0.36000001
5.217 -28.43 -2.4560001 0.22
5.2140002 -28.159 -2.431 0.16
5.3049998 -28.159 -2.4330001 0.38
5.3979998 -28.167 -2.4349999 0.30000001
5.4860001 -28.146 -2.4349999 0.28999999
5.5700002 -28.105 -2.4319999 0.28999999
5.6479998 -28.037001 -2.428 0.27000001
5.6810002 -27.971001 -2.4219999 0.31999999
5.7249999 -27.743 -2.402 0.30000001
5.7919998 -27.625 -2.3929999 0.27000001
5.9549999 -27.969 -2.427 0
6.006 -27.777 -2.411 0
0.73100001 -3.223 -0.103 0
0.73900002 -3.2130001 -0.102 0
0.745 -3.2160001 -0.103 0
0.75599998 -3.2149999 -0.103 0
0.773 -3.2420001 -0.105 0
6.7410002 -27.971001 -2.4430001 0.1
6.8400002 -27.997999 -2.448 0.22
6.934 -28.188 -2.467 0.25
7.053 -28.290001 -2.4790001 0.28999999
7.1620002 -28.347 -2.4860001 0.31999999
7.27 -28.399 -2.493 0.31
7.3839998 -28.473 -2.5020001 0.25
7.4949999 -28.532 -2.51 0.13
7.5450001 -28.540001 -2.5120001 0
7.619 -28.458 -2.507 0
7.7049999 -28.421 -2.5050001 0
7.7849998 -28.364 -2.5020001 0
5.1230001 -18.403999 -1.5549999 0
4.6279998 -16.417 -1.367 0
4.6659999 -16.354 -1.362 0
4.6719999 -16.275999 -1.355 0
4.6820002 -16.120001 -1.342 0
4.7080002 -16.018999 -1.334 0
4.7410002 -15.947 -1.3279999 0
4.7719998 -15.867 -1.322 0
4.8000002 -15.779 -1.3150001 0
4.8119998 -15.732 -1.311 0
4.8499999 -15.68 -1.308 0
4.9330001 -15.598 -1.303 0
5.118 -15.26 -1.278 0
5.5650001 -15.932 -1.35 0
2.602 -7.2940001 -0.51099998 0.090000004
2.6210001 -7.276 -0.50999999 0.2
2.652 -7.2909999 -0.51200002 0.14
2.6659999 -7.2579999 -0.50999999 0.36000001
2.6900001 -7.2529998 -0.50999999 0.13
2.6930001 -7.2270002 -0.50800002 0.40000001
2.7349999 -7.1999998 -0.50700003 0.47
2.7609999 -7.2010002 -0.50800002 0.25
2.7809999 -7.1849999 -0.50700003 0.27000001
2.812 -7.1960001 -0.509 0.27000001
2.826 -7.1669998 -0.50700003 0.30000001
2.8469999 -7.1869998 -0.50999999 0.19
2.8329999 -7.085 -0.5 0
2.8729999 -7.1209998 -0.505 0
6.1209998 -14.843 -1.275 0
6.138 -14.818 -1.273 0
6.184 -14.797 -1.273 0
6.224 -14.763 -1.272 0
6.2639999 -14.728 -1.27 0
6.3099999 -14.709 -1.27 0
6.3590002 -14.694 -1.271 0
6.4050002 -14.674 -1.271 0
6.4190001 -14.642 -1.268 0
6.4650002 -14.622 -1.268 0
6.5100002 -14.602 -1.268 0
6.5469999 -14.559 -1.266 0
6.605 -14.566 -1.2690001 0
6.21 -13.465 -1.1619999 0.14
6.2389998 -13.474 -1.164 0.41
6.2129998 -13.306 -1.149 0
6.7880001 -14.424 -1.2640001 0
6.8829999 -14.39 -1.265 0
7.105 -14.331 -1.2690001 0
7.151 -14.31 -1.2690001 0
7.2220001 -14.341 -1.275 0
7.6329999 -14.867 -1.335 0.050000001
8.7309999 -16.625 -1.525 0.63
8.8199997 -16.667 -1.5319999 0
9.6940002 -18.254999 -1.699 0
9.7379999 -18.200001 -1.696 0
9.8039999 -18.184999 -1.698 0
9.8640003 -18.16 -1.698 0
9.9320002 -18.15 -1.701 0
10.009 -18.155001 -1.704 0
10.233 -18.356001 -1.7309999 0
10.272 -18.291 -1.727 0
10.356 -18.306 -1.732 0
14.98 -26.117001 -2.566 0.2
15.073 -26.089001 -2.5680001 0.22
15.111 -25.966999 -2.5599999 0.15000001
15.12 -25.888 -2.5539999 0
15.151 -25.754999 -2.5450001 0
15.229 -25.702 -2.5450001 0
15.323 -25.676001 -2.5469999 0
15.428 -25.669001 -2.5510001 0.11
15.628 -25.818001 -2.573 0.28999999
15.75 -25.927999 -2.5869999 0.25
15.799 -25.826 -2.582 0.11
15.852 -25.73 -2.5769999 0
15.801 -25.466999 -2.553 0
15.848 -25.365 -2.5480001 0
15.875 -25.23 -2.539 0
15.894 -25.086 -2.5280001 0
15.896 -25.002001 -2.5220001 0
15.872 -24.791 -2.5039999 0
15.913 -24.684 -2.4979999 0
15.956 -24.580999 -2.4920001 0
15.985 -24.457001 -2.484 0
16.025999 -24.351999 -2.4779999 0
16.032 -24.278 -2.473 0
