# .PCD v0.7 - Point Cloud Data file format
VERSION 0.7
FIELDS x y z intensity
SIZE 4 4 4 4
TYPE F F F F
COUNT 1 1 1 1
WIDTH 1378
HEIGHT 1
VIEWPOINT 0 0 0 1 0 0 0
POINTS 1378
DATA ascii
-5.5539999 -2.573 -1.837 0.60000002
-5.5250001 -2.5810001 -1.83 0.38
-5.4980001 -2.5899999 -1.823 0.34999999
-5.4710002 -2.598 -1.816 0.33000001
-5.428 -2.599 -1.804 0.34
-5.4029999 -2.608 -1.798 0.33000001
-5.3730001 -2.6140001 -1.79 0.38
-5.3429999 -2.6099999 -1.781 0.31999999
-5.3070002 -2.6129999 -1.771 0.31999999
-5.277 -2.619 -1.763 0.37
-5.2340002 -2.619 -1.751 0.30000001
-5.2090001 -2.6270001 -1.745 0.33000001
-5.197 -2.641 -1.744 0.34
-5.1729999 -2.6389999 -1.737 0.38
-5.158 -2.652 -1.734 0.30000001
-5.1469998 -2.6670001 -1.734 0.34999999
-5.1339998 -2.681 -1.732 0.28
-5.1220002 -2.6949999 -1.7309999 0.44999999
-5.1170001 -2.7130001 -1.732 0.34
-5.098 -2.724 -1.728 0.31999999
-5.1009998 -2.7349999 -1.7309999 0.25999999
-5.085 -2.7479999 -1.728 0.44
-5.0799999 -2.766 -1.729 0.30000001
-5.0599999 -2.7750001 -1.725 0.38999999
-5.046 -2.7880001 -1.723 0.46000001
-5.0320001 -2.8010001 -1.721 0.37
-4.9899998 -2.799 -1.709 0.46000001
-4.9920001 -2.8099999 -1.712 0.28999999
-4.9650002 -2.816 -1.705 0.50999999
-4.9650002 -2.836 -1.7079999 0.37
-4.9310002 -2.8369999 -1.699 0.44999999
-4.9239998 -2.8540001 -1.7 0.41
-4.9289999 -2.878 -1.705 0.34
-4.915 -2.8900001 -1.7029999 0.43000001
-4.9120002 -2.8989999 -1.704 0.34999999
-4.9050002 -2.915 -1.704 0.44999999
-4.8909998 -2.928 -1.7029999 0.30000001
-4.8720002 -2.937 -1.699 0.47999999
-4.8610001 -2.9519999 -1.698 0.37
-4.8369999 -2.9579999 -1.693 0.41
-4.8080001 -2.961 -1.6849999 0.46000001
-4.7969999 -2.9649999 -1.683 0.37
-4.7420001 -2.9519999 -1.666 0.46000001
-4.7690001 -2.9890001 -1.679 0.27000001
-4.7639999 -3.007 -1.681 0.5
-4.7420001 -3.0139999 -1.676 0.34999999
-4.7600002 -3.046 -1.687 0.46000001
-4.7470002 -3.059 -1.6849999 0.46000001
-4.7189999 -3.052 -1.677 0.61000001
-4.7160001 -3.0710001 -1.679 0.31999999
-4.7020001 -3.0829999 -1.678 0.51999998
-4.6570001 -3.0739999 -1.664 0.34
-4.6550002 -3.0940001 -1.6670001 0.34999999
-4.6609998 -3.119 -1.673 0.50999999
-4.6230001 -3.115 -1.6619999 0.31999999
-4.6669998 -3.155 -1.681 0.36000001
-4.6370001 -3.1559999 -1.673 0.46000001
-4.6300001 -3.1730001 -1.675 0.38
-4.6360002 -3.198 -1.681 0.38999999
-4.632 -3.217 -1.683 0.44999999
-4.6059999 -3.22 -1.677 0.37
-4.5780001 -3.211 -1.668 0.47999999
-4.5830002 -3.237 -1.674 0.34
-4.6059999 -3.2739999 -1.687 0.49000001
-4.5250001 -3.2390001 -1.659 0.28
-4.5180001 -3.2550001 -1.661 0.43000001
-4.5079999 -3.27 -1.661 0.28999999
-4.5100002 -3.293 -1.665 0.50999999
-4.494 -3.2920001 -1.661 0.30000001
-4.4959998 -3.3150001 -1.666 0.47999999
-4.5300002 -3.362 -1.684 0.25999999
-4.5100002 -3.369 -1.6799999 0.49000001
-4.5209999 -3.3989999 -1.689 0.34
-4.5029998 -3.408 -1.6849999 0.5
-4.4879999 -3.418 -1.684 0.34
-4.4439998 -3.3970001 -1.668 0.44
-4.4060001 -3.3900001 -1.6569999 0.38999999
-4.4200001 -3.4219999 -1.6670001 0.34999999
-4.3730001 -3.408 -1.653 0.46000001
-4.3759999 -3.4319999 -1.658 0.37
-4.342 -3.4289999 -1.649 0.38999999
-4.342 -3.45 -1.653 0.47
-4.3499999 -3.4679999 -1.659 0.34999999
-4.3569999 -3.4960001 -1.666 0.43000001
-4.349 -3.5120001 -1.6670001 0.34999999
-4.336 -3.5239999 -1.6670001 0.47
-4.336 -3.546 -1.671 0.31
-4.3140001 -3.5510001 -1.6670001 0.47
-4.2870002 -3.552 -1.66 0.28999999
-4.2810001 -3.5580001 -1.66 0.5
-4.2600002 -3.563 -1.656 0.34
-4.263 -3.589 -1.6619999 0.38
-4.2119999 -3.569 -1.645 0.38
-4.2329998 -3.6099999 -1.659 0.44999999
-4.1939998 -3.599 -1.647 0.28999999
-4.2389998 -3.661 -1.671 0.43000001
-4.2179999 -3.654 -1.664 0.34
-4.2150002 -3.675 -1.668 0.44
-4.1960001 -3.681 -1.665 0.38
-4.1869998 -3.697 -1.666 0.49000001
-4.1729999 -3.7079999 -1.665 0.28
-4.151 -3.7119999 -1.661 0.47999999
-4.164 -3.7349999 -1.668 0.41
-4.1350002 -3.733 -1.661 0.41
-4.1230001 -3.7460001 -1.661 0.36000001
-4.086 -3.7360001 -1.65 0.41
-4.066 -3.7409999 -1.647 0.38
-4.0419998 -3.7420001 -1.641 0.46000001
-4.0479999 -3.7709999 -1.649 0.30000001
-4.0380001 -3.7739999 -1.647 0.47999999
-4.0359998 -3.796 -1.651 0.37
-4.0240002 -3.8080001 -1.651 0.44
-4.0159998 -3.825 -1.653 0.41
-4.0009999 -3.835 -1.652 0.34999999
-4.007 -3.865 -1.66 0.38
-3.9630001 -3.8469999 -1.646 0.46000001
-3.99 -3.885 -1.661 0.36000001
-3.9679999 -3.888 -1.656 0.44999999
-3.944 -3.888 -1.651 0.30000001
-3.9059999 -3.875 -1.6390001 0.5
-3.9100001 -3.904 -1.647 0.28999999
-3.8770001 -3.8959999 -1.637 0.5
-3.8800001 -3.9230001 -1.6440001 0.41999999
-3.8789999 -3.934 -1.647 0.34
-3.8610001 -3.941 -1.6440001 0.44999999
-3.8659999 -3.971 -1.652 0.36000001
-3.8510001 -3.98 -1.651 0.38999999
-3.813 -3.9660001 -1.6390001 0.44
-3.8099999 -3.9879999 -1.643 0.36000001
-3.79 -3.9920001 -1.64 0.38999999
-3.773 -3.987 -1.635 0.38999999
-3.763 -4.0009999 -1.636 0.41
-3.7579999 -4.0209999 -1.64 0.41999999
-3.7379999 -4.0250001 -1.636 0.46000001
-3.7249999 -4.0359998 -1.636 0.41
-3.7219999 -4.0580001 -1.64 0.41999999
-3.704 -4.0640001 -1.638 0.40000001
-3.698 -4.0710001 -1.6390001 0.41
-3.6930001 -4.0910001 -1.642 0.30000001
-3.6730001 -4.0939999 -1.6390001 0.55000001
-3.6659999 -4.1129999 -1.642 0.38999999
-3.6619999 -4.1339998 -1.646 0.41
-3.654 -4.152 -1.648 0.37
-3.6359999 -4.1570001 -1.646 0.46000001
-3.615 -4.1459999 -1.6390001 0.30000001
-3.5639999 -4.1139998 -1.62 0.41
-3.5420001 -4.1149998 -1.6160001 0.49000001
-3.5699999 -4.1739998 -1.636 0.44999999
-3.5550001 -4.1820002 -1.635 0.36000001
-3.4920001 -4.1350002 -1.6109999 0.44
-3.5139999 -4.1739998 -1.625 0.34
-3.503 -4.1880002 -1.626 0.41999999
-3.494 -4.204 -1.628 0.41
-3.4749999 -4.2069998 -1.625 0.36000001
-3.4200001 -4.1680002 -1.604 0.38999999
-3.3970001 -4.1669998 -1.599 0.44
-3.4289999 -4.2319999 -1.622 0.41
-3.414 -4.2270002 -1.617 0.34
-3.427 -4.2709999 -1.631 0.44999999
-3.4230001 -4.2930002 -1.636 0.36000001
-3.402 -4.2950001 -1.632 0.38
-3.3699999 -4.2820001 -1.622 0.44999999
-3.369 -4.309 -1.6289999 0.41
-3.3570001 -4.3210001 -1.6289999 0.40000001
-3.358 -4.3369999 -1.6339999 0.34999999
-3.306 -4.2979999 -1.614 0.47
-3.312 -4.3340001 -1.624 0.41
-3.306 -4.3530002 -1.628 0.34
-3.3080001 -4.3850002 -1.636 0.43000001
-3.2679999 -4.3600001 -1.622 0.34999999
-3.2579999 -4.375 -1.624 0.44
-3.2679999 -4.4029999 -1.633 0.30000001
-3.2479999 -4.4060001 -1.63 0.51999998
-3.2379999 -4.4200001 -1.632 0.25999999
-3.204 -4.4029999 -1.6210001 0.49000001
-3.2090001 -4.4390001 -1.631 0.33000001
-3.1800001 -4.4289999 -1.623 0.44
-3.1719999 -4.447 -1.626 0.34999999
-3.158 -4.4419999 -1.623 0.44999999
-3.1459999 -4.454 -1.623 0.34999999
-3.1270001 -4.4580002 -1.6210001 0.46000001
-3.0940001 -4.441 -1.6109999 0.36000001
-3.1029999 -4.4829998 -1.623 0.41
-3.0780001 -4.4770002 -1.617 0.44999999
-3.062 -4.4840002 -1.6160001 0.38
-3.0420001 -4.4699998 -1.609 0.38999999
-3.0320001 -4.4860001 -1.6109999 0.47
-3.0139999 -4.4889998 -1.609 0.41
-3.017 -4.5240002 -1.618 0.28999999
-2.9960001 -4.5240002 -1.615 0.47999999
-2.9890001 -4.5430002 -1.618 0.34999999
-2.9909999 -4.5770001 -1.628 0.38999999
-2.9790001 -4.5739999 -1.625 0.47
-2.951 -4.5630002 -1.617 0.41
-2.9389999 -4.5770001 -1.619 0.38
-2.9200001 -4.5780001 -1.6160001 0.46000001
-2.901 -4.5809999 -1.614 0.37
-2.895 -4.6030002 -1.618 0.38
-2.8840001 -4.6009998 -1.6160001 0.46000001
-2.875 -4.619 -1.62 0.38
-2.8610001 -4.6279998 -1.62 0.41999999
-2.8510001 -4.645 -1.623 0.47
-2.8269999 -4.638 -1.617 0.37
-2.8169999 -4.6550002 -1.62 0.44999999
-2.8139999 -4.684 -1.627 0.34999999
-2.7939999 -4.6669998 -1.619 0.44999999
-2.7609999 -4.6440001 -1.608 0.36000001
-2.7520001 -4.6630001 -1.6109999 0.41999999
-2.7179999 -4.6389999 -1.599 0.37
-2.717 -4.6700001 -1.608 0.33000001
-2.7049999 -4.684 -1.609 0.41999999
-2.698 -4.7049999 -1.614 0.40000001
-2.684 -4.698 -1.61 0.37
-2.665 -4.698 -1.607 0.38999999
-2.642 -4.6929998 -1.602 0.38
-2.6359999 -4.717 -1.608 0.40000001
-2.6389999 -4.756 -1.619 0.38
-2.5699999 -4.6680002 -1.584 0.38
-2.5710001 -4.7049999 -1.594 0.38
-2.576 -4.73 -1.602 0.34
-2.5450001 -4.71 -1.592 0.44
-2.5250001 -4.7080002 -1.5880001 0.36000001
-2.516 -4.7259998 -1.592 0.43000001
-2.4920001 -4.717 -1.586 0.38999999
-2.48 -4.73 -1.587 0.38
-2.4760001 -4.7589998 -1.595 0.41
-2.4449999 -4.7179999 -1.579 0.41999999
-2.4530001 -4.7690001 -1.595 0.31999999
-2.438 -4.777 -1.595 0.46000001
-2.4030001 -4.7459998 -1.581 0.31999999
-2.405 -4.7870002 -1.5930001 0.41999999
-2.382 -4.7789998 -1.587 0.40000001
-2.3759999 -4.7849998 -1.5880001 0.37
-2.3529999 -4.777 -1.5829999 0.43000001
-2.3529999 -4.8150001 -1.594 0.41
-2.3280001 -4.802 -1.586 0.36000001
-2.3280001 -4.8400002 -1.597 0.38999999
-2.3139999 -4.8509998 -1.598 0.38999999
-2.29 -4.8390002 -1.592 0.46000001
-2.277 -4.8309999 -1.587 0.36000001
-2.2690001 -4.8530002 -1.5930001 0.44999999
-2.2449999 -4.8410001 -1.586 0.34999999
-2.223 -4.835 -1.581 0.50999999
-2.207 -4.8400002 -1.581 0.36000001
-2.1919999 -4.8470001 -1.581 0.41999999
-2.178 -4.8569999 -1.582 0.34999999
-2.178 -4.8779998 -1.5880001 0.47
-2.1630001 -4.8850002 -1.5880001 0.34999999
-2.1530001 -4.9039998 -1.592 0.47999999
-2.1389999 -4.9120002 -1.5930001 0.27000001
-2.1070001 -4.882 -1.58 0.50999999
-2.0969999 -4.901 -1.584 0.30000001
-2.0869999 -4.9200001 -1.589 0.46000001
-2.0780001 -4.921 -1.5880001 0.37
-2.0610001 -4.9239998 -1.587 0.44
-2.0480001 -4.9359999 -1.589 0.44999999
-2.0409999 -4.9640002 -1.596 0.31999999
-2.0220001 -4.9590001 -1.592 0.44999999
-2.003 -4.9590001 -1.59 0.40000001
-1.985 -4.9580002 -1.587 0.36000001
-1.978 -4.9629998 -1.5880001 0.38999999
-1.95 -4.9390001 -1.5779999 0.41999999
-1.939 -4.9569998 -1.582 0.41
-1.929 -4.9780002 -1.587 0.37
-1.9119999 -4.98 -1.586 0.46000001
-1.887 -4.961 -1.577 0.37
-1.875 -4.9759998 -1.58 0.44
-1.864 -4.9720001 -1.5779999 0.38999999
-1.839 -4.9510002 -1.569 0.34
-1.8279999 -4.9689999 -1.573 0.41
-1.819 -4.993 -1.579 0.41999999
-1.802 -4.9949999 -1.5779999 0.46000001
-1.7869999 -5.0040002 -1.579 0.38
-1.773 -4.9889998 -1.573 0.44999999
-1.743 -4.9549999 -1.559 0.33000001
-1.7410001 -4.9980001 -1.572 0.44999999
-1.735 -5.0310001 -1.581 0.28999999
-1.719 -5.0359998 -1.581 0.51999998
-1.699 -5.0289998 -1.577 0.34999999
-1.683 -5.0359998 -1.5779999 0.46000001
-1.666 -5.0100002 -1.568 0.34999999
-1.6569999 -5.0370002 -1.575 0.44
-1.648 -5.0619998 -1.582 0.37
-1.6289999 -5.0560002 -1.5779999 0.44999999
-1.604 -5.0339999 -1.569 0.36000001
-1.5930001 -5.0549998 -1.575 0.38999999
-1.5700001 -5.0380001 -1.567 0.43000001
-1.5549999 -5.0149999 -1.559 0.38
-1.527 -4.9819999 -1.546 0.37
-1.508 -4.9780002 -1.543 0.49000001
-1.499 -5.0019999 -1.55 0.30000001
-1.483 -5.007 -1.55 0.44999999
-1.451 -4.9569998 -1.531 0.34
-1.444 -4.9629998 -1.533 0.41999999
-1.4450001 -5.0240002 -1.551 0.38999999
-1.441 -5.0689998 -1.5650001 0.33000001
-1.421 -5.059 -1.5599999 0.44
-1.405 -5.0609999 -1.559 0.41999999
-1.3940001 -5.0840001 -1.566 0.40000001
-1.3789999 -5.0939999 -1.567 0.40000001
-1.369 -5.0890002 -1.5650001 0.34999999
-1.354 -5.0949998 -1.566 0.44
-1.345 -5.1269999 -1.575 0.41
-1.3279999 -5.125 -1.573 0.34999999
-1.301 -5.0890002 -1.559 0.44
-1.2920001 -5.1209998 -1.569 0.34999999
-1.2690001 -5.0949998 -1.559 0.46000001
-1.257 -5.0840001 -1.5549999 0.41999999
-1.245 -5.105 -1.5599999 0.25999999
-1.226 -5.0939999 -1.5549999 0.51999998
-1.2130001 -5.1110001 -1.559 0.30000001
-1.191 -5.0900002 -1.551 0.43000001
-1.183 -5.1269999 -1.562 0.34
-1.166 -5.1259999 -1.561 0.44
-1.159 -5.1350002 -1.563 0.40000001
-1.1440001 -5.1420002 -1.564 0.38
-1.128 -5.1459999 -1.564 0.31999999
-1.113 -5.1570001 -1.567 0.44999999
-1.095 -5.1529999 -1.564 0.34
-1.081 -5.164 -1.567 0.43000001
-1.063 -5.1599998 -1.564 0.36000001
-1.056 -5.165 -1.566 0.38
-1.034 -5.1440001 -1.558 0.38
-1.022 -5.1659999 -1.564 0.38999999
-1.0089999 -5.1859999 -1.569 0.38999999
-0.991 -5.1810002 -1.567 0.47
-0.97600001 -5.1859999 -1.567 0.34999999
-0.95700002 -5.178 -1.564 0.47999999
-0.95200002 -5.1950002 -1.569 0.34999999
-0.93400002 -5.1880002 -1.566 0.44
-0.91600001 -5.1820002 -1.562 0.38
-0.89399999 -5.1529999 -1.552 0.43000001
-0.87699997 -5.1500001 -1.55 0.33000001
-0.86799997 -5.198 -1.5650001 0.47999999
-0.85299999 -5.21 -1.568 0.25999999
-0.84500003 -5.211 -1.568 0.47999999
-0.82999998 -5.2210002 -1.5700001 0.37
-0.81 -5.1989999 -1.562 0.44999999
-0.796 -5.217 -1.567 0.36000001
-0.78200001 -5.2379999 -1.573 0.41
-0.764 -5.2290001 -1.5700001 0.47999999
-0.75700003 -5.2360001 -1.572 0.31
-0.73900002 -5.2329998 -1.5700001 0.51999998
-0.72500002 -5.25 -1.575 0.38
-0.70700002 -5.243 -1.572 0.44999999
-0.69300002 -5.2589998 -1.576 0.28999999
-0.67400002 -5.244 -1.5700001 0.55000001
-0.65700001 -5.244 -1.5700001 0.28
-0.64899999 -5.2490001 -1.571 0.49000001
-0.62900001 -5.2220001 -1.562 0.37
-0.60799998 -5.1849999 -1.549 0.49000001
-0.59899998 -5.2470002 -1.569 0.28999999
-0.58499998 -5.2659998 -1.574 0.5
-0.56099999 -5.2090001 -1.5549999 0.31999999
-0.54900002 -5.2470002 -1.567 0.41999999
-0.53600001 -5.2020001 -1.552 0.44999999
-0.51899999 -5.1999998 -1.551 0.36000001
-0.50400001 -5.217 -1.556 0.41
-0.48699999 -5.2150002 -1.5549999 0.28999999
-0.47499999 -5.2620001 -1.569 0.47999999
-0.45699999 -5.2480001 -1.564 0.43000001
-0.43799999 -5.2189999 -1.5549999 0.41999999
-0.43000001 -5.2160001 -1.553 0.44
-0.41299999 -5.217 -1.553 0.31999999
-0.39500001 -5.1880002 -1.544 0.5
-0.38100001 -5.224 -1.5549999 0.30000001
-0.36199999 -5.1960001 -1.545 0.46000001
-0.34799999 -5.2280002 -1.5549999 0.34
-0.331 -5.2150002 -1.551 0.44999999
-0.32499999 -5.2449999 -1.5599999 0.34
-0.30599999 -5.211 -1.549 0.43000001
-0.29100001 -5.2329998 -1.556 0.41
-0.273 -5.217 -1.55 0.41
-0.25600001 -5.1989999 -1.544 0.40000001
-0.23800001 -5.1630001 -1.533 0.41
-0.22499999 -5.0739999 -1.5039999 0.40000001
-0.215 -5.1890001 -1.541 0.27000001
-0.197 -5.152 -1.528 0.55000001
-0.176 -5.0339999 -1.4910001 0.27000001
-0.16500001 -5.1760001 -1.536 0.36000001
-0.149 -5.1700001 -1.534 0.43000001
-0.131 -5.131 -1.521 0.41999999
-0.123 -5.1269999 -1.52 0.28999999
-0.106 -5.0970001 -1.51 0.47999999
-0.089000002 -5.0669999 -1.5 0.44
-0.075000003 -5.1230001 -1.518 0.31999999
-0.059 -5.1700001 -1.533 0.38999999
-0.043000001 -5.1690001 -1.533 0.38
-0.026000001 -5.125 -1.5190001 0.44999999
-0.017999999 -5.1420002 -1.524 0.41
-0.0020000001 -5.1329999 -1.521 0.41
0.014 -5.0910001 -1.508 0.38
0.029999999 -5.1020002 -1.511 0.44999999
0.046 -5.1230001 -1.518 0.41
0.061999999 -5.1110001 -1.5140001 0.34
0.078000002 -5.1020002 -1.511 0.47
0.086000003 -5.1149998 -1.516 0.25999999
0.102 -5.0949998 -1.5089999 0.55000001
0.118 -5.1059999 -1.513 0.34999999
0.13500001 -5.1329999 -1.522 0.33000001
0.149 -5.0599999 -1.499 0.43000001
0.16599999 -5.0770001 -1.5039999 0.41
0.17299999 -5.073 -1.503 0.41999999
0.189 -5.059 -1.499 0.28999999
0.204 -5.0450001 -1.494 0.55000001
0.221 -5.0710001 -1.503 0.27000001
0.236 -5.0469999 -1.495 0.52999997
0.252 -5.0539999 -1.498 0.27000001
0.26699999 -5.0279999 -1.49 0.5
0.27599999 -5.039 -1.494 0.30000001
0.28999999 -5.0190001 -1.488 0.49000001
0.30700001 -5.0279999 -1.4910001 0.31999999
0.32100001 -5.0040002 -1.483 0.54000002
0.338 -5.0219998 -1.489 0.31
0.352 -5 -1.483 0.51999998
0.368 -4.9990001 -1.483 0.31999999
0.373 -4.9549999 -1.469 0.61000001
0.389 -4.961 -1.471 0.27000001
0.40400001 -4.9489999 -1.467 0.47999999
0.421 -4.9679999 -1.474 0.28999999
0.43399999 -4.9359999 -1.464 0.54000002
0.449 -4.9239998 -1.461 0.25
0.46399999 -4.9169998 -1.459 0.47999999
0.463 -4.8280001 -1.431 0.36000001
0.48199999 -4.869 -1.444 0.44999999
0.49599999 -4.8520002 -1.439 0.31999999
0.51899999 -4.9219999 -1.4630001 0.46000001
0.53500003 -4.928 -1.465 0.31999999
0.54900002 -4.9169998 -1.462 0.51999998
0.55900002 -4.9320002 -1.467 0.30000001
0.57300001 -4.9159999 -1.4630001 0.51999998
0.588 -4.915 -1.4630001 0.38
0.60299999 -4.9050002 -1.46 0.44999999
0.61900002 -4.9130001 -1.4630001 0.34999999
0.63300002 -4.8940001 -1.4579999 0.47999999
0.64899999 -4.901 -1.461 0.43000001
0.65899998 -4.9130001 -1.465 0.41
0.68099999 -4.9660001 -1.483 0.41999999
0.69300002 -4.934 -1.473 0.23
0.71100003 -4.948 -1.478 0.1
0.72100002 -4.9120002 -1.467 0.090000004
0.73299998 -4.8850002 -1.46 0.079999998
0.74699998 -4.8740001 -1.456 0.039999999
0.76300001 -4.9250002 -1.474 0
0.77999997 -4.9320002 -1.477 0
0.79400003 -4.9200001 -1.474 0
2.4419999 -4.6550002 -1.561 0
2.4319999 -4.598 -1.543 0
2.428 -4.5739999 -1.536 0
2.4779999 -4.6339998 -1.5599999 0.02
2.4890001 -4.619 -1.558 0.029999999
2.4719999 -4.552 -1.536 0.029999999
2.5120001 -4.592 -1.553 0.17
2.5239999 -4.5799999 -1.552 0.2
2.513 -4.526 -1.535 0.25999999
2.5139999 -4.5100002 -1.531 0.23
2.5409999 -4.5250001 -1.539 0.34999999
2.5699999 -4.5440001 -1.549 0.34
2.576 -4.5209999 -1.544 0.37
2.579 -4.493 -1.536 0.31999999
2.5999999 -4.4980001 -1.541 0.37
2.6010001 -4.4819999 -1.5369999 0.40000001
2.5910001 -4.4330001 -1.522 0.37
2.609 -4.4310002 -1.524 0.41
2.622 -4.421 -1.523 0.34
2.6240001 -4.3940001 -1.516 0.44
2.632 -4.375 -1.513 0.38
2.6489999 -4.3740001 -1.515 0.37
2.658 -4.3730001 -1.516 0.41
2.6800001 -4.3769999 -1.521 0.38
2.6789999 -4.3449998 -1.512 0.41
2.7 -4.349 -1.517 0.33000001
2.714 -4.3410001 -1.517 0.44999999
2.724 -4.3260002 -1.5140001 0.34999999
2.744 -4.3280001 -1.5190001 0.44
2.7579999 -4.335 -1.523 0.41
2.7750001 -4.3309999 -1.525 0.34
2.793 -4.329 -1.527 0.50999999
2.809 -4.3249998 -1.529 0.30000001
2.8150001 -4.3039999 -1.524 0.44
2.8310001 -4.2989998 -1.526 0.41
2.8329999 -4.2729998 -1.5190001 0.44999999
2.8269999 -4.2490001 -1.512 0.36000001
2.8510001 -4.256 -1.518 0.38
2.891 -4.2870002 -1.533 0.44999999
2.8759999 -4.2350001 -1.517 0.23999999
2.8659999 -4.191 -1.503 0.5
2.8989999 -4.2119999 -1.515 0.41
2.9170001 -4.21 -1.517 0.33000001
2.927 -4.211 -1.52 0.47
2.947 -4.211 -1.523 0.27000001
2.9519999 -4.1900001 -1.5190001 0.5
2.9519999 -4.1620002 -1.511 0.38
2.997 -4.197 -1.529 0.44999999
3.0020001 -4.177 -1.525 0.37
3.023 -4.1929998 -1.533 0.44999999
3.0079999 -4.1440001 -1.517 0.34
3.0250001 -4.1399999 -1.5190001 0.46000001
3.052 -4.1500001 -1.527 0.25999999
3.0710001 -4.1479998 -1.53 0.5
3.076 -4.1279998 -1.526 0.36000001
3.1129999 -4.1500001 -1.539 0.43000001
3.122 -4.1479998 -1.54 0.33000001
3.1199999 -4.119 -1.5319999 0.44
3.1340001 -4.1100001 -1.533 0.34
3.148 -4.1020002 -1.533 0.38
3.155 -4.085 -1.53 0.38999999
3.1819999 -4.0929999 -1.5369999 0.44999999
3.1760001 -4.059 -1.528 0.41999999
3.168 -4.0359998 -1.52 0.40000001
3.1800001 -4.0240002 -1.52 0.34
3.187 -4.007 -1.517 0.47999999
3.2260001 -4.0310001 -1.531 0.36000001
3.2449999 -4.0279999 -1.534 0.34999999
3.2839999 -4.0510001 -1.5470001 0.43000001
3.273 -4.0110002 -1.535 0.41
3.2550001 -3.9760001 -1.523 0.34999999
3.3010001 -4.007 -1.54 0.41999999
3.299 -3.9790001 -1.533 0.34
3.3180001 -3.9760001 -1.536 0.5
3.3169999 -3.9489999 -1.529 0.34
3.3559999 -3.971 -1.5420001 0.40000001
3.3640001 -3.9549999 -1.54 0.41
3.3770001 -3.9579999 -1.544 0.31999999
3.3710001 -3.9260001 -1.534 0.43000001
3.421 -3.9590001 -1.553 0.33000001
3.434 -3.9489999 -1.553 0.44999999
3.434 -3.924 -1.5470001 0.41999999
3.454 -3.9219999 -1.551 0.34
3.444 -3.898 -1.543 0.44999999
3.4519999 -3.8829999 -1.541 0.34999999
3.4760001 -3.885 -1.5470001 0.44
3.4909999 -3.8770001 -1.548 0.37
3.4990001 -3.8610001 -1.546 0.38999999
3.497 -3.835 -1.539 0.44
3.529 -3.846 -1.549 0.41
3.5209999 -3.825 -1.5420001 0.34999999
3.54 -3.8210001 -1.545 0.38999999
3.5380001 -3.7950001 -1.539 0.36000001
3.5339999 -3.767 -1.531 0.52999997
3.5469999 -3.757 -1.5319999 0.41
3.5650001 -3.753 -1.535 0.28999999
3.543 -3.7060001 -1.5190001 0.51999998
3.5780001 -3.73 -1.533 0.25999999
3.5799999 -3.71 -1.528 0.51999998
3.605 -3.7119999 -1.534 0.30000001
3.631 -3.7160001 -1.541 0.41999999
3.654 -3.7149999 -1.546 0.41999999
3.648 -3.6860001 -1.538 0.28
3.678 -3.694 -1.5470001 0.47999999
3.7 -3.704 -1.554 0.28
3.6900001 -3.671 -1.544 0.50999999
3.7060001 -3.6630001 -1.546 0.37
3.7190001 -3.6530001 -1.5470001 0.46000001
3.7349999 -3.6470001 -1.549 0.36000001
3.7290001 -3.6170001 -1.541 0.44
3.7349999 -3.612 -1.541 0.41
3.75 -3.6040001 -1.543 0.34999999
3.7520001 -3.5829999 -1.539 0.43000001
3.7620001 -3.5699999 -1.538 0.41
3.777 -3.562 -1.54 0.41999999
3.77 -3.533 -1.5319999 0.33000001
3.747 -3.4879999 -1.517 0.44999999
3.7550001 -3.4849999 -1.518 0.38999999
3.767 -3.4749999 -1.5190001 0.33000001
3.7820001 -3.467 -1.52 0.49000001
3.813 -3.473 -1.529 0.27000001
3.8239999 -3.461 -1.529 0.56999999
3.826 -3.441 -1.525 0.41
3.8340001 -3.438 -1.527 0.38
3.8440001 -3.424 -1.526 0.34
3.8629999 -3.4200001 -1.53 0.38999999
3.891 -3.4230001 -1.5369999 0.44999999
3.915 -3.4219999 -1.5420001 0.37
3.9300001 -3.4130001 -1.544 0.44999999
3.891 -3.358 -1.523 0.41
3.904 -3.359 -1.527 0.37
3.9419999 -3.3699999 -1.538 0.44999999
3.9419999 -3.349 -1.534 0.37
3.9560001 -3.339 -1.535 0.44
3.97 -3.3299999 -1.5369999 0.34
3.984 -3.3199999 -1.538 0.38999999
4.0100002 -3.3210001 -1.545 0.43000001
4.0289998 -3.326 -1.55 0.36000001
4.0159998 -3.2939999 -1.541 0.47999999
4.0469999 -3.2980001 -1.549 0.36000001
4.0599999 -3.2880001 -1.55 0.38
4.0489998 -3.2579999 -1.5420001 0.43000001
4.0669999 -3.2509999 -1.545 0.33000001
4.086 -3.2460001 -1.548 0.43000001
4.0929999 -3.24 -1.549 0.34
4.131 -3.25 -1.561 0.38
4.1440001 -3.2390001 -1.562 0.43000001
4.1560001 -3.2279999 -1.562 0.41999999
4.1659999 -3.214 -1.562 0.33000001
4.1869998 -3.21 -1.567 0.46000001
4.1890001 -3.191 -1.564 0.34999999
4.1989999 -3.187 -1.566 0.43000001
4.217 -3.1800001 -1.569 0.41
4.2220001 -3.1630001 -1.567 0.34999999
4.2329998 -3.151 -1.567 0.46000001
4.2550001 -3.1470001 -1.572 0.43000001
4.2649999 -3.1340001 -1.572 0.37
4.2670002 -3.125 -1.571 0.34999999
4.2800002 -3.1129999 -1.572 0.34
4.2789998 -3.092 -1.568 0.31
4.2979999 -3.085 -1.572 0.31999999
4.3179998 -3.0799999 -1.576 0.30000001
4.3249998 -3.0639999 -1.575 0.27000001
4.3449998 -3.0580001 -1.579 0.43000001
4.375 -3.069 -1.589 0.31999999
4.3969998 -3.0639999 -1.594 0.37
4.4219999 -3.0610001 -1.6 0.30000001
4.4569998 -3.0639999 -1.609 0.37
4.4699998 -3.052 -1.6109999 0.31
4.4949999 -3.049 -1.617 0.34
4.5310001 -3.053 -1.627 0.33000001
4.5489998 -3.0550001 -1.632 0.31999999
4.5760002 -3.052 -1.6390001 0.31999999
4.6170001 -3.059 -1.651 0.37
4.6279998 -3.0450001 -1.651 0.31999999
4.6550002 -3.0420001 -1.658 0.30000001
4.6849999 -3.0409999 -1.666 0.38
4.6900001 -3.0239999 -1.664 0.34
4.7080002 -3.0239999 -1.669 0.47999999
4.7080002 -3.003 -1.665 0.30000001
4.7199998 -2.9909999 -1.6670001 0.34999999
4.7259998 -2.974 -1.665 0.34
4.737 -2.96 -1.666 0.34999999
4.7290001 -2.934 -1.659 0.28999999
4.7509999 -2.938 -1.666 0.37
4.757 -2.921 -1.665 0.30000001
4.7649999 -2.905 -1.664 0.34999999
4.7659998 -2.885 -1.661 0.31999999
4.7930002 -2.881 -1.668 0.37
4.7839999 -2.855 -1.661 0.31999999
4.7940001 -2.8410001 -1.6619999 0.31
4.8070002 -2.8380001 -1.665 0.31
4.7950001 -2.8099999 -1.6569999 0.31999999
4.8150001 -2.802 -1.661 0.31999999
4.829 -2.79 -1.663 0.30000001
4.8260002 -2.7679999 -1.659 0.31
4.836 -2.7539999 -1.659 0.31
4.8499999 -2.7409999 -1.661 0.31999999
4.842 -2.727 -1.6569999 0.30000001
4.8579998 -2.7160001 -1.659 0.31999999
4.8779998 -2.707 -1.664 0.31999999
4.8740001 -2.6849999 -1.659 0.30000001
4.8829999 -2.6700001 -1.659 0.31
4.9000001 -2.6589999 -1.6619999 0.30000001
4.8850002 -2.641 -1.656 0.31
4.8920002 -2.625 -1.655 0.27000001
4.9099998 -2.615 -1.659 0.33000001
4.9120002 -2.596 -1.656 0.30000001
4.9299998 -2.586 -1.66 0.31
4.941 -2.572 -1.661 0.30000001
4.9429998 -2.553 -1.659 0.30000001
4.954 -2.549 -1.661 0.31999999
4.9580002 -2.5309999 -1.66 0.30000001
4.961 -2.513 -1.658 0.31
4.974 -2.5 -1.66 0.31
4.9889998 -2.4879999 -1.6619999 0.30000001
4.9840002 -2.4660001 -1.658 0.28999999
5.0040002 -2.457 -1.6619999 0.31999999
5.0009999 -2.4449999 -1.66 0.31
5.0100002 -2.431 -1.661 0.30000001
5.02 -2.4159999 -1.661 0.30000001
5.0219998 -2.3970001 -1.659 0.30000001
5.0159998 -2.375 -1.654 0.30000001
5.0419998 -2.368 -1.661 0.33000001
5.0409999 -2.348 -1.658 0.28999999
5.052 -2.3440001 -1.661 0.31
5.0469999 -2.322 -1.656 0.30000001
5.0580001 -2.3080001 -1.6569999 0.30000001
5.0609999 -2.29 -1.656 0.30000001
5.0700002 -2.2750001 -1.6569999 0.30000001
5.079 -2.26 -1.6569999 0.30000001
5.0809999 -2.2509999 -1.6569999 0.28999999
5.0949998 -2.2379999 -1.659 0.28999999
5.0900002 -2.217 -1.655 0.30000001
5.1059999 -2.2049999 -1.658 0.30000001
5.1069999 -2.1860001 -1.656 0.30000001
5.1160002 -2.171 -1.6569999 0.31999999
5.1300001 -2.158 -1.659 0.31
5.1209998 -2.145 -1.655 0.30000001
5.1259999 -2.128 -1.654 0.23999999
5.132 -2.112 -1.654 0.2
5.1440001 -2.098 -1.656 0.51999998
5.158 -2.085 -1.659 0.31999999
5.1570001 -2.066 -1.656 0.30000001
5.1690001 -2.0510001 -1.658 0.30000001
5.1739998 -2.0439999 -1.659 0.30000001
5.1719999 -2.0239999 -1.656 0.28999999
5.1830001 -2.01 -1.6569999 0.31999999
5.197 -1.997 -1.66 0.31999999
5.1939998 -1.977 -1.6569999 0.27000001
5.204 -1.962 -1.658 0.33000001
5.21 -1.9450001 -1.658 0.33000001
5.211 -1.937 -1.6569999 0.31999999
5.2210002 -1.9220001 -1.659 0.31999999
5.2249999 -1.905 -1.658 0.31
5.2270002 -1.887 -1.6569999 0.31999999
5.2329998 -1.87 -1.6569999 0.28999999
5.2410002 -1.855 -1.6569999 0.28999999
5.243 -1.837 -1.656 0.30000001
5.244 -1.8279999 -1.656 0.31
5.2589998 -1.8150001 -1.659 0.31999999
5.2659998 -1.799 -1.659 0.30000001
5.2670002 -1.78 -1.6569999 0.28999999
5.2600002 -1.7589999 -1.653 0.20999999
5.2779999 -1.747 -1.6569999 0.18000001
5.2709999 -1.7359999 -1.654 0.47999999
5.2930002 -1.725 -1.66 0.28999999
5.2859998 -1.704 -1.656 0.49000001
5.302 -1.691 -1.659 0.30000001
5.3039999 -1.673 -1.658 0.50999999
5.3109999 -1.6569999 -1.659 0.34
5.3070002 -1.637 -1.656 0.54000002
5.3260002 -1.6339999 -1.661 0.31999999
5.3070002 -1.61 -1.653 0.57999998
5.3340001 -1.6 -1.661 0.34
5.3340001 -1.582 -1.659 0.51999998
5.3390002 -1.5650001 -1.659 0.28999999
5.3400002 -1.5470001 -1.6569999 0.47999999
5.3499999 -1.5319999 -1.659 0.30000001
5.342 -1.52 -1.656 0.55000001
5.3649998 -1.5089999 -1.6619999 0.47999999
5.3860002 -1.4960001 -1.6670001 0.31999999
5.3520002 -1.469 -1.654 0.20999999
5.3769999 -1.4579999 -1.661 0.2
5.3779998 -1.4400001 -1.66 0.38
5.3740001 -1.4299999 -1.658 0.44999999
5.3660002 -1.409 -1.654 0.38
5.3829999 -1.396 -1.658 0.40000001
5.369 -1.374 -1.652 0.38999999
5.3769999 -1.358 -1.653 0.41
5.3979998 -1.346 -1.659 0.38
5.395 -1.327 -1.656 0.34999999
5.388 -1.316 -1.653 0.38999999
5.401 -1.301 -1.656 0.37
5.388 -1.28 -1.651 0.38
5.3959999 -1.2640001 -1.652 0.34999999
5.4089999 -1.249 -1.655 0.36000001
5.402 -1.23 -1.651 0.34999999
5.408 -1.2130001 -1.652 0.36000001
5.421 -1.207 -1.656 0.36000001
5.4190001 -1.189 -1.654 0.37
5.4169998 -1.171 -1.652 0.34999999
5.434 -1.1569999 -1.656 0.31999999
5.428 -1.138 -1.653 0.38999999
5.4369998 -1.122 -1.655 0.36000001
5.4460001 -1.1059999 -1.6569999 0.34
5.4349999 -1.095 -1.653 0.34999999
5.4499998 -1.08 -1.656 0.36000001
5.4590001 -1.064 -1.658 0.36000001
5.4489999 -1.044 -1.654 0.34999999
5.454 -1.027 -1.654 0.34999999
5.4679999 -1.012 -1.658 0.34999999
5.46 -0.99299997 -1.654 0.38999999
5.4640002 -0.98500001 -1.655 0.36000001
5.48 -0.97000003 -1.659 0.33000001
5.4619999 -0.949 -1.653 0.36000001
5.4759998 -0.93400002 -1.656 0.36000001
5.487 -0.91799998 -1.659 0.36000001
5.4749999 -0.898 -1.654 0.31999999
5.487 -0.88200003 -1.6569999 0.37
5.4899998 -0.87400001 -1.6569999 0.34
5.4889998 -0.85600001 -1.656 0.33000001
5.4819999 -0.838 -1.653 0.33000001
5.4959998 -0.82200003 -1.6569999 0.34
5.4949999 -0.80400002 -1.656 0.34
5.4980001 -0.787 -1.656 0.34
5.5040002 -0.77899998 -1.6569999 0.36000001
5.494 -0.75999999 -1.653 0.34
5.5019999 -0.74400002 -1.655 0.38
5.5100002 -0.727 -1.6569999 0.34999999
5.5100002 -0.70899999 -1.656 0.36000001
5.5120001 -0.69199997 -1.656 0.36000001
5.5219998 -0.676 -1.659 0.33000001
5.5079999 -0.66500002 -1.654 0.37
5.5190001 -0.64899999 -1.6569999 0.36000001
5.52 -0.63099998 -1.656 0.34999999
5.5120001 -0.61299998 -1.653 0.36000001
5.5209999 -0.597 -1.656 0.34999999
5.52 -0.579 -1.654 0.31999999
5.5209999 -0.56099999 -1.654 0.37
5.5180001 -0.55199999 -1.653 0.33000001
5.5300002 -0.53600001 -1.656 0.37
5.52 -0.51800001 -1.653 0.36000001
5.527 -0.50099999 -1.654 0.34999999
5.533 -0.484 -1.656 0.33000001
5.526 -0.46599999 -1.653 0.34
5.5289998 -0.45699999 -1.654 0.33000001
5.54 -0.44100001 -1.6569999 0.36000001
5.539 -0.42300001 -1.656 0.34999999
5.5289998 -0.405 -1.653 0.34999999
5.5310001 -0.38699999 -1.653 0.31999999
5.5359998 -0.37 -1.654 0.38
5.533 -0.35299999 -1.653 0.34
5.5469999 -0.345 -1.6569999 0.34999999
5.533 -0.32600001 -1.652 0.31999999
5.5409999 -0.30899999 -1.654 0.34999999
5.54 -0.292 -1.654 0.34
5.5450001 -0.27500001 -1.655 0.36000001
5.5419998 -0.257 -1.654 0.34999999
5.5539999 -0.23999999 -1.6569999 0.38
5.5320001 -0.23 -1.65 0.34
5.5479999 -0.214 -1.655 0.38
5.5440001 -0.19599999 -1.654 0.34
5.5409999 -0.17900001 -1.653 0.34999999
5.5469999 -0.161 -1.654 0.37
5.552 -0.14399999 -1.656 0.38
5.5450001 -0.126 -1.653 0.31
5.5489998 -0.118 -1.654 0.40000001
5.553 -0.1 -1.656 0.38
5.5489998 -0.082999997 -1.654 0.28
5.546 -0.064999998 -1.653 0.41
5.5479999 -0.048 -1.654 0.38999999
5.5440001 -0.030999999 -1.653 0.36000001
5.5500002 -0.013 -1.654 0.37
5.552 -0.0049999999 -1.655 0.36000001
5.3330002 0.001 -1.646 0.41
5.342 0.017999999 -1.65 0.40000001
5.335 0.035 -1.647 0.36000001
5.3400002 0.043000001 -1.649 0.46000001
5.3439999 0.059999999 -1.65 0.41
5.336 0.077 -1.648 0.41
5.336 0.093000002 -1.648 0.38
5.3429999 0.11 -1.65 0.41
5.3410001 0.127 -1.65 0.38999999
5.3330002 0.14399999 -1.647 0.44999999
5.348 0.152 -1.652 0.31999999
5.336 0.169 -1.648 0.47
5.3390002 0.186 -1.65 0.31999999
5.3379998 0.20200001 -1.65 0.46000001
5.3340001 0.219 -1.648 0.36000001
5.3330002 0.236 -1.648 0.44999999
5.342 0.25299999 -1.651 0.40000001
5.3379998 0.26100001 -1.65 0.36000001
5.3309999 0.278 -1.648 0.43000001
5.3299999 0.294 -1.648 0.38999999
5.329 0.31099999 -1.648 0.40000001
5.336 0.32800001 -1.651 0.38999999
5.3429999 0.34599999 -1.653 0.33000001
5.3319998 0.36199999 -1.65 0.38
5.3280001 0.37 -1.649 0.41
5.3379998 0.38800001 -1.653 0.34999999
5.329 0.40400001 -1.65 0.41
5.3260002 0.41999999 -1.65 0.38
5.3299999 0.43700001 -1.651 0.38
5.3249998 0.454 -1.65 0.40000001
5.329 0.47099999 -1.652 0.38
5.336 0.47999999 -1.655 0.40000001
5.3270001 0.49599999 -1.652 0.36000001
5.3249998 0.51300001 -1.652 0.38
5.3330002 0.53100002 -1.655 0.36000001
5.3299999 0.54699999 -1.655 0.38999999
5.322 0.56300002 -1.653 0.34
5.323 0.57200003 -1.653 0.40000001
5.3210001 0.58899999 -1.653 0.37
5.323 0.60600001 -1.655 0.38999999
5.3270001 0.62300003 -1.6569999 0.38999999
5.3210001 0.639 -1.655 0.34
5.3189998 0.65600002 -1.655 0.40000001
5.3189998 0.67299998 -1.656 0.34
5.3179998 0.68099999 -1.656 0.41999999
5.316 0.69800001 -1.656 0.38999999
5.3130002 0.71499997 -1.656 0.40000001
5.3150001 0.73199999 -1.6569999 0.34
5.3049998 0.74800003 -1.655 0.40000001
5.3210001 0.76700002 -1.661 0.33000001
5.2969999 0.77999997 -1.653 0.41
5.3010001 0.79000002 -1.655 0.34999999
5.3080001 0.80800003 -1.658 0.37
5.2940001 0.82300001 -1.655 0.41
5.2989998 0.83999997 -1.6569999 0.36000001
5.3070002 0.85900003 -1.661 0.41
5.3010001 0.875 -1.66 0.36000001
5.2979999 0.89200002 -1.66 0.41
5.302 0.90100002 -1.6619999 0.38
5.303 0.91799998 -1.663 0.34
5.2969999 0.93400002 -1.6619999 0.41
5.296 0.95099998 -1.6619999 0.36000001
5.2849998 0.96600002 -1.66 0.38
5.2880001 0.98400003 -1.6619999 0.41
5.29 0.99299997 -1.663 0.38
5.2810001 1.0089999 -1.661 0.36000001
5.2779999 1.025 -1.661 0.38
5.2859998 1.044 -1.665 0.41
5.2839999 1.061 -1.665 0.38
5.2750001 1.077 -1.663 0.36000001
5.2719998 1.0930001 -1.663 0.34
5.2670002 1.101 -1.6619999 0.41
5.2610002 1.117 -1.6619999 0.31999999
5.2740002 1.137 -1.6670001 0.36000001
5.2540002 1.15 -1.6619999 0.33000001
5.2579999 1.168 -1.664 0.31999999
5.25 1.184 -1.663 0.31
5.2540002 1.202 -1.665 0.36000001
5.2410002 1.207 -1.6619999 0.30000001
5.2389998 1.224 -1.6619999 0.31
5.2480001 1.244 -1.6670001 0.31999999
5.244 1.26 -1.6670001 0.34
5.2290001 1.274 -1.663 0.30000001
5.2379999 1.294 -1.6670001 0.30000001
5.2189999 1.307 -1.6619999 0.30000001
5.2280002 1.318 -1.666 0.31999999
5.2150002 1.332 -1.663 0.31
5.2140002 1.349 -1.664 0.30000001
5.2119999 1.3660001 -1.665 0.31999999
5.2059999 1.382 -1.664 0.33000001
5.2119999 1.401 -1.668 0.31
5.2150002 1.419 -1.67 0.31
5.2080002 1.426 -1.668 0.36000001
5.1960001 1.4400001 -1.666 0.30000001
5.2059999 1.461 -1.671 0.30000001
5.1989999 1.477 -1.67 0.34
5.184 1.49 -1.6670001 0.27000001
5.1939998 1.51 -1.6720001 0.30000001
5.1789999 1.515 -1.6670001 0.28
5.1849999 1.534 -1.671 0.41
5.178 1.55 -1.67 0.30000001
5.164 1.563 -1.6670001 0.34
5.1539998 1.5779999 -1.665 0.28
5.1669998 1.6 -1.6720001 0.34999999
5.164 1.617 -1.6720001 0.31999999
5.152 1.622 -1.669 0.23
5.1760001 1.647 -1.679 0.31
5.151 1.6569999 -1.6720001 0.44
5.1490002 1.675 -1.673 0.31999999
5.1420002 1.6900001 -1.673 0.46000001
5.1350002 1.706 -1.6720001 0.31999999
5.131 1.722 -1.673 0.46000001
5.1360002 1.733 -1.675 0.31999999
5.1139998 1.743 -1.67 0.47
5.118 1.763 -1.673 0.47
5.1240001 1.783 -1.677 0.34
5.1149998 1.798 -1.676 0.28
5.1079998 1.813 -1.675 0.36000001
5.1069999 1.831 -1.677 0.34999999
5.1009998 1.8380001 -1.676 0.31999999
5.1090002 1.859 -1.681 0.36000001
5.1020002 1.875 -1.6799999 0.37
5.085 1.887 -1.677 0.2
5.0900002 1.9069999 -1.6799999 0.25999999
5.0869999 1.924 -1.682 0.34
5.0830002 1.941 -1.682 0.31999999
5.0770001 1.947 -1.681 0.31999999
5.0830002 1.9680001 -1.6849999 0.33000001
5.0749998 1.983 -1.6849999 0.33000001
5.0599999 1.9960001 -1.682 0.30000001
5.073 2.02 -1.689 0.31999999
5.0630002 2.0339999 -1.687 0.34
5.0630002 2.043 -1.689 0.30000001
5.0549998 2.059 -1.688 0.27000001
5.0430002 2.072 -1.686 0.34
5.0469999 2.0929999 -1.6900001 0.28
5.0370002 2.1070001 -1.689 0.30000001
5.0409999 2.1270001 -1.692 0.34
5.0289998 2.141 -1.6900001 0.30000001
5.0380001 2.154 -1.6950001 0.34
5.0209999 2.165 -1.691 0.31999999
5.0159998 2.1819999 -1.692 0.30000001
5.0159998 2.201 -1.694 0.31
5.007 2.2149999 -1.694 0.31
4.9980001 2.23 -1.693 0.28999999
5.0089998 2.2449999 -1.698 0.30000001
4.9840002 2.2520001 -1.692 0.31
4.9840002 2.2709999 -1.694 0.28999999
4.9920001 2.2939999 -1.7 0.31999999
4.9819999 2.3080001 -1.699 0.27000001
4.9679999 2.3210001 -1.696 0.31999999
4.9770002 2.3440001 -1.702 0.28999999
4.9689999 2.3499999 -1.701 0.28
4.9629998 2.3659999 -1.701 0.31999999
4.9619999 2.385 -1.704 0.30000001
4.9460001 2.3959999 -1.701 0.31
4.9419999 2.414 -1.702 0.27000001
4.9359999 2.4300001 -1.702 0.30000001
4.915 2.4389999 -1.697 0.28
4.9299998 2.4560001 -1.704 0.31
4.9200001 2.47 -1.704 0.31
4.8889999 2.474 -1.6950001 0.28
4.9050002 2.5009999 -1.704 0.31
4.8969998 2.517 -1.704 0.28999999
4.8850002 2.53 -1.702 0.28
4.8860002 2.55 -1.706 0.30000001
4.8850002 2.559 -1.707 0.28999999
4.8769999 2.575 -1.707 0.28999999
4.862 2.586 -1.704 0.31
4.8579998 2.6040001 -1.706 0.30000001
4.8439999 2.6159999 -1.704 0.28
4.8390002 2.6329999 -1.705 0.28999999
4.8439999 2.6559999 -1.71 0.31999999
4.8319998 2.6589999 -1.707 0.28999999
4.8299999 2.678 -1.709 0.30000001
4.823 2.694 -1.71 0.28999999
4.8080001 2.7049999 -1.707 0.28
4.8000002 2.72 -1.707 0.31
4.8010001 2.7409999 -1.711 0.31999999
4.7839999 2.7409999 -1.706 0.25
4.7779999 2.7579999 -1.707 0.34
4.77 2.773 -1.707 0.31
4.7610002 2.7880001 -1.707 0.30000001
4.757 2.806 -1.709 0.31999999
4.7420001 2.8169999 -1.707 0.30000001
4.7360001 2.8329999 -1.7079999 0.31999999
4.743 2.848 -1.712 0.31999999
4.7270002 2.859 -1.71 0.31999999
4.7270002 2.878 -1.7130001 0.34
4.724 2.8970001 -1.716 0.28999999
4.7129998 2.911 -1.715 0.28999999
4.6939998 2.9200001 -1.711 0.28999999
4.6919999 2.9389999 -1.714 0.28999999
4.677 2.9400001 -1.71 0.30000001
4.678 2.961 -1.714 0.30000001
4.6669998 2.974 -1.7130001 0.28999999
4.651 2.9849999 -1.711 0.31999999
4.651 3.006 -1.714 0.30000001
4.6469998 3.023 -1.716 0.33000001
4.6290002 3.033 -1.7130001 0.28
4.6350002 3.0469999 -1.7180001 0.30000001
4.6269999 3.063 -1.7180001 0.30000001
4.605 3.069 -1.7130001 0.31999999
4.6079998 3.092 -1.7180001 0.31999999
4.592 3.102 -1.716 0.28
4.579 3.1140001 -1.714 0.33000001
4.5770001 3.1340001 -1.7180001 0.30000001
4.5799999 3.1470001 -1.721 0.33000001
4.5560002 3.151 -1.715 0.28999999
4.5599999 3.1760001 -1.721 0.28999999
4.5450001 3.187 -1.719 0.28999999
4.5450001 3.207 -1.723 0.34999999
4.5279999 3.217 -1.72 0.28999999
4.526 3.227 -1.721 0.30000001
4.507 3.234 -1.7180001 0.30000001
4.5079999 3.256 -1.722 0.30000001
4.494 3.2679999 -1.721 0.30000001
4.4949999 3.29 -1.725 0.34
4.4809999 3.302 -1.724 0.31999999
4.4660001 3.313 -1.722 0.28999999
4.4699998 3.326 -1.726 0.34
4.4580002 3.339 -1.725 0.28999999
4.4569998 3.3599999 -1.729 0.34999999
4.4419999 3.3710001 -1.727 0.31
4.4390001 3.3900001 -1.73 0.30000001
4.4219999 3.4000001 -1.728 0.30000001
4.4299998 3.4170001 -1.733 0.34999999
4.415 3.427 -1.7309999 0.25999999
4.401 3.4389999 -1.73 0.27000001
4.3979998 3.4590001 -1.733 0.33000001
4.3779998 3.4649999 -1.729 0.31999999
4.3800001 3.49 -1.735 0.31999999
4.3649998 3.5 -1.733 0.23
4.3540001 3.5020001 -1.7309999 0.30000001
4.3569999 3.5280001 -1.737 0.34999999
4.3309999 3.529 -1.7309999 0.28999999
4.3169999 3.5409999 -1.729 0.20999999
4.3340001 3.5769999 -1.7410001 0.34
4.3150001 3.585 -1.738 0.23999999
4.3060002 3.599 -1.739 0.22
4.2969999 3.6040001 -1.738 0.30000001
4.2859998 3.6170001 -1.738 0.31999999
4.2740002 3.631 -1.738 0.31999999
4.2670002 3.648 -1.74 0.30000001
4.27 3.674 -1.7460001 0.34999999
4.25 3.6800001 -1.742 0.30000001
4.243 3.697 -1.744 0.28
4.2449999 3.711 -1.748 0.28999999
4.2220001 3.714 -1.743 0.28999999
4.2090001 3.7260001 -1.742 0.28
4.21 3.7509999 -1.748 0.28999999
4.2030001 3.7679999 -1.75 0.31
4.184 3.7739999 -1.7460001 0.30000001
4.1820002 3.7969999 -1.751 0.31
4.1659999 3.7939999 -1.7460001 0.28999999
4.158 3.8110001 -1.748 0.28999999
4.1500001 3.8280001 -1.75 0.27000001
4.131 3.835 -1.747 0.31999999
4.1290002 3.8570001 -1.751 0.31
4.118 3.8710001 -1.752 0.28
4.1059999 3.8840001 -1.752 0.31999999
4.1030002 3.8929999 -1.753 0.31999999
4.0900002 3.9059999 -1.753 0.28
4.073 3.9130001 -1.751 0.31999999
4.0599999 3.9260001 -1.751 0.31
4.0619998 3.9519999 -1.757 0.28999999
4.046 3.9619999 -1.756 0.31999999
4.0250001 3.954 -1.749 0.27000001
4.0289998 3.983 -1.756 0.28999999
4.0110002 3.99 -1.7539999 0.30000001
4.0040002 4.0079999 -1.756 0.31999999
4.0100002 4.039 -1.765 0.30000001
3.98 4.0339999 -1.757 0.27000001
3.967 4.0469999 -1.757 0.30000001
3.9690001 4.0609999 -1.761 0.31999999
3.961 4.079 -1.763 0.25999999
3.9389999 4.0819998 -1.7589999 0.30000001
3.9360001 4.1040001 -1.763 0.31999999
3.9119999 4.105 -1.758 0.28999999
3.895 4.1129999 -1.756 0.28999999
3.892 4.1350002 -1.761 0.30000001
3.902 4.1589999 -1.7690001 0.28999999
3.881 4.1630001 -1.765 0.31999999
3.855 4.1609998 -1.7589999 0.2
3.8559999 4.1890001 -1.766 0.31
3.8340001 4.191 -1.762 0.22
3.8310001 4.2140002 -1.767 0.23999999
3.8180001 4.2270002 -1.767 0.25999999
3.803 4.224 -1.763 0.30000001
3.8 4.2470002 -1.768 0.34
3.7880001 4.2610002 -1.768 0.28999999
3.7720001 4.27 -1.767 0.30000001
3.763 4.2859998 -1.7690001 0.31999999
3.743 4.29 -1.766 0.28
3.7360001 4.309 -1.7690001 0.33000001
3.72 4.3049998 -1.765 0.28999999
3.714 4.3249998 -1.768 0.34999999
3.7030001 4.3400002 -1.77 0.31999999
3.688 4.3499999 -1.7690001 0.30000001
3.677 4.3649998 -1.77 0.31
3.655 4.3660002 -1.766 0.28
3.6470001 4.3850002 -1.7690001 0.34
3.6400001 4.3899999 -1.7690001 0.31999999
3.635 4.4120002 -1.773 0.33000001
3.6099999 4.4099998 -1.768 0.30000001
3.6029999 4.4299998 -1.772 0.31
3.5880001 4.4400001 -1.771 0.30000001
3.5780001 4.4559999 -1.773 0.34
3.5610001 4.4640002 -1.772 0.28
3.5599999 4.4770002 -1.775 0.34999999
3.5420001 4.4840002 -1.773 0.31999999
3.5250001 4.4910002 -1.771 0.28
3.5079999 4.4990001 -1.77 0.30000001
3.5009999 4.5190001 -1.773 0.30000001
3.484 4.5250001 -1.772 0.34999999
3.467 4.533 -1.77 0.28999999
3.4660001 4.546 -1.773 0.31999999
3.4489999 4.5539999 -1.772 0.31999999
3.4349999 4.5650001 -1.772 0.31999999
3.4219999 4.5770001 -1.773 0.31999999
3.414 4.5970001 -1.777 0.34
3.3970001 4.6040001 -1.775 0.31999999
3.3900001 4.6100001 -1.775 0.31999999
3.3740001 4.619 -1.775 0.33000001
3.3640001 4.6360002 -1.777 0.31999999
3.3440001 4.638 -1.774 0.34999999
3.3299999 4.6490002 -1.774 0.31
3.316 4.6609998 -1.775 0.28999999
3.3069999 4.6789999 -1.778 0.37
3.303 4.6890001 -1.78 0.37
3.299 4.7150002 -1.786 0.31999999
3.2850001 4.7270002 -1.7869999 0.31999999
3.267 4.7319999 -1.785 0.20999999
3.2490001 4.7379999 -1.783 0.17
3.23 4.7420001 -1.78 0.25999999
3.2219999 4.763 -1.785 0.30000001
3.224 4.7820001 -1.79 0.31999999
3.223 4.8130002 -1.799 0.28999999
3.2049999 4.8179998 -1.7970001 0.28999999
3.177 4.809 -1.789 0.20999999
3.155 4.8080001 -1.785 0.22
3.148 4.8309999 -1.79 0.22
3.145 4.8600001 -1.7970001 0.47
3.125 4.8460002 -1.79 0.33000001
3.102 4.8439999 -1.785 0.28
3.0929999 4.8629999 -1.789 0.28999999
3.0810001 4.8779998 -1.791 0.34
3.0669999 4.8889999 -1.7920001 0.36000001
3.049 4.8959999 -1.79 0.31
3.0209999 4.8839998 -1.7819999 0.23
3.0209999 4.902 -1.7869999 0.16
3.029 4.9499998 -1.802 0.36000001
2.9949999 4.9289999 -1.79 0.57999998
2.9579999 4.9380002 -1.7869999 0.51999998
2.944 4.9489999 -1.7869999 0.28999999
2.938 4.974 -1.794 0.41
2.924 4.9689999 -1.79 0.47
2.9089999 4.9780002 -1.79 0.44
2.891 4.9840002 -1.789 0.28999999
2.8659999 4.9770002 -1.7819999 0.44999999
2.8399999 4.967 -1.775 0.38999999
2.8169999 4.9629998 -1.77 0.40000001
2.803 4.9749999 -1.772 0.38
2.786 4.9629998 -1.765 0.34999999
2.7809999 4.9899998 -1.772 0.41
2.756 4.9819999 -1.766 0.47
2.7420001 4.994 -1.767 0.41999999
2.7249999 4.9990001 -1.766 0.37
2.7019999 4.994 -1.761 0.34
2.6889999 4.9899998 -1.758 0.41
2.6719999 4.9949999 -1.756 0.38
2.6530001 4.9970002 -1.7539999 0.37
2.6289999 4.9899998 -1.748 0.36000001
2.6110001 4.993 -1.7460001 0.37
2.5929999 4.9959998 -1.745 0.37
2.573 4.9980001 -1.742 0.36000001
2.556 5.0019999 -1.7410001 0.36000001
2.5480001 5.006 -1.7410001 0.38
2.5250001 4.9990001 -1.735 0.34
2.5050001 4.9990001 -1.732 0.41
2.4890001 5.006 -1.732 0.38
2.4679999 5.0040002 -1.728 0.36000001
2.451 5.0079999 -1.727 0.34
2.4300001 5.006 -1.723 0.37
2.4189999 5.0029998 -1.721 0.34
2.401 5.0050001 -1.719 0.34999999
2.385 5.013 -1.719 0.34999999
2.365 5.0100002 -1.715 0.36000001
2.3469999 5.0139999 -1.714 0.37
2.3299999 5.0180001 -1.712 0.38
2.3169999 5.0089998 -1.7079999 0.38
2.302 5.02 -1.709 0.34999999
2.2820001 5.0170002 -1.706 0.38
2.2620001 5.0149999 -1.702 0.37
2.2449999 5.0190001 -1.701 0.33000001
2.2290001 5.026 -1.701 0.36000001
2.2060001 5.0149999 -1.6950001 0.38999999
2.1919999 5.0050001 -1.6900001 0.38999999
2.1800001 5.02 -1.693 0.36000001
2.158 5.0120001 -1.687 0.38
2.1429999 5.02 -1.688 0.36000001
2.125 5.0229998 -1.687 0.5
2.1059999 5.0209999 -1.684 0.41999999
2.0910001 5.0289998 -1.684 0.34
2.0840001 5.0359998 -1.6849999 0.41
2.063 5.0300002 -1.681 0.34
2.046 5.033 -1.6799999 0.36000001
2.027 5.0310001 -1.677 0.37
2.01 5.0359998 -1.676 0.40000001
1.9910001 5.033 -1.673 0.34
1.975 5.039 -1.673 0.38999999
1.9680001 5.0440001 -1.673 0.34999999
1.947 5.0359998 -1.668 0.36000001
1.932 5.046 -1.67 0.36000001
1.916 5.0500002 -1.669 0.38999999
1.895 5.0440001 -1.665 0.37
1.878 5.046 -1.663 0.34999999
1.868 5.0679998 -1.669 0.36000001
1.854 5.0549998 -1.663 0.36000001
1.834 5.0479999 -1.659 0.38999999
1.821 5.0609999 -1.6619999 0.37
1.799 5.0500002 -1.656 0.36000001
1.784 5.0599999 -1.6569999 0.36000001
1.77 5.0689998 -1.658 0.38
1.751 5.0650001 -1.655 0.36000001
1.744 5.072 -1.6569999 0.33000001
1.73 5.0830002 -1.658 0.34
1.71 5.0770001 -1.655 0.38999999
1.694 5.0830002 -1.655 0.33000001
1.683 5.0999999 -1.659 0.34999999
1.663 5.0949998 -1.655 0.37
1.646 5.098 -1.655 0.33000001
1.643 5.1149998 -1.66 0.37
1.624 5.1110001 -1.6569999 0.34999999
1.608 5.1160002 -1.6569999 0.34999999
1.596 5.1339998 -1.661 0.36000001
1.575 5.1230001 -1.655 0.34999999
1.558 5.1259999 -1.655 0.34999999
1.549 5.1539998 -1.663 0.37
1.538 5.1459999 -1.659 0.33000001
1.522 5.151 -1.659 0.37
1.5089999 5.1680002 -1.663 0.28999999
1.489 5.158 -1.658 0.46000001
1.473 5.165 -1.659 0.28999999
1.457 5.1700001 -1.659 0.47999999
1.443 5.1849999 -1.663 0.28
1.431 5.171 -1.6569999 0.50999999
1.4170001 5.1830001 -1.66 0.30000001
1.3940001 5.165 -1.652 0.54000002
1.383 5.1900001 -1.659 0.25999999
1.367 5.1919999 -1.658 0.49000001
1.353 5.2059999 -1.6619999 0.33000001
1.334 5.1989999 -1.658 0.5
1.324 5.1950002 -1.656 0.37
1.3049999 5.1880002 -1.652 0.44999999
1.29 5.198 -1.654 0.38
1.28 5.2280002 -1.663 0.34
1.257 5.204 -1.653 0.46000001
1.2410001 5.2119999 -1.655 0.43000001
1.238 5.2360001 -1.6619999 0.34
1.215 5.2080002 -1.651 0.5
1.2 5.2210002 -1.655 0.38999999
1.181 5.21 -1.65 0.58999997
1.164 5.2119999 -1.649 0.30000001
1.148 5.2189999 -1.65 0.50999999
1.133 5.2270002 -1.651 0.30000001
1.117 5.2319999 -1.652 0.44
1.108 5.2319999 -1.651 0.43000001
1.095 5.2519999 -1.6569999 0.41999999
1.076 5.2410002 -1.652 0.47
1.062 5.2589998 -1.6569999 0.30000001
1.041 5.2399998 -1.65 0.5
1.022 5.23 -1.645 0.31999999
1.008 5.244 -1.649 0.55000001
1.003 5.2670002 -1.656 0.34
0.98400003 5.2550001 -1.651 0.44999999
0.97100002 5.2779999 -1.658 0.43000001
0.95899999 5.3039999 -1.665 0.40000001
0.93800002 5.283 -1.6569999 0.44999999
0.91500002 5.25 -1.645 0.34999999
0.90899998 5.2639999 -1.65 0.38999999
0.89300001 5.2670002 -1.65 0.41999999
0.88 5.2940001 -1.658 0.44
0.861 5.2820001 -1.653 0.30000001
0.83999997 5.2589998 -1.6440001 0.50999999
0.82499999 5.2709999 -1.647 0.31999999
0.81099999 5.2880001 -1.652 0.50999999
0.80299997 5.2909999 -1.653 0.30000001
0.78200001 5.2620001 -1.642 0.51999998
0.76700002 5.2810001 -1.648 0.30000001
0.74299997 5.2270002 -1.6289999 0.54000002
0.72799999 5.2389998 -1.632 0.33000001
0.71100003 5.2389998 -1.631 0.47
0.69499999 5.2399998 -1.631 0.36000001
0.68699998 5.2480001 -1.633 0.56
0.67199999 5.2600002 -1.636 0.34
0.65700001 5.2709999 -1.64 0.44999999
0.63800001 5.256 -1.6339999 0.36000001
0.62199998 5.2600002 -1.635 0.57999998
0.60600001 5.27 -1.637 0.34
0.58899999 5.2639999 -1.635 0.55000001
0.58399999 5.303 -1.647 0.31999999
0.565 5.2800002 -1.6390001 0.52999997
0.55299997 5.3249998 -1.653 0.33000001
0.53399998 5.3060002 -1.646 0.49000001
0.51899999 5.3249998 -1.652 0.33000001
0.50300002 5.3319998 -1.654 0.5
0.48500001 5.3239999 -1.651 0.28999999
0.472 5.2639999 -1.631 0.57999998
0.458 5.296 -1.641 0.31
0.442 5.309 -1.645 0.47999999
0.428 5.3520002 -1.658 0.30000001
0.40799999 5.3039999 -1.642 0.51999998
0.39199999 5.3179998 -1.646 0.30000001
0.37599999 5.323 -1.648 0.51999998
0.368 5.3280001 -1.649 0.31999999
0.35100001 5.329 -1.649 0.49000001
0.333 5.303 -1.64 0.38999999
0.31600001 5.3080001 -1.641 0.41
0.303 5.3740001 -1.663 0.28999999
0.28400001 5.3330002 -1.649 0.50999999
0.26800001 5.355 -1.656 0.31999999
0.259 5.336 -1.65 0.47999999
0.243 5.369 -1.66 0.30000001
0.226 5.3639998 -1.658 0.51999998
0.20999999 5.369 -1.66 0.27000001
0.192 5.3579998 -1.656 0.5
0.176 5.3759999 -1.6619999 0.30000001
0.15899999 5.3779998 -1.6619999 0.49000001
0.15099999 5.395 -1.668 0.33000001
0.134 5.3860002 -1.665 0.5
0.117 5.375 -1.661 0.31
0.1 5.3759999 -1.661 0.46000001
0.082999997 5.3990002 -1.668 0.36000001
0.066 5.3889999 -1.665 0.5
0.048999999 5.395 -1.6670001 0.38
0.041000001 5.401 -1.669 0.51999998
0.024 5.4159999 -1.674 0.38
0.0070000002 5.4089999 -1.6720001 0.44999999
-0.0099999998 5.4029999 -1.67 0.38
-0.027000001 5.3940001 -1.6670001 0.55000001
-0.044 5.3899999 -1.665 0.31999999
-0.059999999 5.3629999 -1.6569999 0.5
-0.068999998 5.3930001 -1.6670001 0.31999999
-0.086000003 5.408 -1.6720001 0.47999999
-0.104 5.4229999 -1.677 0.30000001
-0.121 5.4400001 -1.682 0.49000001
-0.138 5.4130001 -1.673 0.31
-0.155 5.4390001 -1.682 0.52999997
-0.17200001 5.4289999 -1.679 0.33000001
-0.18000001 5.408 -1.6720001 0.51999998
-0.198 5.4359999 -1.682 0.27000001
-0.213 5.3969998 -1.669 0.5
-0.23100001 5.4109998 -1.674 0.31
-0.25099999 5.4660001 -1.692 0.41
-0.26499999 5.4120002 -1.675 0.44999999
-0.28400001 5.447 -1.687 0.38999999
