# .PCD v0.7 - Point Cloud Data file format
VERSION 0.7
FIELDS x y z intensity
SIZE 4 4 4 4
TYPE F F F F
COUNT 1 1 1 1
WIDTH 1652
HEIGHT 1
VIEWPOINT 0 0 0 1 0 0 0
POINTS 1652
DATA ascii
4.6409998 -2.763 -1.669 0.31
4.6479998 -2.747 -1.668 0.31999999
4.6599998 -2.7349999 -1.67 0.30000001
4.6690001 -2.73 -1.6720001 0.30000001
4.6700001 -2.711 -1.668 0.27000001
4.6799998 -2.697 -1.669 0.28
4.6900001 -2.6830001 -1.67 0.34
4.697 -2.6670001 -1.669 0.30000001
4.7080002 -2.655 -1.67 0.30000001
4.7119999 -2.6370001 -1.668 0.30000001
4.7160001 -2.6300001 -1.668 0.31
4.7319999 -2.619 -1.6720001 0.30000001
4.737 -2.6029999 -1.67 0.34
4.7399998 -2.585 -1.668 0.25
4.737 -2.5639999 -1.664 0.25
4.7480001 -2.5510001 -1.665 0.34
4.75 -2.5420001 -1.665 0.28
4.7670002 -2.5320001 -1.668 0.34
4.7649999 -2.5120001 -1.664 0.31999999
4.7740002 -2.4979999 -1.665 0.28
4.79 -2.487 -1.668 0.34
4.783 -2.464 -1.6619999 0.28
4.8010001 -2.454 -1.666 0.33000001
4.8000002 -2.444 -1.664 0.34999999
4.8189998 -2.4349999 -1.668 0.23999999
4.8109999 -2.4119999 -1.663 0.28999999
4.8239999 -2.4000001 -1.665 0.33000001
4.8280001 -2.3829999 -1.663 0.31
4.8340001 -2.3670001 -1.663 0.31
4.8330002 -2.3469999 -1.66 0.28
4.8429999 -2.3429999 -1.6619999 0.31
4.8520002 -2.329 -1.663 0.31
4.8559999 -2.312 -1.6619999 0.30000001
4.869 -2.299 -1.663 0.34
4.8600001 -2.276 -1.658 0.27000001
4.8779998 -2.266 -1.6619999 0.34999999
4.8779998 -2.247 -1.659 0.31
4.8779998 -2.2379999 -1.658 0.31999999
4.8759999 -2.2190001 -1.655 0.25999999
4.8969998 -2.21 -1.66 0.37
4.895 -2.191 -1.6569999 0.27000001
4.901 -2.174 -1.656 0.31999999
4.8969998 -2.154 -1.652 0.28
4.9180002 -2.145 -1.6569999 0.31999999
4.914 -2.1340001 -1.655 0.27000001
4.9289999 -2.1229999 -1.658 0.30000001
4.941 -2.109 -1.66 0.28999999
4.9299998 -2.0869999 -1.653 0.28999999
4.9390001 -2.072 -1.654 0.31
4.947 -2.0569999 -1.655 0.31999999
4.9499998 -2.049 -1.655 0.28999999
4.9580002 -2.0339999 -1.655 0.28999999
4.974 -2.0220001 -1.658 0.28999999
4.9689999 -2.0020001 -1.655 0.31
4.974 -1.9859999 -1.654 0.30000001
4.9660001 -1.965 -1.649 0.23
4.9990001 -1.96 -1.658 0.28
4.9910002 -1.948 -1.655 0.22
5.0079999 -1.936 -1.658 0.28999999
5.0190001 -1.9220001 -1.66 0.28999999
5.0250001 -1.9069999 -1.66 0.28
5.0279999 -1.8890001 -1.659 0.28999999
5.039 -1.876 -1.661 0.28
5.0359998 -1.8559999 -1.658 0.27000001
5.053 -1.854 -1.663 0.31999999
5.053 -1.836 -1.661 0.25999999
5.0500002 -1.817 -1.658 0.30000001
5.0669999 -1.8049999 -1.6619999 0.30000001
5.0739999 -1.789 -1.6619999 0.31999999
5.0760002 -1.772 -1.661 0.31
5.0869999 -1.758 -1.663 0.31999999
5.099 -1.753 -1.666 0.25999999
5.092 -1.733 -1.6619999 0.30000001
5.0949998 -1.716 -1.661 0.31
5.1079998 -1.7029999 -1.663 0.31999999
5.1090002 -1.6849999 -1.6619999 0.31999999
5.1110001 -1.668 -1.661 0.28
5.1329999 -1.6569999 -1.6670001 0.31999999
5.1259999 -1.646 -1.663 0.31
5.1199999 -1.627 -1.66 0.28
5.1459999 -1.617 -1.6670001 0.28999999
5.1339998 -1.596 -1.661 0.28999999
5.145 -1.581 -1.663 0.28999999
5.1609998 -1.568 -1.6670001 0.34999999
5.158 -1.55 -1.664 0.28
5.1680002 -1.544 -1.6670001 0.28999999
5.1690001 -1.527 -1.665 0.34999999
5.1659999 -1.508 -1.663 0.23
5.1680002 -1.4910001 -1.6619999 0.23
5.1760001 -1.476 -1.663 0.34999999
5.1729999 -1.4579999 -1.66 0.36000001
5.1830001 -1.443 -1.6619999 0.31
5.1929998 -1.437 -1.665 0.37
5.1939998 -1.419 -1.663 0.34
5.2090001 -1.406 -1.6670001 0.33000001
5.224 -1.393 -1.671 0.30000001
5.2199998 -1.374 -1.668 0.34
5.2420001 -1.362 -1.674 0.38
5.29 -1.365 -1.6900001 0.34999999
5.309 -1.353 -1.6950001 0.33000001
5.3249998 -1.339 -1.699 0.33000001
5.322 -1.3200001 -1.696 0.33000001
5.3200002 -1.302 -1.694 0.34
5.3239999 -1.285 -1.694 0.34
5.336 -1.27 -1.697 0.38
5.3299999 -1.26 -1.694 0.31
5.3340001 -1.243 -1.694 0.34999999
5.3400002 -1.227 -1.6950001 0.30000001
5.3340001 -1.2079999 -1.692 0.31999999
5.3330002 -1.1900001 -1.6900001 0.20999999
5.349 -1.176 -1.694 0.43000001
5.3509998 -1.159 -1.694 0.30000001
5.362 -1.153 -1.697 0.47999999
5.3660002 -1.136 -1.697 0.31
5.3559999 -1.1160001 -1.692 0.46000001
5.3600001 -1.099 -1.692 0.5
5.369 -1.084 -1.694 0.38
5.3699999 -1.066 -1.694 0.47999999
5.3829999 -1.051 -1.697 0.33000001
5.381 -1.0420001 -1.6950001 0.31999999
5.3839998 -1.025 -1.6950001 0.31
5.3839998 -1.008 -1.694 0.28999999
5.4000001 -0.99299997 -1.699 0.31
5.3920002 -0.97399998 -1.6950001 0.31999999
5.395 -0.95700002 -1.6950001 0.30000001
5.4109998 -0.94199997 -1.699 0.34
5.4070001 -0.93300003 -1.697 0.30000001
5.4060001 -0.91500002 -1.696 0.31
5.4239998 -0.90100002 -1.701 0.30000001
5.4130001 -0.88200003 -1.697 0.31
5.4310002 -0.86699998 -1.702 0.31
5.4320002 -0.85000002 -1.701 0.28
5.4229999 -0.83099997 -1.697 0.28
5.4299998 -0.82300001 -1.699 0.28999999
5.4330001 -0.80599999 -1.699 0.28
5.4219999 -0.787 -1.6950001 0.30000001
5.4299998 -0.77100003 -1.697 0.27000001
5.4330001 -0.75400001 -1.697 0.28
5.4219999 -0.73500001 -1.692 0.27000001
5.4380002 -0.72899997 -1.697 0.27000001
5.4330001 -0.71100003 -1.6950001 0.28999999
5.4390001 -0.69400001 -1.696 0.28999999
5.447 -0.67799997 -1.698 0.28
5.4390001 -0.65899998 -1.6950001 0.27000001
5.4369998 -0.64200002 -1.694 0.27000001
5.441 -0.625 -1.694 0.28999999
5.4460001 -0.61699998 -1.6950001 0.28
5.4460001 -0.59899998 -1.6950001 0.27000001
5.4650002 -0.58399999 -1.701 0.25
5.448 -0.565 -1.694 0.18000001
5.4569998 -0.54900002 -1.697 0.28999999
5.4590001 -0.53100002 -1.697 0.25
5.4640002 -0.51499999 -1.698 0.25999999
5.4590001 -0.50599998 -1.696 0.25999999
5.4629998 -0.48899999 -1.697 0.25999999
5.48 -0.47299999 -1.702 0.23
5.473 -0.45500001 -1.699 0.18000001
5.4749999 -0.43799999 -1.699 0.28999999
5.4720001 -0.41999999 -1.698 0.23999999
5.474 -0.403 -1.698 0.23999999
5.4689999 -0.39399999 -1.696 0.18000001
5.4770002 -0.377 -1.699 0.30000001
5.46 -0.359 -1.692 0.25
5.4699998 -0.34200001 -1.6950001 0.27000001
5.4809999 -0.32600001 -1.699 0.25
5.4629998 -0.30700001 -1.692 0.18000001
5.4819999 -0.30000001 -1.699 0.28999999
5.4619999 -0.28200001 -1.692 0.25
5.4650002 -0.26499999 -1.692 0.27000001
5.4619999 -0.24699999 -1.691 0.27000001
5.4679999 -0.23 -1.693 0.25
5.4650002 -0.213 -1.692 0.28
5.4759998 -0.19599999 -1.6950001 0.27000001
5.474 -0.18700001 -1.694 0.28
5.4689999 -0.17 -1.692 0.25999999
5.4640002 -0.153 -1.6900001 0.27000001
5.4770002 -0.13600001 -1.6950001 0.25999999
5.4699998 -0.119 -1.692 0.30000001
5.467 -0.101 -1.691 0.28
5.467 -0.083999999 -1.691 0.28999999
5.4629998 -0.075999998 -1.6900001 0.28
5.4770002 -0.057999998 -1.694 0.27000001
5.4770002 -0.041000001 -1.694 0.28
5.4710002 -0.024 -1.692 0.28999999
5.4770002 -0.0070000002 -1.694 0.28999999
5.2930002 0.014 -1.682 0
5.2740002 0.030999999 -1.676 0
5.2870002 0.046999998 -1.6799999 0
5.2849998 0.064000003 -1.6799999 0
5.2849998 0.071999997 -1.6799999 0
5.277 0.089000002 -1.677 0
5.2919998 0.105 -1.682 0
5.2859998 0.122 -1.6799999 0
5.2820001 0.138 -1.679 0
5.2849998 0.155 -1.6799999 0
5.2859998 0.17200001 -1.681 0
5.277 0.18000001 -1.678 0
5.2870002 0.197 -1.682 0
5.2810001 0.213 -1.6799999 0
5.2820001 0.23 -1.6799999 0
5.2810001 0.24600001 -1.6799999 0
5.296 0.264 -1.6849999 0
5.2670002 0.27900001 -1.676 0
5.2719998 0.28799999 -1.678 0
5.277 0.30399999 -1.6799999 0
5.2659998 0.31999999 -1.676 0
5.2579999 0.33700001 -1.674 0
5.2600002 0.35299999 -1.675 0
5.2670002 0.37 -1.678 0
5.2540002 0.38600001 -1.674 0
5.2649999 0.39500001 -1.678 0
5.2600002 0.41100001 -1.676 0
5.2550001 0.428 -1.675 0
5.2529998 0.44400001 -1.675 0
5.25 0.46000001 -1.674 0
5.2519999 0.477 -1.676 0
5.2509999 0.49399999 -1.676 0
5.256 0.50300002 -1.678 0
5.2480001 0.51899999 -1.676 0
5.2340002 0.53399998 -1.671 0
5.2389998 0.551 -1.674 0
5.2449999 0.56800002 -1.676 0
5.2449999 0.58499998 -1.677 0
5.2379999 0.60100001 -1.675 0
5.2350001 0.60900003 -1.674 0
5.237 0.62599999 -1.676 0
5.2249999 0.64099997 -1.673 0
5.2350001 0.65899998 -1.676 0
5.2249999 0.67400002 -1.674 0
5.2319999 0.69199997 -1.677 0
5.224 0.699 -1.674 0
5.2080002 0.71399999 -1.67 0
5.2210002 0.73199999 -1.675 0
5.2220001 0.74900001 -1.676 0
5.2129998 0.764 -1.674 0
5.2179999 0.78200001 -1.676 0
5.2129998 0.79799998 -1.676 0
5.2010002 0.80400002 -1.6720001 0
5.204 0.82200003 -1.674 0
5.1989999 0.838 -1.673 0
5.21 0.85600001 -1.678 0
5.198 0.87099999 -1.674 0
5.2020001 0.889 -1.677 0
5.1919999 0.90399998 -1.674 0
5.1890001 0.91100001 -1.674 0
5.178 0.926 -1.671 0
5.1810002 0.94400001 -1.673 0
5.171 0.95899999 -1.671 0
5.171 0.97600001 -1.6720001 0
5.1739998 0.99299997 -1.674 0
5.1560001 1.006 -1.669 0
5.1669998 1.017 -1.673 0
5.1659999 1.033 -1.674 0
5.1760001 1.052 -1.678 0
5.1700001 1.068 -1.678 0
5.1539998 1.082 -1.673 0
5.151 1.098 -1.673 0
5.1440001 1.113 -1.6720001 0
5.1360002 1.12 -1.67 0
5.1339998 1.137 -1.671 0
5.1329999 1.153 -1.671 0
5.1290002 1.169 -1.671 0
5.125 1.1849999 -1.671 0
5.1269999 1.2029999 -1.673 0
5.1090002 1.215 -1.668 0
5.125 1.228 -1.674 0
5.1079998 1.2410001 -1.67 0
5.112 1.2589999 -1.673 0
5.1059999 1.274 -1.6720001 0
5.0929999 1.288 -1.669 0
5.0999999 1.307 -1.673 0
5.0869999 1.312 -1.669 0
5.0949998 1.331 -1.673 0
5.0890002 1.347 -1.673 0
5.085 1.363 -1.673 0
5.0770001 1.378 -1.671 0
5.0749998 1.3940001 -1.6720001 0
5.0630002 1.408 -1.669 0
5.072 1.419 -1.673 0
5.0580001 1.433 -1.67 0
5.0479999 1.447 -1.668 0
5.0489998 1.464 -1.67 0
5.052 1.482 -1.673 0
5.0469999 1.498 -1.673 0
5.046 1.515 -1.674 0
5.0320001 1.52 -1.67 0
5.026 1.535 -1.669 0
5.026 1.552 -1.671 0
5.0229998 1.569 -1.6720001 0
5.0180001 1.584 -1.6720001 0
5.0209999 1.603 -1.674 0
5.0190001 1.619 -1.676 0
5.0040002 1.623 -1.671 0
5.0019999 1.64 -1.673 0
4.9970002 1.656 -1.673 0
4.9920001 1.6720001 -1.673 0
4.9920001 1.689 -1.674 0
4.9710002 1.699 -1.669 0
4.9710002 1.717 -1.671 0
4.9720001 1.726 -1.6720001 0
4.973 1.744 -1.674 0
4.961 1.757 -1.6720001 0
4.9619999 1.775 -1.674 0
4.9499998 1.788 -1.6720001 0
4.9510002 1.806 -1.674 0
4.9330001 1.817 -1.67 0
4.9320002 1.826 -1.671 0
4.9310002 1.8430001 -1.673 0
4.9310002 1.86 -1.674 0
4.9180002 1.873 -1.6720001 0
4.9099998 1.888 -1.671 0
4.9169998 1.908 -1.676 0
4.9120002 1.915 -1.675 0
4.9180002 1.9349999 -1.6799999 0
4.8979998 1.9450001 -1.674 0
4.8920002 1.961 -1.674 0
4.8839998 1.975 -1.674 0
4.888 1.995 -1.678 0
4.8779998 2.0090001 -1.676 0
4.8720002 2.0150001 -1.675 0
4.8720002 2.033 -1.678 0
4.8590002 2.046 -1.675 0
4.8579998 2.063 -1.677 0
4.848 2.0769999 -1.676 0
4.8499999 2.096 -1.679 0
4.836 2.108 -1.676 0
4.8449998 2.1210001 -1.681 0
4.8319998 2.1329999 -1.678 0
4.8280001 2.1500001 -1.6799999 0
4.8249998 2.1670001 -1.681 0
4.7389998 2.1459999 -1.651 0
4.6149998 2.108 -1.607 0
4.5939999 2.1159999 -1.602 0
4.5700002 2.1140001 -1.595 0
4.539 2.1170001 -1.586 0
4.5479999 2.1389999 -1.591 0
4.4619999 2.1159999 -1.562 0.07
4.408 2.108 -1.544 0
4.388 2.115 -1.538 0
4.3569999 2.1170001 -1.529 0
4.3200002 2.108 -1.517 0
4.2820001 2.1059999 -1.505 0
4.257 2.1110001 -1.498 0
4.2399998 2.119 -1.494 0
4.2350001 2.1329999 -1.495 0
4.244 2.154 -1.5 0
4.2249999 2.1530001 -1.495 0
3.9879999 2.243 -1.438 0
3.974 2.2520001 -1.4349999 0
3.9719999 2.267 -1.437 0
3.973 2.2839999 -1.441 0
3.971 2.299 -1.442 0
3.967 2.3139999 -1.444 0
4.263 3.0439999 -1.663 0
4.2870002 3.0810001 -1.678 0
4.2789998 3.096 -1.678 0
4.2729998 3.1110001 -1.6799999 0
4.2750001 3.1229999 -1.683 0
4.2550001 3.1289999 -1.678 0
4.2600002 3.154 -1.6849999 0
4.2459998 3.164 -1.683 0
4.243 3.1830001 -1.686 0
4.2319999 3.1949999 -1.6849999 0
4.2189999 3.2060001 -1.684 0
4.2090001 3.2190001 -1.684 0
4.204 3.2260001 -1.684 0
4.1929998 3.2390001 -1.684 0
4.191 3.2579999 -1.687 0
4.1719999 3.2639999 -1.683 0
4.164 3.279 -1.6849999 0
4.1479998 3.2880001 -1.682 0
4.1459999 3.2969999 -1.683 0
4.1350002 3.3099999 -1.683 0
4.1339998 3.3299999 -1.687 0
4.1230001 3.3429999 -1.687 0
4.1110001 3.3540001 -1.687 0
4.0949998 3.3629999 -1.684 0
4.0890002 3.3789999 -1.686 0
4.086 3.388 -1.687 0
4.079 3.4030001 -1.689 0
4.0609999 3.4100001 -1.6849999 0
4.059 3.4300001 -1.689 0
4.0409999 3.4360001 -1.686 0
4.033 3.4519999 -1.687 0
4.026 3.4679999 -1.689 0
4.026 3.4790001 -1.692 0
4.0050001 3.483 -1.687 0
4.0019999 3.5020001 -1.691 0
3.9860001 3.5109999 -1.689 0
3.9809999 3.5280001 -1.691 0
3.9679999 3.539 -1.691 0
3.97 3.5739999 -1.699 0
3.8369999 3.645 -1.682 0
3.842 3.6730001 -1.6900001 0
3.8180001 3.6730001 -1.684 0
3.8099999 3.688 -1.6849999 0
3.803 3.7049999 -1.688 0
3.7950001 3.7090001 -1.687 0
3.7750001 3.7130001 -1.683 0
3.773 3.734 -1.687 0
3.757 3.7420001 -1.6849999 0
3.74 3.7479999 -1.683 0
3.7279999 3.76 -1.683 0
3.7160001 3.7709999 -1.683 0
3.717 3.7839999 -1.686 0
3.697 3.7880001 -1.682 0
3.6919999 3.806 -1.6849999 0
3.6689999 3.8069999 -1.6799999 0
3.664 3.825 -1.683 0
3.652 3.836 -1.683 0
3.638 3.8340001 -1.6799999 0
3.6289999 3.848 -1.681 0
3.622 3.865 -1.683 0
3.6059999 3.872 -1.682 0
3.586 3.875 -1.678 0
3.5840001 3.898 -1.683 0
3.5680001 3.905 -1.681 0
3.553 3.9130001 -1.6799999 0
3.5480001 3.9200001 -1.6799999 0
3.5380001 3.934 -1.682 0
3.526 3.9449999 -1.682 0
3.507 3.9489999 -1.678 0
3.4979999 3.964 -1.6799999 0
3.4909999 3.9809999 -1.683 0
3.4779999 3.9920001 -1.683 0
3.4760001 4.0019999 -1.6849999 0
3.4560001 4.0040002 -1.681 0
3.441 4.0120001 -1.6799999 0
3.441 4.0370002 -1.686 0
3.4319999 4.052 -1.688 0
3.4030001 4.0440001 -1.6799999 0
3.402 4.0689998 -1.686 0
3.3870001 4.0640001 -1.682 0
3.3659999 4.0650001 -1.677 0
3.362 4.086 -1.682 0
3.3440001 4.0900002 -1.679 0
3.3399999 4.1110001 -1.683 0
3.3210001 4.1139998 -1.6799999 0
3.3169999 4.1220002 -1.682 0
3.3080001 4.1389999 -1.684 0
3.299 4.1529999 -1.686 0
3.2809999 4.158 -1.683 0
3.2679999 4.1680002 -1.683 0
3.256 4.1799998 -1.684 0
3.2520001 4.2020001 -1.689 0
3.2279999 4.1849999 -1.6799999 0
3.223 4.2049999 -1.684 0
3.21 4.2150002 -1.684 0
3.1930001 4.2210002 -1.682 0
3.1789999 4.23 -1.682 0
3.1659999 4.2399998 -1.682 0
3.161 4.2620001 -1.687 0
3.1500001 4.2600002 -1.684 0
3.1370001 4.27 -1.684 0
3.128 4.2859998 -1.687 0
3.109 4.2880001 -1.683 0
3.0899999 4.2909999 -1.6799999 0
3.085 4.3119998 -1.6849999 0
3.069 4.3189998 -1.684 0
3.0699999 4.335 -1.689 0
3.049 4.3330002 -1.684 0
3.039 4.348 -1.686 0
3.0250001 4.3569999 -1.686 0
3.013 4.3699999 -1.687 0
2.997 4.3759999 -1.686 0
2.9860001 4.3889999 -1.687 0
2.9760001 4.3889999 -1.6849999 0
2.961 4.3959999 -1.6849999 0
2.951 4.4120002 -1.687 0
2.941 4.4260001 -1.689 0
2.9289999 4.4380002 -1.691 0
2.9119999 4.4429998 -1.689 0
2.9030001 4.46 -1.692 0
2.8929999 4.46 -1.6900001 0
2.8789999 4.4689999 -1.6900001 0
2.8659999 4.4790001 -1.691 0
2.8540001 4.4910002 -1.692 0
2.842 4.5040002 -1.693 0
2.8440001 4.5380001 -1.7029999 0
2.822 4.5359998 -1.699 0
2.8239999 4.5549998 -1.705 0
2.8 4.5469999 -1.698 0
2.78 4.546 -1.694 0
2.78 4.579 -1.704 0
2.7539999 4.5689998 -1.696 0
2.757 4.6059999 -1.7079999 0
2.7390001 4.6090002 -1.705 0
2.72 4.5929999 -1.698 0
2.7030001 4.5970001 -1.696 0
2.687 4.6040001 -1.6950001 0
2.675 4.6160002 -1.696 0
2.665 4.632 -1.7 0
2.642 4.6259999 -1.694 0
2.632 4.6420002 -1.697 0
2.622 4.6409998 -1.6950001 0
2.615 4.6630001 -1.7 0
2.5940001 4.6939998 -1.706 0
2.5539999 4.6570001 -1.689 0
2.553 4.6900001 -1.698 0
2.5380001 4.697 -1.698 0
2.5250001 4.691 -1.694 0
2.506 4.6919999 -1.691 0
2.5009999 4.7160001 -1.698 0
2.483 4.7189999 -1.696 0
2.471 4.7319999 -1.698 0
2.4590001 4.7470002 -1.7 0
2.437 4.7389998 -1.694 0
2.4319999 4.7480001 -1.696 0
2.4200001 4.7610002 -1.698 0
2.402 4.763 -1.696 0
2.3859999 4.7690001 -1.696 0
2.375 4.783 -1.698 0
2.3599999 4.7909999 -1.698 0
2.3399999 4.79 -1.6950001 0
2.3299999 4.7880001 -1.693 0
2.312 4.789 -1.691 0
2.2449999 4.8429999 -1.698 0
2.2320001 4.835 -1.693 0
2.2179999 4.8429999 -1.694 0
2.2090001 4.8639998 -1.699 0
2.1949999 4.875 -1.7 0
2.177 4.8759999 -1.698 0
2.1619999 4.8829999 -1.698 0
2.148 4.8930001 -1.7 0
2.138 4.8909998 -1.698 0
2.122 4.8959999 -1.697 0
2.1159999 4.9260001 -1.705 0
2.0999999 4.9299998 -1.705 0
2.0829999 4.934 -1.7029999 0
2.073 4.9520001 -1.7079999 0
2.056 4.9549999 -1.707 0
2.049 4.96 -1.707 0
2.0339999 4.9679999 -1.7079999 0
2.0090001 4.9520001 -1.7 0
1.999 4.9720001 -1.705 0
1.9859999 4.9860001 -1.707 0
1.965 4.9780002 -1.702 0
1.952 4.9910002 -1.705 0
1.9450001 4.9959998 -1.705 0
1.9299999 5.0040002 -1.706 0
1.918 5.0180001 -1.709 0
1.9069999 5.0370002 -1.714 0
1.883 5.0229998 -1.707 0
1.873 5.0430002 -1.712 0
1.853 5.039 -1.7079999 0
1.812 5.098 -1.722 0
1.796 5.1040001 -1.722 0
1.7819999 5.1149998 -1.724 0
1.7640001 5.1170001 -1.723 0
1.751 5.105 -1.7180001 0
1.733 5.105 -1.716 0
1.716 5.1069999 -1.714 0
1.699 5.1090002 -1.7130001 0
1.6950001 5.152 -1.727 0
1.677 5.1500001 -1.724 0
1.654 5.1339998 -1.716 0
1.65 5.1490002 -1.721 0
1.6289999 5.1389999 -1.716 0
1.613 5.145 -1.716 0
1.592 5.1370001 -1.711 0
1.5779999 5.1469998 -1.7130001 0
1.562 5.1539998 -1.714 0
1.541 5.1430001 -1.7079999 0
1.5319999 5.1409998 -1.707 0
1.516 5.1479998 -1.707 0
1.502 5.158 -1.709 0
1.487 5.1669998 -1.711 0
1.469 5.1680002 -1.709 0
1.454 5.1739998 -1.71 0
1.434 5.1659999 -1.705 0
1.428 5.1750002 -1.7079999 0
1.4119999 5.1820002 -1.709 0
1.395 5.184 -1.7079999 0
1.378 5.1869998 -1.707 0
1.362 5.1890001 -1.707 0
1.346 5.197 -1.7079999 0
1.332 5.2090001 -1.711 0
1.322 5.2030001 -1.7079999 0
1.303 5.198 -1.705 0
1.2869999 5.2020001 -1.705 0
1.27 5.2049999 -1.704 0
1.256 5.2199998 -1.7079999 0
1.2410001 5.2290001 -1.71 0
1.223 5.2270002 -1.7079999 0
1.2130001 5.2179999 -1.704 0
1.198 5.2280002 -1.706 0
1.182 5.2350001 -1.707 0
1.165 5.2389998 -1.707 0
1.151 5.25 -1.71 0
1.135 5.2550001 -1.711 0
1.1160001 5.2480001 -1.707 0
1.109 5.257 -1.709 0
1.09 5.2470002 -1.705 0
1.075 5.2600002 -1.7079999 0
1.0599999 5.2709999 -1.711 0
1.043 5.2719998 -1.71 0
1.027 5.277 -1.711 0
1.0089999 5.2750001 -1.709 0
1.002 5.2800002 -1.71 0
0.98400003 5.276 -1.707 0
0.97000003 5.296 -1.7130001 0
0.954 5.2989998 -1.7130001 0
0.935 5.2919998 -1.71 0
0.92000002 5.3010001 -1.712 0
0.90100002 5.2940001 -1.709 0
0.89399999 5.303 -1.711 0
0.87699997 5.302 -1.71 0
0.86199999 5.316 -1.714 0
0.84399998 5.3080001 -1.71 0
0.829 5.323 -1.714 0
0.81199998 5.3239999 -1.714 0
0.79500002 5.3249998 -1.7130001 0
0.78799999 5.3330002 -1.716 0
0.77200001 5.3400002 -1.717 0
0.75400001 5.335 -1.714 0
0.73799998 5.3410001 -1.716 0
0.72000003 5.335 -1.7130001 0
0.70300001 5.336 -1.712 0
0.68900001 5.3569999 -1.719 0
0.67900002 5.3470001 -1.715 0
0.66299999 5.3600001 -1.719 0
0.64700001 5.3639998 -1.72 0
0.62900001 5.3600001 -1.7180001 0
0.61400002 5.3769999 -1.723 0
0.597 5.3769999 -1.722 0
0.57999998 5.3790002 -1.722 0
0.57200003 5.3800001 -1.722 0
0.55500001 5.3800001 -1.721 0
0.53799999 5.3870001 -1.723 0
0.52200001 5.3979998 -1.727 0
0.50599998 5.4039998 -1.728 0
0.48800001 5.4000001 -1.726 0
0.472 5.4050002 -1.727 0
0.46399999 5.4190001 -1.732 0
0.447 5.4159999 -1.7309999 0
0.43000001 5.4239998 -1.732 0
0.414 5.4380002 -1.737 0
0.382 5.4650002 -1.745 0
0.36300001 5.4460001 -1.738 0
0.35499999 5.4499998 -1.74 0
0.26899999 5.4419999 -1.735 0
0.25 5.4200001 -1.727 0
0.242 5.4310002 -1.7309999 0
0.226 5.4400001 -1.734 0
0.208 5.4349999 -1.732 0
0.192 5.4429998 -1.734 0
0.17399999 5.4419999 -1.734 0
0.15700001 5.4419999 -1.734 0
0.14 5.427 -1.729 0
0.131 5.4219999 -1.727 0
0.115 5.4369998 -1.732 0
0.097000003 5.4299998 -1.729 0
0.079999998 5.4400001 -1.732 0
0.063000001 5.4380002 -1.732 0
0.046 5.4369998 -1.7309999 0
0.028999999 5.4289999 -1.729 0
0.012 5.441 -1.732 0
0.003 5.4289999 -1.729 0
-0.014 5.4390001 -1.732 0
-0.030999999 5.4289999 -1.729 0
-0.048 5.414 -1.723 0
-0.064999998 5.4359999 -1.7309999 0
-0.082000002 5.427 -1.728 0
-0.098999999 5.4229999 -1.727 0
-0.107 5.4239998 -1.727 0
-0.124 5.4200001 -1.726 0
-0.141 5.4239998 -1.727 0
-0.15800001 5.4190001 -1.726 0
-0.175 5.4039998 -1.721 0
-0.193 5.4219999 -1.727 0
-0.20100001 5.4289999 -1.73 0
-0.21699999 5.402 -1.721 0
-0.235 5.4089999 -1.723 0
-0.252 5.4099998 -1.724 0
-0.26899999 5.4089999 -1.724 0
-0.28600001 5.4219999 -1.729 0
-0.303 5.421 -1.729 0
-0.31999999 5.4120002 -1.726 0
-0.329 5.421 -1.729 0
-0.34599999 5.4130001 -1.727 0
-0.36300001 5.415 -1.728 0
-0.38 5.414 -1.728 0
-0.39700001 5.4200001 -1.7309999 0
-0.41499999 5.4250002 -1.732 0
-0.43200001 5.4310002 -1.735 0
-0.44100001 5.4320002 -1.7359999 0
-0.458 5.4250002 -1.734 0
-0.47499999 5.427 -1.735 0
-0.49200001 5.4219999 -1.734 0
-0.50999999 5.428 -1.7359999 0
-0.52899998 5.4510002 -1.745 0
-0.54400003 5.4299998 -1.738 0
-0.55599999 5.46 -1.749 0
-0.56900001 5.4239998 -1.737 0
-0.59100002 5.4660001 -1.752 0
-0.60699999 5.4520001 -1.748 0
-0.625 5.4580002 -1.75 0
-0.64200002 5.4520001 -1.749 0
-0.65799999 5.4460001 -1.748 0
-0.66399997 5.4250002 -1.7410001 0
-0.68300003 5.4320002 -1.744 0
-0.69999999 5.434 -1.745 0
-0.71899998 5.4439998 -1.75 0
-0.73699999 5.4530001 -1.7539999 0
-0.75400001 5.4489999 -1.753 0
-0.77100003 5.441 -1.751 0
-0.77700001 5.421 -1.745 0
-0.79500002 5.4260001 -1.747 0
-0.81 5.414 -1.744 0
-0.82800001 5.414 -1.745 0
-0.84399998 5.4070001 -1.743 0
-0.86799997 5.4499998 -1.7589999 0
-0.88200003 5.4299998 -1.753 0
-0.89200002 5.4380002 -1.756 0
-0.90899998 5.4289999 -1.7539999 0
-0.926 5.4299998 -1.756 0
-0.94300002 5.4250002 -1.755 0
-0.95499998 5.3909998 -1.744 0
-0.97899997 5.4289999 -1.758 0
-0.995 5.4219999 -1.757 0
-1.005 5.4299998 -1.76 0
-1.022 5.4250002 -1.76 0
-1.0369999 5.4099998 -1.756 0
-1.0549999 5.414 -1.758 0
-1.068 5.3870001 -1.75 0
-1.084 5.3800001 -1.749 0
-1.103 5.3889999 -1.753 0
-1.109 5.375 -1.749 0
-1.128 5.3800001 -1.752 0
-1.145 5.3790002 -1.752 0
-1.161 5.368 -1.75 0
-1.178 5.3660002 -1.75 0
-1.2 5.388 -1.76 0
-1.219 5.3920002 -1.762 0
-1.235 5.382 -1.76 0
-1.245 5.388 -1.763 0
-1.252 5.3429999 -1.749 0
-1.276 5.3699999 -1.76 0
-1.295 5.3740001 -1.762 0
-1.311 5.3639998 -1.76 0
-1.329 5.3660002 -1.762 0
-1.339 5.3340001 -1.752 0
-1.347 5.3299999 -1.752 0
-1.365 5.3309999 -1.7539999 0
-1.381 5.323 -1.752 0
-1.401 5.3319998 -1.757 0
-1.423 5.349 -1.765 0
-1.4400001 5.3460002 -1.765 0
-1.439 5.3060002 -1.752 0
-1.464 5.3319998 -1.763 0
-1.476 5.3130002 -1.758 0
-1.502 5.3410001 -1.7690001 0
-1.508 5.2979999 -1.756 0
-1.531 5.3150001 -1.763 0
-1.5470001 5.3070002 -1.762 0
-1.557 5.3099999 -1.7640001 0
-1.574 5.3070002 -1.765 0
-1.592 5.3049998 -1.766 0
-1.599 5.27 -1.755 0
-1.614 5.2610002 -1.7539999 0
-1.632 5.2589998 -1.755 0
-1.65 5.2600002 -1.757 0
-1.668 5.2579999 -1.758 0
-1.677 5.2589998 -1.76 0
-1.693 5.25 -1.758 0
-1.707 5.2389998 -1.756 0.029999999
-1.724 5.2340002 -1.756 0.029999999
-1.743 5.2379999 -1.76 0.039999999
-1.757 5.223 -1.756 0.039999999
-1.779 5.2340002 -1.762 0.07
-1.786 5.2270002 -1.761 0.039999999
-1.804 5.2270002 -1.763 0.07
-1.818 5.2160001 -1.761 0.039999999
-1.835 5.2119999 -1.761 0
-1.849 5.1989999 -1.7589999 0
-1.87 5.2059999 -1.763 0
-1.886 5.1999998 -1.763 0
-1.8890001 5.1830001 -1.758 0.029999999
-1.909 5.1859999 -1.761 0.029999999
-1.929 5.1900001 -1.765 0
-1.9529999 5.204 -1.772 0
-1.96 5.1729999 -1.763 0
-1.977 5.1700001 -1.765 0
-1.9910001 5.1570001 -1.762 0
-1.998 5.152 -1.761 0
-2.0150001 5.1469998 -1.762 0
-2.0309999 5.1409998 -1.762 0
-2.05 5.1420002 -1.765 0
-2.0639999 5.1300001 -1.763 0
-2.0769999 5.1149998 -1.76 0
-2.0929999 5.1079998 -1.76 0
-2.1010001 5.105 -1.76 0
-2.118 5.1020002 -1.761 0
-2.135 5.0970001 -1.761 0
-2.152 5.0929999 -1.763 0
-2.1670001 5.0830002 -1.761 0
-2.181 5.0710001 -1.76 0
-2.2 5.073 -1.763 0
-2.2049999 5.0609999 -1.76 0
-2.2219999 5.0570002 -1.761 0
-2.2420001 5.0609999 -1.765 0
-2.257 5.0500002 -1.763 0
-2.27 5.0380001 -1.761 0
-2.2850001 5.027 -1.76 0
-2.3050001 5.0300002 -1.7640001 0
-2.3180001 5.0159998 -1.761 0
-2.3310001 5.0250001 -1.766 0
-2.342 5.007 -1.762 0
-2.359 5.0009999 -1.763 0
-2.391 5.0300002 -1.776 0
-2.391 4.9879999 -1.763 0
-2.4070001 4.9819999 -1.7640001 0
-2.415 4.9780002 -1.7640001 0
-2.4460001 5.0029998 -1.776 0
-2.444 4.9580002 -1.762 0
-2.4630001 4.9569998 -1.765 0.029999999
-2.4779999 4.9489999 -1.765 0.029999999
-2.497 4.948 -1.767 0
-2.517 4.9489999 -1.77 0
-2.5190001 4.9330001 -1.766 0
-2.5409999 4.9390001 -1.771 0.07
-2.5569999 4.9310002 -1.771 0.039999999
-2.5669999 4.9130001 -1.767 0
-2.5840001 4.908 -1.7690001 0
-2.6099999 4.9200001 -1.776 0
-2.6259999 4.9130001 -1.777 0
-2.6329999 4.888 -1.77 0
-2.6570001 4.914 -1.7819999 0
-2.6689999 4.901 -1.78 0
-2.671 4.8670001 -1.77 0
-2.7049999 4.8920002 -1.783 0
-2.7130001 4.8699999 -1.778 0
-2.7130001 4.835 -1.768 0
-2.743 4.8530002 -1.778 0
-2.7420001 4.8330002 -1.772 0
-2.7620001 4.8340001 -1.776 0.029999999
-2.7750001 4.8200002 -1.774 0.029999999
-2.8039999 4.836 -1.783 0
-2.799 4.7930002 -1.77 0
-2.819 4.7919998 -1.773 0
-2.829 4.7750001 -1.77 0
-2.858 4.8070002 -1.784 0
-2.8610001 4.776 -1.776 0
-2.875 4.7659998 -1.775 0
-2.8889999 4.7550001 -1.774 0
-2.905 4.7490001 -1.776 0
-2.9319999 4.7589998 -1.783 0
-2.95 4.7550001 -1.785 0
-2.9590001 4.7519999 -1.786 0
-2.964 4.7280002 -1.78 0
-2.9679999 4.7010002 -1.773 0
-3.003 4.724 -1.786 0
-3.0009999 4.6869998 -1.775 0
-3.0190001 4.6830001 -1.777 0.029999999
-3.0339999 4.6750002 -1.778 0.029999999
-3.0380001 4.664 -1.775 0.029999999
-3.056 4.6599998 -1.778 0.029999999
-3.0810001 4.6669998 -1.784 0.07
-3.089 4.6459999 -1.779 0.039999999
-3.105 4.6389999 -1.781 0
-3.1070001 4.6110001 -1.773 0
-3.1300001 4.6129999 -1.778 0
-3.1370001 4.6079998 -1.778 0
-3.138 4.5780001 -1.77 0
-3.1500001 4.5650001 -1.7690001 0
-3.188 4.5900002 -1.783 0
-3.1860001 4.5560002 -1.773 0
-3.194 4.5370002 -1.7690001 0
-3.2130001 4.533 -1.772 0
-3.2349999 4.5500002 -1.781 0
-3.2460001 4.5349998 -1.779 0
-3.2490001 4.5089998 -1.772 0
-3.2639999 4.4990001 -1.772 0
-3.2750001 4.4860001 -1.771 0
-3.3 4.4889998 -1.777 0.050000001
-3.3139999 4.4790001 -1.777 0.14
-3.3239999 4.4780002 -1.779 0.039999999
-3.346 4.4780002 -1.783 0.039999999
-3.3699999 4.4809999 -1.789 0.07
-3.385 4.4720001 -1.79 0.039999999
-3.4059999 4.4710002 -1.794 0.07
-3.427 4.4689999 -1.798 0.15000001
-3.441 4.4580002 -1.798 0.16
-3.447 4.4510002 -1.7970001 0.039999999
-3.4560001 4.434 -1.794 0
-3.4890001 4.447 -1.8049999 0
-3.484 4.4130001 -1.794 0
-3.5 4.4050002 -1.796 0
-3.5109999 4.3889999 -1.794 0
-3.53 4.3850002 -1.7970001 0
-3.5339999 4.3759999 -1.795 0
-3.5510001 4.369 -1.7970001 0
-3.566 4.3590002 -1.798 0
-3.572 4.3390002 -1.794 0
-3.5880001 4.3309999 -1.795 0
-3.6240001 4.3460002 -1.807 0
-3.6400001 4.3369999 -1.808 0
-3.6289999 4.2969999 -1.795 0
-3.665 4.3260002 -1.8099999 0
-3.658 4.29 -1.799 0
-3.664 4.27 -1.796 0
-3.677 4.2579999 -1.796 0
-3.6919999 4.2480001 -1.796 0
-3.7030001 4.2329998 -1.795 0
-3.7190001 4.2249999 -1.796 0
-3.7190001 4.2119999 -1.793 0
-3.743 4.2129998 -1.799 0
-3.7539999 4.198 -1.798 0
-3.7650001 4.1830001 -1.796 0
-3.7690001 4.1620002 -1.7920001 0
-3.7780001 4.1459999 -1.79 0
-3.7980001 4.1409998 -1.793 0
-3.802 4.132 -1.7920001 0
-3.8180001 4.1240001 -1.794 0
-3.8329999 4.1139998 -1.794 0
-3.8469999 4.1030002 -1.795 0
-3.852 4.0830002 -1.791 0
-3.8699999 4.0760002 -1.794 0
-3.8870001 4.0679998 -1.796 0
-3.8859999 4.0549998 -1.7920001 0
-3.902 4.0450001 -1.794 0
-3.9159999 4.0339999 -1.794 0
-3.9260001 4.0190001 -1.793 0
-3.944 4.013 -1.796 0
-3.9549999 3.9990001 -1.795 0
-3.96 3.9779999 -1.791 0
-3.9749999 3.9809999 -1.796 0
-3.9890001 3.97 -1.796 0
-3.9909999 3.947 -1.791 0
-4.006 3.937 -1.7920001 0
-4.0170002 3.9230001 -1.7920001 0
-4.0339999 3.9159999 -1.794 0
-4.0409999 3.898 -1.7920001 0
-4.0469999 3.892 -1.7920001 0
-4.0599999 3.8789999 -1.7920001 0
-4.0749998 3.869 -1.793 0
-4.0830002 3.852 -1.791 0
-4.1059999 3.849 -1.796 0
-4.1149998 3.8340001 -1.795 0
-4.1170001 3.812 -1.79 0
-4.132 3.813 -1.794 0
-4.1479998 3.8039999 -1.796 0
-4.1529999 3.7850001 -1.793 0
-4.165 3.7720001 -1.793 0
-4.1820002 3.7639999 -1.796 0
-4.1950002 3.7520001 -1.796 0
-4.1999998 3.7320001 -1.793 0
-4.211 3.7309999 -1.796 0
-4.2270002 3.721 -1.798 0
-4.2319999 3.7019999 -1.794 0
-4.2410002 3.6860001 -1.793 0
-4.2490001 3.6700001 -1.7920001 0
-4.2670002 3.6619999 -1.794 0
-4.2800002 3.6489999 -1.795 0
-4.2820001 3.6400001 -1.794 0
-4.2979999 3.6300001 -1.796 0
-4.3109999 3.618 -1.796 0
-4.3239999 3.6059999 -1.7970001 0
-4.323 3.582 -1.7920001 0
-4.3400002 3.5739999 -1.794 0
-4.3499999 3.559 -1.794 0
-4.3569999 3.553 -1.794 0
-4.3740001 3.5439999 -1.7970001 0
-4.382 3.5280001 -1.796 0
-4.3889999 3.5109999 -1.794 0
-4.3990002 3.4960001 -1.793 0
-4.4099998 3.4820001 -1.793 0
-4.4260001 3.473 -1.796 0
-4.441 3.473 -1.799 0
-4.4369998 3.447 -1.793 0
-4.4510002 3.4360001 -1.794 0
-4.461 3.4219999 -1.794 0
-4.4710002 3.4059999 -1.794 0
-4.4809999 3.392 -1.794 0
-4.4980001 3.3829999 -1.796 0
-4.493 3.368 -1.7920001 0
-4.5050001 3.355 -1.7920001 0
-4.5139999 3.339 -1.7920001 0
-4.526 3.326 -1.7920001 0
-4.5349998 3.3110001 -1.7920001 0
-4.5479999 3.299 -1.793 0
-4.5570002 3.2839999 -1.7920001 0
-4.5609999 3.2750001 -1.7920001 0
-4.5749998 3.2639999 -1.794 0
-4.5780001 3.244 -1.79 0
-4.599 3.2379999 -1.795 0
-4.6090002 3.223 -1.795 0
-4.6129999 3.204 -1.7920001 0
-4.6209998 3.1889999 -1.7920001 0
-4.631 3.1849999 -1.794 0
-4.6360002 3.1670001 -1.7920001 0
-4.6479998 3.1530001 -1.7920001 0
-4.6529999 3.1359999 -1.79 0
-4.6739998 3.128 -1.795 0
-4.684 3.1140001 -1.795 0
-4.6890001 3.096 -1.793 0
-4.697 3.0910001 -1.794 0
-4.7049999 3.075 -1.794 0
-4.711 3.0580001 -1.7920001 0
-4.7189999 3.0420001 -1.7920001 0
-4.7179999 3.02 -1.7869999 0
-4.737 3.0109999 -1.791 0
-4.7509999 2.9990001 -1.793 0
-4.757 2.993 -1.794 0
-4.757 2.9719999 -1.79 0
-4.7740002 2.9619999 -1.793 0
-4.777 2.9430001 -1.79 0
-4.7779999 2.9230001 -1.7869999 0
-4.7789998 2.9030001 -1.784 0
-4.8099999 2.901 -1.7920001 0
-4.8130002 2.892 -1.7920001 0
-4.8200002 2.8759999 -1.791 0
-4.8210001 2.8559999 -1.788 0
-4.835 2.8440001 -1.79 0
-4.8439999 2.829 -1.79 0
-4.849 2.8110001 -1.789 0
-4.855 2.7939999 -1.7869999 0
-4.8720002 2.7939999 -1.7920001 0
-4.8740001 2.7750001 -1.79 0
-4.8860002 2.7620001 -1.791 0
-4.8870001 2.7420001 -1.788 0
-4.902 2.73 -1.79 0
-4.9070001 2.7130001 -1.789 0
-4.9190001 2.6989999 -1.79 0
-4.9120002 2.6849999 -1.786 0
-4.9180002 2.6689999 -1.785 0
-4.9330001 2.6570001 -1.788 0
-4.9369998 2.6389999 -1.786 0
-4.947 2.6240001 -1.7869999 0
-4.9679999 2.6159999 -1.7920001 0
-4.9629998 2.5929999 -1.7869999 0
-4.96 2.582 -1.784 0
-4.974 2.569 -1.786 0
-4.9899998 2.5569999 -1.789 0
-4.9829998 2.5339999 -1.783 0
-5.0180001 2.5320001 -1.794 0
-5.0089998 2.5079999 -1.7869999 0
-5.0149999 2.4909999 -1.7869999 0
-5.0139999 2.4809999 -1.785 0
-5.0279999 2.4679999 -1.7869999 0
-5.033 2.451 -1.786 0
-5.0570002 2.4430001 -1.7920001 0
-5.053 2.4219999 -1.788 0
-5.0539999 2.402 -1.785 0
-5.0669999 2.3889999 -1.7869999 0
-5.0749998 2.3829999 -1.789 0
-5.0739999 2.3629999 -1.786 0
-5.0949998 2.3540001 -1.791 0
-5.1030002 2.3380001 -1.791 0
-5.1020002 2.3180001 -1.788 0
-5.1110001 2.303 -1.789 0
-5.119 2.2869999 -1.789 0
-5.1230001 2.279 -1.789 0
-5.1160002 2.257 -1.784 0
-5.1389999 2.2479999 -1.79 0
-5.1409998 2.2290001 -1.788 0
-5.1440001 2.2119999 -1.7869999 0
-5.1529999 2.1960001 -1.7869999 0
-5.1620002 2.181 -1.788 0
-5.1669998 2.1730001 -1.789 0
-5.177 2.1589999 -1.79 0
-5.1859999 2.1429999 -1.79 0
-5.1849999 2.1240001 -1.788 0
-5.1869998 2.105 -1.786 0
-5.2059999 2.0940001 -1.79 0
-5.2189999 2.0899999 -1.794 0
-5.3699999 1.62 -1.79 0
-5.3530002 1.596 -1.7819999 0
-5.3709998 1.5829999 -1.7869999 0
-5.3600001 1.562 -1.781 0
-5.3629999 1.544 -1.78 0
-5.375 1.529 -1.783 0
-5.3660002 1.518 -1.779 0
-5.3779998 1.503 -1.781 0
-5.381 1.4859999 -1.781 0
-5.3860002 1.469 -1.781 0
-5.3899999 1.452 -1.781 0
-5.4060001 1.438 -1.785 0
-5.4159999 1.4220001 -1.7869999 0
-5.4070001 1.411 -1.783 0
-5.4239998 1.397 -1.7869999 0
-5.421 1.378 -1.785 0
-5.4260001 1.3609999 -1.785 0
-5.4450002 1.348 -1.79 0
-5.4489999 1.331 -1.79 0
-5.4380002 1.3099999 -1.785 0
-5.4510002 1.304 -1.789 0
-5.4429998 1.284 -1.784 0
-5.467 1.272 -1.791 0
-5.467 1.2539999 -1.79 0
-5.4689999 1.2359999 -1.789 0
-5.4689999 1.2180001 -1.788 0
-5.4879999 1.204 -1.793 0
-5.4860001 1.1950001 -1.7920001 0
-5.4840002 1.176 -1.79 0
-5.4920001 1.16 -1.791 0
-5.4899998 1.141 -1.789 0
-5.493 1.124 -1.789 0
-5.5019999 1.108 -1.791 0
-5.506 1.091 -1.791 0
-5.513 1.0829999 -1.793 0
-5.513 1.0650001 -1.7920001 0
-5.5029998 1.045 -1.7869999 0
-5.5229998 1.031 -1.793 0
-5.5240002 1.013 -1.7920001 0
-5.52 0.995 -1.79 0
-5.52 0.977 -1.789 0
-5.5359998 0.97100002 -1.794 0
-5.533 0.95200002 -1.7920001 0
-5.533 0.93400002 -1.79 0
-5.5430002 0.91799998 -1.793 0
-5.5419998 0.89999998 -1.7920001 0
-5.5580001 0.88499999 -1.796 0
-5.5479999 0.86500001 -1.7920001 0
-5.5549998 0.85699999 -1.794 0
-5.5630002 0.84100002 -1.796 0
-5.5640001 0.82300001 -1.795 0
-5.5679998 0.80599999 -1.796 0
-5.572 0.78899997 -1.796 0
-5.573 0.77100003 -1.796 0
-5.5739999 0.75300002 -1.795 0
-5.5689998 0.74400002 -1.793 0
-5.586 0.72799999 -1.798 0
-5.5739999 0.70899999 -1.793 0
-5.5890002 0.69300002 -1.798 0
-5.5929999 0.67500001 -1.798 0
-5.5910001 0.65700001 -1.7970001 0
-5.605 0.64099997 -1.801 0
-5.6059999 0.63200003 -1.801 0
-5.5869999 0.61199999 -1.794 0
-5.6020002 0.59600002 -1.798 0
-5.598 0.57800001 -1.796 0
-5.6040001 0.56099999 -1.798 0
-5.6110001 0.54400003 -1.799 0
-5.6129999 0.52600002 -1.799 0
-5.612 0.51700002 -1.799 0
-5.619 0.5 -1.801 0
-5.6220002 0.48300001 -1.801 0
-5.6259999 0.465 -1.802 0
-5.618 0.447 -1.799 0
-5.625 0.42899999 -1.801 0
-5.6259999 0.412 -1.801 0
-5.6459999 0.40400001 -1.807 0
-5.632 0.38600001 -1.802 0
-5.6160002 0.36700001 -1.796 0
-5.625 0.34999999 -1.799 0
-5.6430001 0.333 -1.8049999 0
-5.6350002 0.29699999 -1.801 0
-5.6719999 0.237 -1.813 0
-5.6570001 0.2 -1.807 0
-5.671 0.183 -1.812 0
-5.6729999 0.16500001 -1.812 0
-5.6750002 0.147 -1.813 0
-5.6659999 0.12899999 -1.8099999 0
-5.6760001 0.112 -1.813 0
-5.6609998 0.102 -1.808 0
-5.6669998 0.085000001 -1.8099999 0
-5.6830001 0.067000002 -1.8150001 0
-5.677 0.048999999 -1.813 0
-5.6789999 0.032000002 -1.814 0
-5.6719999 0.014 -1.811 0
-5.6659999 -0.0040000002 -1.809 0
-5.6719999 -0.013 -1.811 0
-5.6830001 -0.030999999 -1.8150001 0
-5.6620002 -0.048999999 -1.808 0
-5.6669998 -0.067000002 -1.8099999 0
-5.6669998 -0.083999999 -1.8099999 0
-5.6760001 -0.102 -1.813 0
-5.678 -0.111 -1.814 0
-5.6760001 -0.12899999 -1.813 0
-5.6680002 -0.147 -1.8099999 0
-5.6810002 -0.16500001 -1.8150001 0
-5.6760001 -0.183 -1.814 0
-5.677 -0.2 -1.814 0
-5.6729999 -0.21799999 -1.813 0
-5.6820002 -0.227 -1.816 0
-5.6700001 -0.245 -1.812 0
-5.665 -0.26199999 -1.811 0
-5.6719999 -0.28099999 -1.814 0
-5.6599998 -0.29800001 -1.8099999 0
-5.6669998 -0.31600001 -1.812 0
-5.6659999 -0.33399999 -1.812 0
-5.6760001 -0.34299999 -1.816 0
-5.6680002 -0.361 -1.814 0
-5.678 -0.37900001 -1.818 0
-5.6669998 -0.396 -1.814 0
-5.6719999 -0.41499999 -1.816 0
-5.6719999 -0.433 -1.817 0
-5.6609998 -0.44999999 -1.814 0
-5.6739998 -0.46000001 -1.818 0
-5.6570001 -0.47600001 -1.813 0
-5.6589999 -0.49399999 -1.814 0
-5.6620002 -0.51200002 -1.816 0
-5.6680002 -0.53100002 -1.818 0
-5.664 -0.54900002 -1.818 0
-5.6789999 -0.56800002 -1.823 0
-5.6760001 -0.58600003 -1.823 0
-5.6630001 -0.59299999 -1.819 0
-5.6560001 -0.611 -1.817 0
-5.6630001 -0.62900001 -1.8200001 0
-5.6539998 -0.64600003 -1.818 0
-5.6399999 -0.66299999 -1.814 0
-5.6659999 -0.68400002 -1.823 0
-5.6700001 -0.70200002 -1.825 0
-5.652 -0.70899999 -1.819 0
-5.651 -0.727 -1.8200001 0
-5.6550002 -0.80000001 -1.825 0
-5.6160002 -0.89399999 -1.816 0
-5.585 -0.90700001 -1.807 0
-5.579 -1.05 -1.813 0
-5.5809999 -1.069 -1.8150001 0
-5.5739999 -1.086 -1.814 0
-5.5599999 -1.101 -1.8099999 0
-5.5689998 -1.1210001 -1.814 0
-5.5689998 -1.1390001 -1.816 0
-5.54 -1.143 -1.806 0
-5.553 -1.163 -1.812 0.059999999
-5.5489998 -1.181 -1.812 0.17
-5.5419998 -1.197 -1.8099999 0.050000001
-5.5440001 -1.216 -1.812 0.17
-5.5229998 -1.23 -1.807 0.050000001
-5.5279999 -1.249 -1.8099999 0.16
-5.5300002 -1.268 -1.812 0.19
-5.5170002 -1.274 -1.808 0.1
-5.546 -1.299 -1.819 0
-5.5240002 -1.312 -1.813 0
-5.4970002 -1.324 -1.8049999 0
-5.4949999 -1.342 -1.806 0.029999999
-5.4889998 -1.359 -1.8049999 0.029999999
-5.4920001 -1.369 -1.807 0.029999999
-5.4879999 -1.386 -1.807 0.039999999
-5.4819999 -1.403 -1.807 0.039999999
-5.5009999 -1.426 -1.8150001 0
-5.454 -1.432 -1.8 0
-5.4460001 -1.449 -1.799 0
-5.4489999 -1.4680001 -1.801 0
-5.4559999 -1.479 -1.8049999 0
-5.447 -1.495 -1.803 0
-5.263 -1.918 -1.7869999 0
-5.2410002 -1.929 -1.781 0
-5.2309999 -1.944 -1.78 0
-5.2160001 -1.957 -1.777 0
-5.2150002 -1.976 -1.779 0
-5.211 -1.993 -1.779 0
-5.2020001 -1.999 -1.778 0
-5.1999998 -2.016 -1.779 0
-5.1900001 -2.0309999 -1.778 0
-5.1729999 -2.0439999 -1.774 0
-5.1789999 -2.0650001 -1.778 0
-5.1739998 -2.082 -1.779 0
-5.1669998 -2.098 -1.779 0
-5.152 -2.1010001 -1.774 0
-5.1500001 -2.119 -1.776 0
-5.145 -2.1359999 -1.777 0
-5.1370001 -2.152 -1.776 0
-5.1279998 -2.1670001 -1.776 0
-5.1269999 -2.1849999 -1.778 0
-5.1220002 -2.2019999 -1.778 0
-5.1149998 -2.2090001 -1.777 0
-5.099 -2.221 -1.774 0
-5.099 -2.24 -1.776 0
-5.0939999 -2.257 -1.777 0
-5.0830002 -2.2709999 -1.776 0
-5.0809999 -2.29 -1.778 0
-5.0700002 -2.3039999 -1.776 0
-5.0580001 -2.3080001 -1.773 0
-5.066 -2.3310001 -1.779 0
-5.052 -2.3440001 -1.776 0
-5.04 -2.3570001 -1.774 0
-5.0300002 -2.372 -1.774 0
-5.0279999 -2.3900001 -1.776 0
-5.0209999 -2.4059999 -1.776 0
-5.0120001 -2.4119999 -1.774 0
-5.007 -2.4289999 -1.775 0
-5.0019999 -2.4460001 -1.776 0
-4.9899998 -2.46 -1.774 0
-4.9829998 -2.4749999 -1.774 0
-4.98 -2.493 -1.776 0
-4.9720001 -2.5090001 -1.776 0
-4.96 -2.513 -1.773 0
-4.9590001 -2.5320001 -1.776 0
-4.9520001 -2.5480001 -1.776 0
-4.9489999 -2.566 -1.778 0
-4.9390001 -2.5810001 -1.778 0
-4.921 -2.5910001 -1.774 0
-4.9109998 -2.6059999 -1.773 0
-4.914 -2.6170001 -1.776 0
-4.9180002 -2.6389999 -1.78 0
-4.8959999 -2.6470001 -1.775 0
-4.8940001 -2.6659999 -1.778 0
-4.8790002 -2.678 -1.775 0
-4.869 -2.6919999 -1.774 0
-4.8569999 -2.7049999 -1.773 0
-4.8559999 -2.7149999 -1.774 0
-4.8429999 -2.727 -1.772 0
-4.8439999 -2.7479999 -1.776 0
-4.835 -2.763 -1.776 0
-4.823 -2.777 -1.775 0
-4.8179998 -2.7939999 -1.776 0
-4.8060002 -2.8069999 -1.775 0
-4.8010001 -2.8139999 -1.775 0
-4.789 -2.8280001 -1.774 0
-4.789 -2.8469999 -1.777 0
-4.7680001 -2.8559999 -1.772 0
-4.7659998 -2.875 -1.775 0
-4.7579999 -2.8900001 -1.776 0
-4.7480001 -2.904 -1.775 0
-4.7399998 -2.9100001 -1.774 0
-4.7389998 -2.9300001 -1.777 0
-4.7309999 -2.9460001 -1.778 0
-4.7199998 -2.9590001 -1.777 0
-4.7119999 -2.9749999 -1.778 0
-4.7059999 -2.9920001 -1.779 0
-4.7080002 -3.0139999 -1.783 0
-4.6999998 -3.0190001 -1.7819999 0
-4.6869998 -3.0320001 -1.781 0
-4.6750002 -3.0450001 -1.779 0
-4.6729999 -3.0650001 -1.783 0
-4.6620002 -3.0780001 -1.7819999 0
-4.658 -3.0969999 -1.785 0
-4.6550002 -3.1159999 -1.7869999 0
-4.6279998 -3.108 -1.778 0
-4.618 -3.1229999 -1.778 0
-4.6370001 -3.1559999 -1.79 0
-4.5500002 -3.322 -1.798 0
-4.3530002 -3.5380001 -1.79 0
-4.3390002 -3.549 -1.789 0
-4.335 -3.569 -1.7920001 0
-4.323 -3.582 -1.7920001 0
-4.3470001 -3.6129999 -1.8049999 0
-4.2360001 -3.6359999 -1.781 0
-4.2340002 -3.6559999 -1.785 0
-4.2259998 -3.6619999 -1.784 0
-4.2010002 -3.6630001 -1.778 0
-4.198 -3.6830001 -1.781 0
-4.1919999 -3.701 -1.784 0
-4.1620002 -3.698 -1.776 0
-4.1599998 -3.72 -1.78 0
-4.152 -3.737 -1.7819999 0
-4.1490002 -3.7460001 -1.783 0
-4.132 -3.7539999 -1.781 0
-4.1129999 -3.7609999 -1.778 0
-4.1149998 -3.786 -1.784 0
-4.0819998 -3.78 -1.774 0
-4.079 -3.8 -1.778 0
-4.0780001 -3.8239999 -1.783 0
-4.0539999 -3.813 -1.775 0
-4.052 -3.835 -1.779 0
-4.0339999 -3.8429999 -1.777 0
-4.0209999 -3.8540001 -1.776 0
-4.0240002 -3.881 -1.783 0
-4.0180001 -3.9000001 -1.7869999 0
-3.993 -3.888 -1.778 0
-3.9860001 -3.9059999 -1.78 0
-3.974 -3.918 -1.78 0
-3.961 -3.931 -1.78 0
-3.944 -3.938 -1.778 0
-3.9289999 -3.948 -1.776 0
-3.9119999 -3.9560001 -1.774 0
-3.898 -3.954 -1.77 0
-3.8940001 -3.974 -1.774 0
-3.869 -3.974 -1.7690001 0
-3.859 -3.9890001 -1.77 0
-3.849 -4.0040002 -1.771 0
-3.835 -4.0149999 -1.77 0
-3.8210001 -4.0250001 -1.77 0
-3.8099999 -4.026 -1.767 0
-3.7969999 -4.0380001 -1.767 0
-3.783 -4.0479999 -1.767 0
-3.7809999 -4.0710001 -1.772 0
-3.7590001 -4.073 -1.767 0
-3.744 -4.0819998 -1.766 0
-3.7349999 -4.098 -1.768 0
-3.7219999 -4.1100001 -1.768 0
-3.717 -4.1170001 -1.7690001 0
-3.707 -4.1329999 -1.77 0
-3.697 -4.1479998 -1.772 0
-3.6830001 -4.158 -1.771 0
-3.6630001 -4.1620002 -1.768 0
-3.651 -4.1750002 -1.7690001 0
-3.6329999 -4.1810002 -1.766 0
-3.6289999 -4.1890001 -1.767 0
-3.6229999 -4.2090001 -1.771 0
-3.605 -4.2150002 -1.7690001 0
-3.596 -4.2309999 -1.77 0
-3.5810001 -4.2399998 -1.77 0
-3.5639999 -4.2470002 -1.768 0
-3.5539999 -4.263 -1.77 0
-3.5450001 -4.2659998 -1.7690001 0
-3.543 -4.29 -1.774 0
-3.5380001 -4.3109999 -1.779 0
-3.507 -4.329 -1.777 0
-3.4219999 -4.348 -1.7640001 0
-3.4219999 -4.3769999 -1.772 0
-3.4070001 -4.3860002 -1.771 0
-3.3870001 -4.388 -1.767 0
-3.382 -4.3959999 -1.7690001 0
-3.3710001 -4.4099998 -1.77 0
-3.3540001 -4.4169998 -1.7690001 0
-3.335 -4.4200001 -1.765 0
-3.316 -4.4250002 -1.763 0
-3.3069999 -4.441 -1.765 0
-3.2920001 -4.4499998 -1.765 0
-3.2869999 -4.4580002 -1.766 0
-3.2709999 -4.4660001 -1.765 0
-3.2550001 -4.473 -1.763 0
-3.2390001 -4.4809999 -1.763 0
-3.227 -4.4949999 -1.7640001 0
-3.2160001 -4.5079999 -1.765 0
-3.198 -4.513 -1.763 0
-3.1930001 -4.5209999 -1.765 0
-3.1830001 -4.5380001 -1.767 0
-3.164 -4.54 -1.7640001 0
-3.1470001 -4.5469999 -1.763 0
-3.1289999 -4.5500002 -1.76 0
-3.119 -4.566 -1.763 0
-3.1040001 -4.5760002 -1.763 0
-3.1010001 -4.5869999 -1.765 0
-3.086 -4.5949998 -1.765 0
-3.076 -4.6110001 -1.767 0
-3.049 -4.6040001 -1.76 0
-3.0380001 -4.618 -1.762 0
-3.026 -4.631 -1.763 0
-3.007 -4.6339998 -1.761 0
-2.9960001 -4.632 -1.758 0
-2.9849999 -4.6479998 -1.761 0
-2.9760001 -4.665 -1.7640001 0
-2.9590001 -4.671 -1.763 0
-2.941 -4.6760001 -1.761 0
-2.9230001 -4.6799998 -1.7589999 0
-2.9089999 -4.6890001 -1.7589999 0
-2.911 -4.71 -1.765 0
-2.8929999 -4.7129998 -1.763 0
-2.881 -4.7270002 -1.765 0
-2.8599999 -4.7259998 -1.761 0
-2.8410001 -4.7280002 -1.758 0
-2.8239999 -4.7340002 -1.757 0
-2.8169999 -4.756 -1.762 0
-2.8069999 -4.7550001 -1.76 0
-2.7920001 -4.7639999 -1.76 0
-2.7720001 -4.7649999 -1.757 0
-2.766 -4.7880001 -1.763 0
-2.747 -4.79 -1.76 0
-2.7260001 -4.789 -1.756 0
-2.721 -4.816 -1.763 0
-2.704 -4.8039999 -1.757 0
-2.6930001 -4.8189998 -1.76 0
-2.6819999 -4.8340001 -1.762 0
-2.6559999 -4.8239999 -1.755 0
-2.6440001 -4.8369999 -1.757 0
-2.6300001 -4.849 -1.758 0
-2.6129999 -4.8520002 -1.756 0
-2.6070001 -4.8590002 -1.758 0
-2.5969999 -4.8779998 -1.761 0
-2.5780001 -4.8790002 -1.7589999 0
-2.5639999 -4.8899999 -1.76 0
-2.5469999 -4.895 -1.7589999 0
-2.5409999 -4.9200001 -1.765 0
-2.517 -4.9130001 -1.76 0
-2.5120001 -4.9219999 -1.761 0
-2.5 -4.9359999 -1.7640001 0
-2.4860001 -4.948 -1.765 0
-2.473 -4.96 -1.767 0
-2.4590001 -4.9699998 -1.768 0
-2.4389999 -4.9689999 -1.765 0
-2.4260001 -4.9819999 -1.767 0
-2.414 -4.9790001 -1.7640001 0
-2.395 -4.9780002 -1.761 0
-2.3729999 -4.973 -1.756 0
-2.3599999 -4.9860001 -1.758 0
-2.3399999 -4.9850001 -1.755 0
-2.322 -4.987 -1.753 0
-2.326 -5.0159998 -1.763 0
-2.3 -5.0009999 -1.7539999 0
-2.2909999 -5.0219998 -1.76 0
-2.27 -5.0170002 -1.755 0
-2.2550001 -5.0279999 -1.756 0
-2.2360001 -5.026 -1.753 0
-2.221 -5.0370002 -1.7539999 0
-2.217 -5.0489998 -1.758 0
-2.198 -5.0469999 -1.7539999 0
-2.1830001 -5.0560002 -1.755 0
-2.168 -5.066 -1.756 0
-2.1489999 -5.0640001 -1.753 0
-2.1389999 -5.085 -1.758 0
-2.1229999 -5.0929999 -1.7589999 0
-2.109 -5.0809999 -1.753 0
-2.0929999 -5.0879998 -1.753 0
-2.079 -5.099 -1.755 0
-2.063 -5.1059999 -1.755 0
-2.0450001 -5.1069999 -1.753 0
-2.0309999 -5.1199999 -1.756 0
-2.0139999 -5.1230001 -1.7539999 0
-2.007 -5.1300001 -1.756 0
-1.988 -5.1290002 -1.753 0
-1.973 -5.1370001 -1.7539999 0
-1.9529999 -5.1329999 -1.75 0
-1.939 -5.1440001 -1.752 0
-1.9220001 -5.1500001 -1.752 0
-1.904 -5.151 -1.75 0
-1.898 -5.1570001 -1.751 0
-1.881 -5.1630001 -1.751 0
-1.8609999 -5.1570001 -1.747 0
-1.85 -5.1789999 -1.752 0
-1.8329999 -5.1810002 -1.751 0
-1.817 -5.1880002 -1.752 0
-1.801 -5.1939998 -1.752 0
-1.7869999 -5.1810002 -1.7460001 0
-1.775 -5.1989999 -1.75 0
-1.76 -5.21 -1.752 0
-1.737 -5.1939998 -1.745 0
-1.724 -5.21 -1.749 0
-1.709 -5.2189999 -1.75 0
-1.691 -5.2189999 -1.748 0
-1.679 -5.211 -1.744 0
-1.665 -5.2249999 -1.747 0
-1.651 -5.2379999 -1.75 0
-1.633 -5.2350001 -1.747 0
-1.615 -5.237 -1.7460001 0
-1.598 -5.2420001 -1.7460001 0
-1.5829999 -5.2509999 -1.747 0
-1.575 -5.2529998 -1.747 0
-1.5549999 -5.2449999 -1.743 0
-1.538 -5.25 -1.743 0
-1.524 -5.2620001 -1.745 0
-1.505 -5.2600002 -1.743 0
-1.487 -5.2610002 -1.7410001 0
-1.474 -5.2750001 -1.745 0
-1.465 -5.2750001 -1.744 0
-1.446 -5.2719998 -1.7410001 0
-1.429 -5.2750001 -1.7410001 0
-1.4119999 -5.2800002 -1.7410001 0
-1.396 -5.2839999 -1.7410001 0
-1.382 -5.2969999 -1.744 0
-1.3609999 -5.2870002 -1.739 0
-1.352 -5.2859998 -1.738 0
-1.334 -5.2839999 -1.7359999 0
-1.329 -5.3340001 -1.752 0
-1.309 -5.3270001 -1.748 0
-1.294 -5.335 -1.749 0
-1.28 -5.3520002 -1.7539999 0
-1.26 -5.3080001 -1.738 0
-1.2460001 -5.323 -1.7410001 0
-1.229 -5.323 -1.74 0
-1.212 -5.3249998 -1.74 0
-1.193 -5.322 -1.737 0
-1.179 -5.335 -1.74 0
-1.1619999 -5.3379998 -1.74 0
-1.151 -5.3270001 -1.7359999 0
-1.136 -5.3400002 -1.739 0
-1.12 -5.3470001 -1.74 0
-1.102 -5.3470001 -1.739 0
-1.085 -5.3509998 -1.739 0
-1.068 -5.3499999 -1.738 0
-1.05 -5.348 -1.7359999 0
-1.044 -5.3629999 -1.74 0
-1.027 -5.362 -1.739 0
-1.011 -5.375 -1.742 0
-0.99299997 -5.368 -1.739 0
-0.97899997 -5.3860002 -1.744 0
-0.963 -5.395 -1.7460001 0
-0.94099998 -5.3699999 -1.7359999 0
-0.93599999 -5.3899999 -1.743 0
-0.91500002 -5.3730001 -1.7359999 0
-0.90600002 -5.4180002 -1.75 0
-0.88499999 -5.4029999 -1.744 0
-0.87 -5.4130001 -1.747 0
-0.84899998 -5.3889999 -1.738 0
-0.82999998 -5.3829999 -1.734 0
-0.82200003 -5.388 -1.7359999 0
-0.80500001 -5.3860002 -1.734 0
-0.78799999 -5.3889999 -1.734 0
-0.76999998 -5.3860002 -1.732 0
-0.75400001 -5.3940001 -1.734 0
-0.73500001 -5.3829999 -1.73 0
-0.72100002 -5.402 -1.7359999 0
-0.71200001 -5.4050002 -1.7359999 0
-0.69400001 -5.3940001 -1.732 0
-0.67500001 -5.3870001 -1.729 0
-0.66100001 -5.4099998 -1.7359999 0
-0.64099997 -5.3870001 -1.727 0
-0.62800002 -5.4229999 -1.739 0
-0.60900003 -5.4029999 -1.7309999 0
-0.60399997 -5.434 -1.7410001 0
-0.58499998 -5.4239998 -1.738 0
-0.56900001 -5.4320002 -1.74 0
-0.54900002 -5.4050002 -1.73 0
-0.52999997 -5.3940001 -1.725 0
-0.514 -5.4029999 -1.728 0
-0.498 -5.4099998 -1.73 0
-0.48800001 -5.4029999 -1.727 0
-0.47099999 -5.4029999 -1.727 0
-0.454 -5.401 -1.725 0
-0.43700001 -5.3979998 -1.724 0
-0.41999999 -5.4070001 -1.727 0
-0.40400001 -5.4120002 -1.728 0
-0.39500001 -5.4050002 -1.725 0
-0.377 -5.4029999 -1.724 0
-0.36199999 -5.4229999 -1.7309999 0
-0.34299999 -5.401 -1.723 0
-0.32600001 -5.4000001 -1.722 0
-0.30899999 -5.4000001 -1.721 0
-0.292 -5.395 -1.72 0
-0.285 -5.4310002 -1.732 0
-0.26800001 -5.4320002 -1.732 0
-0.25 -5.4180002 -1.727 0
-0.233 -5.4190001 -1.727 0
-0.21699999 -5.4310002 -1.7309999 0
-0.199 -5.4239998 -1.728 0
-0.182 -5.402 -1.72 0
-0.17299999 -5.4000001 -1.72 0
-0.156 -5.408 -1.722 0
-0.139 -5.3990002 -1.719 0
-0.122 -5.3990002 -1.719 0
-0.105 -5.3979998 -1.7180001 0
-0.088 -5.3979998 -1.7180001 0
-0.071000002 -5.4039998 -1.72 0
-0.063000001 -5.408 -1.721 0
-0.046 -5.4099998 -1.722 0
-0.028999999 -5.395 -1.717 0
-0.012 -5.4029999 -1.72 0
0.0049999999 -5.3889999 -1.715 0
0.022 -5.4050002 -1.72 0
0.039000001 -5.3990002 -1.7180001 0
0.048 -5.402 -1.72 0
0.064999998 -5.3990002 -1.7180001 0
0.082000002 -5.3959999 -1.7180001 0
0.097999997 -5.3870001 -1.714 0
0.116 -5.401 -1.72 0
0.133 -5.4070001 -1.721 0
0.149 -5.3969998 -1.7180001 0
0.15800001 -5.4000001 -1.72 0
0.175 -5.4089999 -1.723 0
0.192 -5.3920002 -1.717 0
0.20900001 -5.3909998 -1.717 0
0.226 -5.3920002 -1.7180001 0
0.243 -5.395 -1.719 0
0.25999999 -5.395 -1.719 0
0.26800001 -5.3920002 -1.7180001 0
0.285 -5.3930001 -1.719 0
0.30199999 -5.3829999 -1.716 0
0.31900001 -5.3839998 -1.716 0
0.336 -5.3850002 -1.717 0
0.352 -5.3779998 -1.715 0
0.36899999 -5.3730001 -1.714 0
0.377 -5.3759999 -1.715 0
0.39500001 -5.3790002 -1.716 0
0.412 -5.3790002 -1.717 0
0.428 -5.3759999 -1.716 0
0.44600001 -5.3800001 -1.7180001 0
0.46200001 -5.3699999 -1.715 0
0.472 -5.3899999 -1.722 0
