# .PCD v0.7 - Point Cloud Data file format
VERSION 0.7
FIELDS x y z intensity
SIZE 4 4 4 4
TYPE F F F F
COUNT 1 1 1 1
WIDTH 1458
HEIGHT 1
VIEWPOINT 0 0 0 1 0 0 0
POINTS 1458
DATA ascii
-0.70300001 4.4879999 -1.712 0.34
-0.71399999 4.4640002 -1.7029999 0.34
-0.72899997 4.4689999 -1.706 0.31999999
-0.74599999 4.4829998 -1.7130001 0.43000001
-0.75700003 4.46 -1.704 0.33000001
-0.773 4.4710002 -1.71 0.37
-0.78299999 4.4860001 -1.716 0.34999999
-0.79400003 4.4650002 -1.709 0.33000001
-0.80900002 4.4699998 -1.712 0.37
-0.824 4.4749999 -1.715 0.36000001
-0.83499998 4.454 -1.707 0.28999999
-0.85100001 4.461 -1.711 0.41
-0.866 4.467 -1.715 0.37
-0.87099999 4.4510002 -1.709 0.36000001
-0.88499999 4.4499998 -1.71 0.31999999
-0.89999998 4.4549999 -1.7130001 0.38
-0.917 4.4629998 -1.717 0.25
-0.93000001 4.454 -1.715 0.41
-0.94099998 4.4400001 -1.71 0.58999997
-0.95700002 4.447 -1.714 0.36000001
-0.963 4.4400001 -1.712 0.34999999
-0.97899997 4.447 -1.716 0.34999999
-0.99199998 4.4390001 -1.714 0.36000001
-1.007 4.4390001 -1.716 0.34
-1.021 4.4380002 -1.716 0.31
-1.034 4.4289999 -1.714 0.38999999
-1.0470001 4.4239998 -1.7130001 0.38
-1.058 4.4369998 -1.719 0.36000001
-1.069 4.4229999 -1.715 0.34
-1.085 4.428 -1.719 0.36000001
-1.1 4.4289999 -1.72 0.33000001
-1.109 4.4050002 -1.712 0.36000001
-1.126 4.414 -1.717 0.31999999
-1.142 4.4219999 -1.722 0.47999999
-1.146 4.4070001 -1.716 0.38
-1.16 4.4050002 -1.717 0.37
-1.176 4.4089999 -1.72 0.37
-1.187 4.395 -1.716 0.38
-1.204 4.402 -1.72 0.38
-1.2180001 4.3979998 -1.72 0.37
-1.23 4.3889999 -1.7180001 0.34
-1.238 4.3920002 -1.72 0.40000001
-1.2539999 4.3930001 -1.722 0.36000001
-1.262 4.3720002 -1.715 0.36000001
-1.279 4.3779998 -1.719 0.38
-1.295 4.381 -1.722 0.38
-1.307 4.3720002 -1.72 0.37
-1.3200001 4.3639998 -1.719 0.34
-1.3279999 4.368 -1.721 0.43000001
-1.341 4.3600001 -1.719 0.37
-1.354 4.3540001 -1.719 0.31999999
-1.3710001 4.3600001 -1.723 0.36000001
-1.383 4.3499999 -1.721 0.41999999
-1.396 4.3439999 -1.72 0.36000001
-1.4119999 4.3449998 -1.722 0.30000001
-1.418 4.3429999 -1.722 0.38999999
-1.431 4.335 -1.721 0.37
-1.447 4.3390002 -1.725 0.34
-1.457 4.322 -1.719 0.36000001
-1.472 4.323 -1.722 0.36000001
-1.488 4.3249998 -1.725 0.34999999
-1.498 4.3080001 -1.719 0.34
-1.505 4.3080001 -1.72 0.34999999
-1.523 4.3150001 -1.725 0.34
-1.533 4.302 -1.722 0.34999999
-1.549 4.3039999 -1.725 0.40000001
-1.5650001 4.3060002 -1.728 0.37
-1.575 4.2909999 -1.723 0.37
-1.5880001 4.2859998 -1.723 0.37
-1.601 4.2989998 -1.73 0.36000001
-1.61 4.2820001 -1.725 0.36000001
-1.623 4.2750001 -1.724 0.38
-1.641 4.2820001 -1.729 0.31
-1.649 4.263 -1.723 0.38
-1.665 4.2649999 -1.726 0.34999999
-1.671 4.2600002 -1.725 0.31999999
-1.682 4.2480001 -1.722 0.34
-1.696 4.244 -1.723 0.34
-1.714 4.2529998 -1.729 0.38
-1.723 4.2350001 -1.724 0.37
-1.7359999 4.23 -1.724 0.36000001
-1.753 4.2329998 -1.728 0.36000001
-1.757 4.223 -1.725 0.33000001
-1.772 4.2210002 -1.726 0.38999999
-1.7869999 4.2210002 -1.728 0.38
-1.8 4.2150002 -1.728 0.31
-1.813 4.2080002 -1.728 0.41999999
-1.8329999 4.2189999 -1.735 0.38
-1.841 4.2020001 -1.73 0.36000001
-1.852 4.2090001 -1.734 0.38999999
-1.868 4.2080002 -1.7359999 0.43000001
-1.8789999 4.197 -1.734 0.36000001
-1.891 4.1900001 -1.733 0.43000001
-1.9069999 4.1890001 -1.7359999 0.36000001
-1.9170001 4.178 -1.733 0.43000001
-1.933 4.177 -1.7359999 0.34
-1.956 4.1919999 -1.745 0.19
-1.95 4.1620002 -1.733 0.54000002
-1.969 4.1680002 -1.739 0.38
-1.984 4.1669998 -1.7410001 0.31
-1.9960001 4.1570001 -1.739 0.38
-2.007 4.1479998 -1.738 0.33000001
-2.023 4.1459999 -1.74 0.41999999
-2.027 4.138 -1.738 0.41
-2.043 4.138 -1.7410001 0.36000001
-2.059 4.1389999 -1.744 0.37
-2.069 4.125 -1.7410001 0.34999999
-2.0780001 4.1110001 -1.737 0.34999999
-2.096 4.1160002 -1.742 0.36000001
-2.105 4.1009998 -1.739 0.34
-2.1170001 4.1090002 -1.744 0.36000001
-2.135 4.112 -1.748 0.36000001
-2.1429999 4.0960002 -1.744 0.37
-2.1570001 4.0910001 -1.745 0.38
-2.1719999 4.0890002 -1.747 0.38
-2.1849999 4.0819998 -1.747 0.34
-2.2030001 4.085 -1.751 0.36000001
-2.217 4.0939999 -1.757 0.38999999
-2.221 4.0710001 -1.75 0.38
-2.2360001 4.0689998 -1.752 0.34
-2.2590001 4.0799999 -1.76 0.34999999
-2.2709999 4.0710001 -1.76 0.38
-2.2820001 4.0609999 -1.758 0.38999999
-2.309 4.079 -1.77 0.31
-2.3150001 4.0760002 -1.77 0.43000001
-2.3310001 4.073 -1.772 0.31999999
-2.3429999 4.0640001 -1.772 0.44999999
-2.3610001 4.0669999 -1.776 0.34
-2.3729999 4.0580001 -1.775 0.44999999
-2.388 4.0549998 -1.778 0.38
-2.395 4.0380001 -1.773 0.41999999
-2.4030001 4.0359998 -1.774 0.37
-2.4130001 4.0250001 -1.772 0.37
-2.428 4.0209999 -1.774 0.38999999
-2.4400001 4.0110002 -1.773 0.38999999
-2.4590001 4.0149999 -1.778 0.31999999
-2.4649999 3.9960001 -1.773 0.43000001
-2.477 3.9879999 -1.773 0.38
-2.487 3.9909999 -1.776 0.34999999
-2.497 3.9779999 -1.774 0.41
-2.5150001 3.98 -1.778 0.38
-2.526 3.9679999 -1.777 0.37
-2.5339999 3.954 -1.774 0.36000001
-2.5480001 3.948 -1.775 0.36000001
-2.5610001 3.941 -1.775 0.34999999
-2.5669999 3.937 -1.775 0.36000001
-2.5810001 3.931 -1.776 0.36000001
-2.598 3.9300001 -1.78 0.36000001
-2.608 3.9189999 -1.778 0.36000001
-2.619 3.908 -1.777 0.34
-2.6340001 3.904 -1.779 0.31
-2.6470001 3.898 -1.78 0.38
-2.6630001 3.9070001 -1.7869999 0.31999999
-2.668 3.888 -1.781 0.57999998
-2.681 3.881 -1.7819999 0.34
-2.71 3.8970001 -1.794 0.059999999
-2.7360001 3.9089999 -1.804 0
-2.7490001 3.901 -1.804 0
-3.2709999 3.4630001 -1.801 0
-3.2739999 3.4549999 -1.799 0.02
-3.2780001 3.438 -1.795 0.16
-3.2969999 3.4360001 -1.8 0.23999999
-3.3139999 3.4319999 -1.804 0.25999999
-3.3139999 3.411 -1.798 0.31
-3.3199999 3.395 -1.795 0.31
-3.345 3.4000001 -1.803 0.38999999
-3.3410001 3.385 -1.798 0.31
-3.355 3.3789999 -1.8 0.33000001
-3.375 3.3770001 -1.8049999 0.34999999
-3.3829999 3.3640001 -1.804 0.33000001
-3.3870001 3.3469999 -1.8 0.34
-3.4030001 3.3410001 -1.803 0.31999999
-3.4070001 3.3239999 -1.799 0.38
-3.4170001 3.3239999 -1.802 0.31999999
-3.4330001 3.3180001 -1.8049999 0.31
-3.438 3.302 -1.802 0.34999999
-3.447 3.29 -1.801 0.34
-3.471 3.2920001 -1.809 0.38
-3.473 3.2739999 -1.804 0.36000001
-3.477 3.267 -1.804 0.31999999
-3.4949999 3.2639999 -1.808 0.34
-3.4990001 3.2460001 -1.804 0.37
-3.51 3.237 -1.8049999 0.38
-3.526 3.2309999 -1.808 0.31999999
-3.529 3.2130001 -1.804 0.34
-3.549 3.211 -1.8099999 0.38999999
-3.5550001 3.1960001 -1.807 0.36000001
-3.5569999 3.188 -1.806 0.34999999
-3.573 3.1819999 -1.809 0.34999999
-3.585 3.1730001 -1.8099999 0.31
-3.592 3.1589999 -1.809 0.34999999
-3.602 3.148 -1.809 0.34999999
-3.622 3.145 -1.814 0.34999999
-3.6199999 3.1329999 -1.8099999 0.34
-3.6340001 3.1259999 -1.813 0.38999999
-3.6489999 3.119 -1.816 0.31999999
-3.6489999 3.099 -1.8099999 0.37
-3.655 3.0840001 -1.808 0.36000001
-3.6760001 3.082 -1.814 0.36000001
-3.681 3.0669999 -1.812 0.34
-3.6819999 3.0580001 -1.8099999 0.30000001
-3.698 3.052 -1.813 0.37
-3.7049999 3.0380001 -1.812 0.34
-3.7149999 3.026 -1.812 0.36000001
-3.7279999 3.0179999 -1.814 0.36000001
-3.737 3.0050001 -1.813 0.36000001
-3.743 2.9909999 -1.812 0.33000001
-3.7509999 2.9879999 -1.813 0.31999999
-3.7590001 2.9749999 -1.813 0.38
-3.7690001 2.964 -1.813 0.34999999
-3.7869999 2.9590001 -1.818 0.31999999
-3.7909999 2.9430001 -1.8150001 0.34999999
-3.8010001 2.9319999 -1.816 0.36000001
-3.812 2.921 -1.816 0.36000001
-3.8110001 2.9100001 -1.813 0.34999999
-3.823 2.901 -1.8150001 0.34999999
-3.836 2.892 -1.817 0.34
-3.8340001 2.8710001 -1.811 0.34
-3.8469999 2.862 -1.813 0.34999999
-3.8640001 2.8559999 -1.817 0.33000001
-3.865 2.8380001 -1.813 0.34999999
-3.8740001 2.835 -1.816 0.34
-3.8870001 2.826 -1.818 0.34
-3.8889999 2.809 -1.814 0.34
-3.898 2.796 -1.814 0.34999999
-3.915 2.7909999 -1.819 0.31999999
-3.918 2.7739999 -1.816 0.37
-3.928 2.763 -1.816 0.34999999
-3.9389999 2.7609999 -1.819 0.34
-3.934 2.7390001 -1.813 0.34
-3.948 2.7309999 -1.816 0.34
-3.964 2.724 -1.819 0.33000001
-3.971 2.71 -1.819 0.34
-3.974 2.6930001 -1.816 0.28999999
-3.9920001 2.697 -1.822 0.38
-3.99 2.677 -1.817 0.38999999
-3.9990001 2.665 -1.818 0.31999999
-4.0159998 2.658 -1.822 0.38
-4.0120001 2.6370001 -1.816 0.31
-4.0349998 2.635 -1.823 0.38
-4.0469999 2.6240001 -1.825 0.31
-4.0430002 2.6129999 -1.821 0.36000001
-4.0430002 2.595 -1.817 0.30000001
-4.0640001 2.5899999 -1.823 0.31999999
-4.066 2.573 -1.8200001 0.31999999
-4.0739999 2.5610001 -1.8200001 0.33000001
-4.0819998 2.5480001 -1.8200001 0.31999999
-4.0869999 2.533 -1.819 0.31999999
-4.0949998 2.529 -1.821 0.33000001
-4.1079998 2.52 -1.823 0.33000001
-4.1100001 2.503 -1.8200001 0.34999999
-4.1240001 2.494 -1.823 0.34
-4.138 2.4849999 -1.826 0.33000001
-4.138 2.467 -1.822 0.33000001
-4.1440001 2.4530001 -1.822 0.31999999
-4.151 2.448 -1.823 0.36000001
-4.1589999 2.4349999 -1.823 0.31999999
-4.171 2.425 -1.825 0.34
-4.184 2.415 -1.8279999 0.31999999
-4.177 2.3929999 -1.821 0.31999999
-4.184 2.3800001 -1.821 0.31999999
-4.2080002 2.3759999 -1.8279999 0.38999999
-4.2080002 2.3670001 -1.827 0.31999999
-4.2140002 2.3529999 -1.826 0.33000001
-4.2249999 2.342 -1.8279999 0.36000001
-4.224 2.3239999 -1.824 0.34
-4.2340002 2.313 -1.825 0.30000001
-4.2509999 2.3050001 -1.83 0.44
-4.2449999 2.293 -1.825 0.31999999
-4.2490001 2.2780001 -1.824 0.34
-4.2690001 2.2709999 -1.83 0.33000001
-4.2750001 2.257 -1.829 0.34
-4.2740002 2.2390001 -1.825 0.36000001
-4.2909999 2.2309999 -1.83 0.34
-4.2930002 2.2149999 -1.8279999 0.30000001
-4.3140001 2.217 -1.836 0.41
-4.329 2.2079999 -1.84 0.37
-4.3429999 2.198 -1.8430001 0.34999999
-4.3270001 2.1730001 -1.832 0.30000001
-4.3569999 2.171 -1.8430001 0
-4.3299999 2.1400001 -1.8279999 0
-4.3740001 2.145 -1.844 0
-4.3790002 2.1389999 -1.845 0
-4.4099998 -1.9809999 -1.829 0
-4.3660002 -1.978 -1.813 0.039999999
-4.3730001 -1.998 -1.819 0.15000001
-4.3639998 -2.01 -1.817 0.2
-4.3590002 -2.016 -1.816 0.25
-4.3470001 -2.027 -1.814 0.28
-4.3379998 -2.039 -1.813 0.31999999
-4.3299999 -2.052 -1.812 0.30000001
-4.316 -2.063 -1.809 0.31999999
-4.3200002 -2.0810001 -1.813 0.34
-4.3049998 -2.0910001 -1.8099999 0.34999999
-4.302 -2.0969999 -1.8099999 0.36000001
-4.2930002 -2.1099999 -1.809 0.37
-4.2950001 -2.128 -1.813 0.31999999
-4.2779999 -2.1359999 -1.808 0.38999999
-4.2729998 -2.1500001 -1.809 0.33000001
-4.2670002 -2.164 -1.809 0.38999999
-4.2579999 -2.1760001 -1.808 0.36000001
-4.2509999 -2.181 -1.807 0.38
-4.243 -2.194 -1.806 0.38
-4.243 -2.211 -1.809 0.37
-4.2270002 -2.22 -1.8049999 0.38
-4.2220001 -2.234 -1.806 0.37
-4.2150002 -2.247 -1.806 0.38
-4.2030001 -2.2579999 -1.804 0.36000001
-4.2010002 -2.2650001 -1.804 0.38
-4.1989999 -2.2809999 -1.807 0.38
-4.1789999 -2.2869999 -1.801 0.37
-4.1700001 -2.299 -1.8 0.37
-4.164 -2.313 -1.801 0.38
-4.1539998 -2.325 -1.799 0.33000001
-4.1479998 -2.3299999 -1.798 0.38999999
-4.1440001 -2.345 -1.8 0.33000001
-4.1269999 -2.3529999 -1.795 0.37
-4.1149998 -2.3629999 -1.793 0.38999999
-4.1090002 -2.3770001 -1.794 0.37
-4.1030002 -2.3900001 -1.795 0.37
-4.092 -2.401 -1.793 0.36000001
-4.098 -2.4130001 -1.798 0.36000001
-4.0809999 -2.421 -1.793 0.34999999
-4.0749998 -2.434 -1.794 0.36000001
-4.0640001 -2.4449999 -1.793 0.37
-4.053 -2.4560001 -1.791 0.36000001
-4.0419998 -2.467 -1.79 0.38999999
-4.0300002 -2.477 -1.7869999 0.36000001
-4.0320001 -2.487 -1.79 0.37
-4.02 -2.497 -1.788 0.31
-4.0100002 -2.5079999 -1.7869999 0.36000001
-3.9990001 -2.5190001 -1.786 0.38
-3.9979999 -2.5350001 -1.789 0.43000001
-3.9879999 -2.5469999 -1.788 0.34999999
-3.9790001 -2.55 -1.786 0.36000001
-3.9630001 -2.5580001 -1.7819999 0.31999999
-3.96 -2.573 -1.784 0.37
-3.9489999 -2.5840001 -1.783 0.34
-3.947 -2.5999999 -1.786 0.34
-3.9360001 -2.6099999 -1.784 0.36000001
-3.9289999 -2.6240001 -1.785 0.36000001
-3.9159999 -2.6240001 -1.781 0.36000001
-3.9070001 -2.6359999 -1.781 0.34999999
-3.8959999 -2.6459999 -1.779 0.34
-3.891 -2.661 -1.781 0.31999999
-3.882 -2.6730001 -1.781 0.34
-3.8710001 -2.6830001 -1.779 0.36000001
-3.8640001 -2.6960001 -1.78 0.38
-3.855 -2.6989999 -1.778 0.36000001
-3.8410001 -2.707 -1.775 0.34999999
-3.8380001 -2.723 -1.778 0.36000001
-3.823 -2.7309999 -1.775 0.31999999
-3.8310001 -2.7550001 -1.783 0.23
-3.8139999 -2.76 -1.778 0.46000001
-3.796 -2.766 -1.774 0.43000001
-3.7920001 -2.7720001 -1.774 0.38
-3.786 -2.786 -1.775 0.33000001
-3.777 -2.7980001 -1.775 0.31999999
-3.7639999 -2.806 -1.773 0.37
-3.763 -2.8239999 -1.777 0.38
-3.74 -2.825 -1.77 0.31999999
-3.734 -2.839 -1.772 0.37
-3.733 -2.848 -1.773 0.38999999
-3.7160001 -2.8540001 -1.7690001 0.36000001
-3.707 -2.865 -1.7690001 0.34
-3.7 -2.878 -1.77 0.31999999
-3.6860001 -2.8859999 -1.768 0.34
-3.6760001 -2.8970001 -1.767 0.38
-3.6760001 -2.9059999 -1.7690001 0.36000001
-3.658 -2.911 -1.765 0.34999999
-3.6600001 -2.931 -1.771 0.34999999
-3.658 -2.948 -1.775 0.36000001
-3.6300001 -2.9449999 -1.765 0.33000001
-3.6170001 -2.9530001 -1.763 0.34999999
-3.6129999 -2.9690001 -1.766 0.34999999
-3.5969999 -2.9649999 -1.76 0.33000001
-3.5929999 -2.9809999 -1.763 0.31
-3.5910001 -2.9979999 -1.766 0.34999999
-3.5669999 -2.9979999 -1.7589999 0.36000001
-3.5650001 -3.0150001 -1.763 0.40000001
-3.5610001 -3.0309999 -1.766 0.36000001
-3.539 -3.0309999 -1.7589999 0.31999999
-3.536 -3.0380001 -1.76 0.30000001
-3.533 -3.0550001 -1.763 0.41999999
-3.5109999 -3.0550001 -1.757 0.40000001
-3.497 -3.063 -1.7539999 0.34999999
-3.5009999 -3.086 -1.762 0.34
-3.483 -3.089 -1.757 0.36000001
-3.4779999 -3.1040001 -1.76 0.34
-3.47 -3.1070001 -1.758 0.34999999
-3.4489999 -3.108 -1.752 0.31999999
-3.444 -3.1229999 -1.7539999 0.36000001
-3.438 -3.1370001 -1.757 0.40000001
-3.424 -3.1440001 -1.7539999 0.33000001
-3.4130001 -3.154 -1.7539999 0.34999999
-3.404 -3.1659999 -1.7539999 0.36000001
-3.392 -3.165 -1.751 0.38
-3.3770001 -3.1700001 -1.748 0.33000001
-3.3789999 -3.1919999 -1.7539999 0.34
-3.3559999 -3.1900001 -1.747 0.27000001
-3.352 -3.207 -1.751 0.46000001
-3.346 -3.221 -1.753 0.36000001
-3.319 -3.2149999 -1.743 0.31
-3.3199999 -3.227 -1.747 0.40000001
-3.3110001 -3.2390001 -1.748 0.34
-3.319 -3.266 -1.757 0.36000001
-3.323 -3.29 -1.766 0.28999999
-3.302 -3.29 -1.76 0
-3.289 -3.2980001 -1.758 0
-3.276 -3.2950001 -1.7539999 0
-2.724 -3.687 -1.728 0.039999999
-2.7130001 -3.697 -1.729 0.15000001
-2.6960001 -3.698 -1.725 0.20999999
-2.681 -3.7019999 -1.723 0.25999999
-2.664 -3.7030001 -1.719 0.28999999
-2.6570001 -3.7049999 -1.719 0.28
-2.641 -3.7079999 -1.716 0.31999999
-2.635 -3.723 -1.719 0.37
-2.6240001 -3.733 -1.72 0.34
-2.608 -3.7349999 -1.717 0.34
-2.596 -3.744 -1.717 0.34
-2.5910001 -3.7490001 -1.7180001 0.37
-2.5739999 -3.75 -1.714 0.31999999
-2.566 -3.7620001 -1.716 0.34999999
-2.5569999 -3.7750001 -1.719 0.36000001
-2.539 -3.7739999 -1.714 0.33000001
-2.53 -3.786 -1.716 0.37
-2.5179999 -3.7939999 -1.716 0.41
-2.5120001 -3.7980001 -1.716 0.34999999
-2.497 -3.8010001 -1.714 0.38
-2.4879999 -3.8139999 -1.716 0.38999999
-2.4690001 -3.8110001 -1.711 0.34999999
-2.46 -3.823 -1.7130001 0.34999999
-2.451 -3.836 -1.716 0.41
-2.437 -3.8399999 -1.714 0.34
-2.4300001 -3.842 -1.7130001 0.36000001
-2.4200001 -3.8529999 -1.715 0.37
-2.405 -3.8559999 -1.7130001 0.36000001
-2.391 -3.8599999 -1.711 0.31999999
-2.3900001 -3.885 -1.719 0.38
-2.369 -3.8789999 -1.7130001 0.44999999
-2.3529999 -3.8800001 -1.71 0.36000001
-2.352 -3.8929999 -1.714 0.38
-2.335 -3.892 -1.71 0.37
-2.3210001 -3.8959999 -1.709 0.36000001
-2.3110001 -3.9070001 -1.71 0.36000001
-2.2969999 -3.9130001 -1.71 0.36000001
-2.286 -3.921 -1.71 0.38
-2.2720001 -3.925 -1.709 0.36000001
-2.2639999 -3.9260001 -1.707 0.38
-2.2520001 -3.9330001 -1.707 0.34
-2.2420001 -3.9449999 -1.71 0.43000001
-2.2309999 -3.9549999 -1.711 0.25
-2.2160001 -3.957 -1.709 0.47999999
-2.2060001 -3.967 -1.71 0.38999999
-2.1849999 -3.96 -1.704 0.37
-2.1789999 -3.9630001 -1.704 0.36000001
-2.171 -3.9779999 -1.707 0.33000001
-2.1559999 -3.9809999 -1.706 0.38999999
-2.145 -3.99 -1.707 0.36000001
-2.1300001 -3.9920001 -1.704 0.34999999
-2.1140001 -3.993 -1.702 0.28999999
-2.1129999 -4.0050001 -1.706 0.37
-2.0999999 -4.0120001 -1.706 0.54000002
-2.0829999 -4.0100002 -1.702 0.36000001
-2.0669999 -4.0100002 -1.699 0.36000001
-2.059 -4.026 -1.704 0.34
-2.0369999 -4.013 -1.6950001 0.31
-2.029 -4.0289998 -1.699 0.38999999
-2.0250001 -4.0370002 -1.701 0.33000001
-2.0120001 -4.0419998 -1.701 0.36000001
-1.999 -4.0479999 -1.701 0.38999999
-1.988 -4.0580001 -1.702 0.36000001
-1.967 -4.0469999 -1.6950001 0.34999999
-1.9579999 -4.0619998 -1.698 0.36000001
-1.946 -4.0700002 -1.699 0.37
-1.937 -4.066 -1.696 0.36000001
-1.923 -4.0710001 -1.6950001 0.34999999
-1.913 -4.0819998 -1.698 0.38
-1.8940001 -4.0760002 -1.692 0.38
-1.886 -4.0900002 -1.696 0.34
-1.873 -4.098 -1.697 0.36000001
-1.865 -4.1139998 -1.701 0.49000001
-1.849 -4.0960002 -1.692 0.25
-1.827 -4.0819998 -1.683 0.07
-1.785 -4.0219998 -1.654 0
-1.552 -3.5339999 -1.437 0
-1.5 -3.448 -1.397 0
-1.451 -3.3659999 -1.358 0
-1.444 -3.3629999 -1.3559999 0
-1.416 -3.3280001 -1.339 0
-1.399 -3.3169999 -1.332 0
-1.386 -3.3150001 -1.329 0
-1.375 -3.319 -1.329 0
-1.358 -3.3080001 -1.323 0
-1.35 -3.3180001 -1.325 0
-1.3430001 -3.316 -1.323 0
-1.327 -3.3050001 -1.317 0
-1.316 -3.309 -1.317 0
-1.309 -3.322 -1.3200001 0
-1.291 -3.3069999 -1.312 0
-1.286 -3.323 -1.317 0
-1.271 -3.3150001 -1.312 0
-1.265 -3.3169999 -1.312 0
-1.253 -3.316 -1.3099999 0
-1.2410001 -3.316 -1.308 0
-1.226 -3.3080001 -1.303 0
-1.2180001 -3.3169999 -1.3049999 0
-1.201 -3.3039999 -1.298 0
-1.191 -3.309 -1.299 0
-1.188 -3.3180001 -1.302 0
-1.179 -3.323 -1.302 0
-1.165 -3.3180001 -1.299 0
-1.151 -3.3110001 -1.294 0
-1.14 -3.3150001 -1.294 0
-1.128 -3.312 -1.291 0
-1.125 -3.322 -1.295 0
-1.114 -3.322 -1.293 0
-1.097 -3.306 -1.285 0
-1.082 -3.2969999 -1.28 0
-1.071 -3.2969999 -1.278 0
-1.063 -3.309 -1.2819999 0
-1.052 -3.3110001 -1.281 0
-1.051 -3.323 -1.286 0
-1.034 -3.309 -1.278 0
-1.025 -3.3139999 -1.279 0
-1.015 -3.3210001 -1.281 0
-1.003 -3.3169999 -1.278 0
-0.99199998 -3.3199999 -1.278 0
-0.98799998 -3.342 -1.286 0
-0.97600001 -3.323 -1.277 0
-0.96799999 -3.335 -1.281 0
-0.95599997 -3.332 -1.278 0
-0.94499999 -3.332 -1.277 0
-0.93400002 -3.3329999 -1.276 0
-0.92199999 -3.3299999 -1.274 0
-0.91399997 -3.3440001 -1.278 0
-0.90799999 -3.3440001 -1.278 0
-0.89600003 -3.3410001 -1.275 0
-0.88499999 -3.342 -1.275 0
-0.87099999 -3.3310001 -1.2690001 0
-0.86199999 -3.3369999 -1.27 0
-0.852 -3.3429999 -1.272 0
-0.84100002 -3.342 -1.27 0
-0.833 -3.335 -1.267 0
-0.81800002 -3.3169999 -1.258 0
-0.81199998 -3.3399999 -1.267 0
-0.80500001 -3.355 -1.272 0
-0.79000002 -3.339 -1.2640001 0
-0.78100002 -3.3510001 -1.268 0
-0.77600002 -3.3499999 -1.267 0
-0.76599997 -3.355 -1.268 0
-0.755 -3.355 -1.267 0
-0.74400002 -3.3559999 -1.267 0
-0.73100001 -3.349 -1.263 0
-0.71899998 -3.3440001 -1.26 0
-0.713 -3.368 -1.2690001 0
-0.704 -3.3510001 -1.261 0
-0.69400001 -3.355 -1.262 0
-0.68400002 -3.3629999 -1.2640001 0
-0.67500001 -3.3699999 -1.267 0
-0.662 -3.3610001 -1.262 0
-0.65100002 -3.358 -1.26 0
-0.639 -3.3559999 -1.258 0
-0.63700002 -3.372 -1.2640001 0
-0.625 -3.365 -1.261 0
-0.61500001 -3.3699999 -1.262 0
-0.60399997 -3.372 -1.262 0
-0.59399998 -3.3800001 -1.2640001 0
-0.58099997 -3.365 -1.258 0
-0.56999999 -3.3670001 -1.258 0
-0.56699997 -3.381 -1.263 0
-0.55500001 -3.375 -1.26 0
-0.54799998 -3.3929999 -1.267 0
-0.53600001 -3.388 -1.2640001 0
-0.52499998 -3.3870001 -1.263 0
-0.51300001 -3.3800001 -1.2589999 0
-0.50999999 -3.3989999 -1.267 0
-0.49599999 -3.3770001 -1.257 0
-0.48800001 -3.3970001 -1.2640001 0
-0.479 -3.411 -1.27 0
-0.47 -3.424 -1.274 0
-0.45899999 -3.425 -1.274 0
-0.45300001 -3.4560001 -1.286 0
-0.447 -3.4549999 -1.285 0
-0.44 -3.4849999 -1.2970001 0
-0.43099999 -3.5020001 -1.303 0
-0.421 -3.5120001 -1.307 0
-0.414 -3.543 -1.319 0
-0.40700001 -3.5769999 -1.332 0
-0.39700001 -3.5880001 -1.336 0
-0.39399999 -3.6140001 -1.346 0.13
-0.396 -3.737 -1.396 0.2
-0.41499999 -4.0110002 -1.506 0.2
-0.405 -4.0440001 -1.5190001 0.30000001
-0.39300001 -4.0489998 -1.521 0.17
-0.38 -4.0479999 -1.52 0.28
-0.36899999 -4.0619998 -1.525 0.20999999
-0.359 -4.0310001 -1.512 0.18000001
-0.34799999 -4.0489998 -1.5190001 0.15000001
-0.336 -4.0599999 -1.523 0.2
-0.322 -4.0489998 -1.518 0.27000001
-0.31099999 -4.0599999 -1.522 0.23
-0.29899999 -4.072 -1.527 0.23
-0.294 -4.0890002 -1.533 0.17
-0.28200001 -4.1009998 -1.538 0.039999999
-0.27399999 -4.1760001 -1.568 0.14
-0.271 -4.3169999 -1.624 0.14
-0.26199999 -4.3899999 -1.654 0.28999999
-0.248 -4.3860002 -1.651 0.41999999
-0.234 -4.3940001 -1.654 0.36000001
-0.226 -4.3790002 -1.648 0.36000001
-0.213 -4.3870001 -1.651 0.34999999
-0.199 -4.3839998 -1.65 0.31999999
-0.185 -4.3829999 -1.649 0.37
-0.171 -4.3839998 -1.649 0.36000001
-0.15800001 -4.3839998 -1.649 0.31999999
-0.14399999 -4.3850002 -1.649 0.38
-0.13699999 -4.381 -1.648 0.33000001
-0.124 -4.3940001 -1.653 0.38
-0.109 -4.3779998 -1.646 0.31999999
-0.096000001 -4.382 -1.648 0.34
-0.082000002 -4.382 -1.648 0.38
-0.068000004 -4.381 -1.647 0.34999999
-0.061000001 -4.3850002 -1.648 0.34
-0.046999998 -4.3829999 -1.648 0.34
-0.034000002 -4.3790002 -1.646 0.34
-0.02 -4.3829999 -1.648 0.36000001
-0.0060000001 -4.3850002 -1.648 0.34999999
0.0080000004 -4.3779998 -1.645 0.34999999
0.021 -4.3720002 -1.643 0.34
0.028000001 -4.381 -1.647 0.34999999
0.041999999 -4.3790002 -1.646 0.34999999
0.056000002 -4.3740001 -1.6440001 0.30000001
0.07 -4.3860002 -1.649 0.36000001
0.082999997 -4.381 -1.647 0.43000001
0.097000003 -4.3730001 -1.6440001 0.31999999
0.111 -4.3759999 -1.645 0.31999999
0.118 -4.3779998 -1.646 0.38
0.131 -4.3660002 -1.642 0.31999999
0.145 -4.3730001 -1.645 0.38
0.15899999 -4.369 -1.643 0.31999999
0.17299999 -4.3740001 -1.645 0.36000001
0.186 -4.3759999 -1.646 0.34
0.20100001 -4.4029999 -1.6569999 0.34999999
0.208 -4.3990002 -1.656 0.18000001
0.222 -4.3979998 -1.656 0.30000001
0.234 -4.3639998 -1.642 0.2
0.248 -4.3709998 -1.645 0.13
0.26100001 -4.355 -1.6390001 0.2
0.27500001 -4.3499999 -1.638 0.17
0.289 -4.3569999 -1.641 0.25999999
0.29499999 -4.355 -1.64 0.25
0.31099999 -4.3759999 -1.649 0.25999999
0.32300001 -4.355 -1.641 0.18000001
0.338 -4.3759999 -1.65 0.30000001
0.35100001 -4.3639998 -1.645 0.25
0.36399999 -4.3530002 -1.642 0.20999999
0.37200001 -4.3670001 -1.648 0.25
0.38600001 -4.3629999 -1.646 0.25
0.39899999 -4.3590002 -1.645 0.23999999
0.414 -4.3709998 -1.651 0.23999999
0.43000001 -4.3920002 -1.66 0.20999999
0.44100001 -4.3670001 -1.65 0.11
0.45199999 -4.3340001 -1.637 0.16
0.46000001 -4.3460002 -1.642 0.22
0.472 -4.3319998 -1.637 0.23
0.486 -4.3280001 -1.636 0.27000001
0.5 -4.3299999 -1.638 0.27000001
0.51499999 -4.3470001 -1.645 0.28999999
0.52999997 -4.3509998 -1.648 0.19
0.54400003 -4.3530002 -1.649 0.27000001
0.551 -4.3579998 -1.651 0.1
0.565 -4.3600001 -1.653 0
0.57800001 -4.349 -1.649 0
0.59100002 -4.3449998 -1.648 0
2.0380001 -3.7880001 -1.615 0
2.0710001 -3.8210001 -1.633 0
2.0639999 -3.7950001 -1.622 0.050000001
2.0769999 -3.79 -1.623 0.18000001
2.0999999 -3.803 -1.632 0.23999999
2.102 -3.779 -1.624 0.25
2.1129999 -3.77 -1.623 0.28
2.1270001 -3.7690001 -1.625 0.31999999
2.131 -3.7620001 -1.624 0.38
2.142 -3.7539999 -1.623 0.31999999
2.1570001 -3.7520001 -1.625 0.31
2.164 -3.737 -1.6210001 0.38
2.181 -3.74 -1.626 0.38
2.1930001 -3.733 -1.626 0.31999999
2.2090001 -3.7320001 -1.6289999 0.33000001
2.2119999 -3.724 -1.627 0.33000001
2.2260001 -3.7219999 -1.6289999 0.41
2.2320001 -3.7049999 -1.624 0.31
2.247 -3.7030001 -1.627 0.31999999
2.2609999 -3.701 -1.6289999 0.33000001
2.2720001 -3.6919999 -1.628 0.33000001
2.2780001 -3.677 -1.624 0.33000001
2.2869999 -3.678 -1.627 0.31999999
2.2950001 -3.665 -1.624 0.34
2.3080001 -3.661 -1.625 0.33000001
2.3210001 -3.655 -1.626 0.33000001
2.3310001 -3.6459999 -1.625 0.34999999
2.342 -3.6370001 -1.624 0.34999999
2.3559999 -3.6340001 -1.627 0.34
2.362 -3.631 -1.627 0.34999999
2.3729999 -3.6229999 -1.627 0.34
2.385 -3.6159999 -1.627 0.37
2.3959999 -3.608 -1.627 0.33000001
2.4070001 -3.6010001 -1.627 0.34
2.4200001 -3.595 -1.627 0.37
2.4260001 -3.592 -1.628 0.36000001
2.4400001 -3.5880001 -1.63 0.33000001
2.451 -3.5799999 -1.63 0.34999999
2.4560001 -3.563 -1.625 0.36000001
2.467 -3.556 -1.625 0.36000001
2.4860001 -3.5580001 -1.63 0.34
2.4949999 -3.5480001 -1.6289999 0.37
2.5 -3.5439999 -1.6289999 0.37
2.51 -3.5339999 -1.628 0.31999999
2.5190001 -3.523 -1.627 0.38
2.5309999 -3.517 -1.627 0.33000001
2.5439999 -3.5120001 -1.6289999 0.34
2.5550001 -3.5039999 -1.6289999 0.38
2.5569999 -3.494 -1.626 0.34999999
2.575 -3.4960001 -1.631 0.38
2.5799999 -3.4790001 -1.627 0.36000001
2.5910001 -3.471 -1.627 0.33000001
2.6070001 -3.47 -1.63 0.38
2.6129999 -3.4560001 -1.627 0.33000001
2.6259999 -3.451 -1.6289999 0.34
2.631 -3.4449999 -1.628 0.34
2.645 -3.4419999 -1.63 0.34
2.654 -3.4300001 -1.6289999 0.34
2.6700001 -3.4289999 -1.633 0.34
2.674 -3.4119999 -1.628 0.34
2.6830001 -3.402 -1.627 0.34999999
2.7019999 -3.404 -1.633 0.25
2.688 -3.375 -1.62 0.44999999
2.711 -3.3829999 -1.628 0.41
2.73 -3.3840001 -1.633 0.34
2.7320001 -3.365 -1.628 0.31999999
2.7420001 -3.355 -1.627 0.38999999
2.7550001 -3.3499999 -1.6289999 0.34999999
2.7620001 -3.3369999 -1.627 0.34999999
2.767 -3.332 -1.627 0.38
2.7820001 -3.329 -1.63 0.34999999
2.789 -3.316 -1.627 0.25999999
2.802 -3.3099999 -1.6289999 0.46000001
2.8180001 -3.309 -1.633 0.38
2.823 -3.293 -1.6289999 0.36000001
2.835 -3.2869999 -1.63 0.34
2.839 -3.2809999 -1.63 0.37
2.842 -3.263 -1.625 0.33000001
2.855 -3.257 -1.627 0.41
2.8759999 -3.2609999 -1.633 0.38
2.8770001 -3.2409999 -1.627 0.36000001
2.8870001 -3.2320001 -1.627 0.33000001
2.902 -3.2379999 -1.633 0.34
2.8989999 -3.2149999 -1.626 0.34
2.9100001 -3.2060001 -1.626 0.37
2.925 -3.2019999 -1.6289999 0.33000001
2.938 -3.197 -1.631 0.22
2.9430001 -3.1830001 -1.628 0.5
2.9579999 -3.1789999 -1.631 0.38
2.957 -3.1670001 -1.627 0.30000001
2.964 -3.155 -1.626 0.41
2.9820001 -3.154 -1.63 0.40000001
2.987 -3.1389999 -1.627 0.38999999
2.997 -3.1300001 -1.627 0.34
3.0120001 -3.1259999 -1.63 0.36000001
3.0090001 -3.1029999 -1.623 0.37
3.0150001 -3.0999999 -1.624 0.37
3.039 -3.105 -1.632 0.36000001
3.0409999 -3.0869999 -1.627 0.36000001
3.05 -3.0780001 -1.627 0.37
3.0680001 -3.076 -1.632 0.38
3.066 -3.0539999 -1.625 0.37
3.0699999 -3.05 -1.625 0.34
3.089 -3.049 -1.63 0.34999999
3.0999999 -3.0409999 -1.631 0.34999999
3.1029999 -3.0239999 -1.627 0.34
3.1199999 -3.023 -1.632 0.34
3.119 -3.0020001 -1.626 0.34
3.1329999 -2.9960001 -1.628 0.34999999
3.1400001 -2.994 -1.63 0.34
3.1389999 -2.974 -1.624 0.38999999
3.161 -2.977 -1.631 0.34
3.1719999 -2.9679999 -1.632 0.38999999
3.175 -2.9519999 -1.628 0.34999999
3.1830001 -2.941 -1.627 0.31999999
3.2 -2.938 -1.632 0.34
3.1919999 -2.9219999 -1.625 0.31999999
3.21 -2.9189999 -1.63 0.37
3.223 -2.9130001 -1.632 0.40000001
3.224 -2.895 -1.627 0.36000001
3.233 -2.885 -1.627 0.38
3.2460001 -2.8789999 -1.63 0.31999999
3.247 -2.8699999 -1.627 0.38
3.26 -2.8629999 -1.63 0.44999999
3.2690001 -2.8529999 -1.63 0.36000001
3.2780001 -2.8429999 -1.63 0.33000001
3.2850001 -2.8310001 -1.6289999 0.34
3.293 -2.8199999 -1.628 0.34
3.3039999 -2.812 -1.63 0.34
3.306 -2.8039999 -1.628 0.34
3.325 -2.802 -1.633 0.38
3.3280001 -2.7869999 -1.63 0.34
3.339 -2.779 -1.632 0.38999999
3.3510001 -2.7709999 -1.633 0.38
3.3540001 -2.7550001 -1.63 0.34
3.3670001 -2.7479999 -1.633 0.34
3.378 -2.7490001 -1.636 0.37
3.382 -2.7349999 -1.6339999 0.31999999
3.3929999 -2.7249999 -1.635 0.38999999
3.398 -2.7119999 -1.633 0.34999999
3.3989999 -2.6960001 -1.63 0.36000001
3.4119999 -2.6889999 -1.632 0.36000001
3.424 -2.6800001 -1.633 0.37
3.431 -2.677 -1.635 0.28999999
3.441 -2.668 -1.636 0.46000001
3.447 -2.6559999 -1.635 0.36000001
3.4460001 -2.6370001 -1.63 0.34
3.467 -2.6359999 -1.636 0.37
3.4749999 -2.625 -1.636 0.33000001
3.4760001 -2.609 -1.633 0.31999999
3.494 -2.6129999 -1.6390001 0.38999999
3.5020001 -2.602 -1.6390001 0.34
3.5039999 -2.5869999 -1.636 0.34
3.5150001 -2.5780001 -1.638 0.31
3.5309999 -2.573 -1.642 0.40000001
3.527 -2.553 -1.636 0.37
3.5280001 -2.5450001 -1.6339999 0.36000001
3.5450001 -2.54 -1.6390001 0.37
3.5469999 -2.5250001 -1.636 0.38
3.5639999 -2.52 -1.64 0.38
3.5780001 -2.513 -1.643 0.37
3.5780001 -2.497 -1.6390001 0.36000001
3.5869999 -2.487 -1.64 0.36000001
3.5940001 -2.483 -1.642 0.34
3.6029999 -2.473 -1.642 0.34
3.6110001 -2.461 -1.642 0.34999999
3.6229999 -2.4530001 -1.645 0.38
3.6270001 -2.4389999 -1.642 0.33000001
3.628 -2.4230001 -1.6390001 0.38999999
3.638 -2.4219999 -1.642 0.37
3.6459999 -2.4100001 -1.642 0.34999999
3.652 -2.398 -1.642 0.34
3.6619999 -2.388 -1.643 0.31
3.665 -2.3740001 -1.641 0.38999999
3.6789999 -2.3659999 -1.6440001 0.36000001
3.6949999 -2.3610001 -1.648 0.36000001
3.688 -2.348 -1.643 0.34999999
3.7030001 -2.3410001 -1.647 0.36000001
3.7119999 -2.3310001 -1.648 0.34999999
3.7090001 -2.312 -1.642 0.34
3.724 -2.3050001 -1.646 0.36000001
3.737 -2.2969999 -1.649 0.31999999
3.737 -2.2809999 -1.645 0.38999999
3.7320001 -2.27 -1.642 0.36000001
3.7539999 -2.267 -1.648 0.34999999
3.753 -2.25 -1.645 0.34999999
3.763 -2.2409999 -1.646 0.31999999
3.7880001 -2.2390001 -1.654 0.40000001
3.7850001 -2.2219999 -1.65 0.37
3.79 -2.2090001 -1.649 0.36000001
3.803 -2.2079999 -1.654 0.34999999
3.796 -2.188 -1.647 0.36000001
3.8080001 -2.1789999 -1.649 0.34999999
3.822 -2.1719999 -1.653 0.36000001
3.8150001 -2.151 -1.646 0.34999999
3.825 -2.141 -1.648 0.34999999
3.839 -2.141 -1.653 0.38
3.8329999 -2.122 -1.647 0.36000001
3.8410001 -2.1110001 -1.648 0.34
3.869 -2.1110001 -1.6569999 0.38999999
3.855 -2.0869999 -1.648 0.31
3.8629999 -2.076 -1.648 0.38999999
3.8770001 -2.0680001 -1.652 0.33000001
3.8759999 -2.059 -1.65 0.34
3.8859999 -2.049 -1.651 0.36000001
3.8970001 -2.039 -1.654 0.34999999
3.895 -2.0220001 -1.65 0.34
3.905 -2.0120001 -1.651 0.36000001
3.921 -2.0050001 -1.656 0.34
3.9159999 -1.987 -1.651 0.36000001
3.925 -1.984 -1.654 0.37
3.931 -1.971 -1.654 0.36000001
3.9289999 -1.955 -1.65 0.37
3.937 -1.943 -1.651 0.37
3.95 -1.934 -1.654 0.37
3.9460001 -1.9170001 -1.649 0.34
3.957 -1.9069999 -1.651 0.34999999
3.9679999 -1.905 -1.655 0.34
3.964 -1.887 -1.651 0.34
3.9749999 -1.877 -1.653 0.34
3.984 -1.867 -1.654 0.36000001
3.98 -1.849 -1.65 0.34999999
3.9990001 -1.8430001 -1.656 0.36000001
4.0019999 -1.837 -1.656 0.34
4.0009999 -1.821 -1.653 0.36000001
4.0050001 -1.808 -1.652 0.34
4.0229998 -1.8 -1.6569999 0.34
4.02 -1.784 -1.654 0.34999999
4.027 -1.772 -1.654 0.34999999
4.0359998 -1.761 -1.656 0.36000001
4.0300002 -1.751 -1.652 0.34999999
4.046 -1.743 -1.6569999 0.36000001
4.0549998 -1.7309999 -1.658 0.34999999
4.059 -1.7180001 -1.6569999 0.36000001
4.0609999 -1.704 -1.656 0.37
4.0780001 -1.696 -1.661 0.36000001
4.0700002 -1.6849999 -1.6569999 0.36000001
4.072 -1.671 -1.655 0.37
4.0840001 -1.661 -1.658 0.34999999
4.0840001 -1.646 -1.656 0.38
4.0910001 -1.6339999 -1.6569999 0.38
4.1069999 -1.625 -1.661 0.34
4.1069999 -1.61 -1.659 0.38
4.1020002 -1.601 -1.656 0.37
4.1110001 -1.59 -1.6569999 0.36000001
4.119 -1.5779999 -1.659 0.37
4.1139998 -1.561 -1.654 0.36000001
4.132 -1.553 -1.66 0.38
4.1300001 -1.538 -1.6569999 0.34999999
4.1350002 -1.525 -1.6569999 0.36000001
4.1440001 -1.521 -1.66 0.37
4.1479998 -1.507 -1.66 0.38
4.1469998 -1.492 -1.6569999 0.38
4.152 -1.479 -1.6569999 0.36000001
4.158 -1.467 -1.658 0.36000001
4.171 -1.457 -1.6619999 0.36000001
4.1760001 -1.444 -1.6619999 0.36000001
4.1799998 -1.438 -1.663 0.36000001
4.1830001 -1.424 -1.6619999 0.36000001
4.1919999 -1.413 -1.664 0.37
4.1900001 -1.397 -1.661 0.36000001
4.1989999 -1.386 -1.663 0.36000001
4.2090001 -1.374 -1.665 0.34999999
4.2220001 -1.364 -1.669 0.36000001
4.2309999 -1.36 -1.6720001 0.28
4.2620001 -1.355 -1.683 0.38999999
4.2719998 -1.3430001 -1.686 0.38999999
4.2719998 -1.329 -1.684 0.41999999
4.276 -1.3150001 -1.684 0.38999999
4.277 -1.301 -1.683 0.38
4.2810001 -1.2869999 -1.683 0.38
4.283 -1.281 -1.683 0.36000001
4.289 -1.268 -1.683 0.36000001
4.2909999 -1.2539999 -1.683 0.38
4.2989998 -1.2410001 -1.684 0.43000001
4.2969999 -1.226 -1.682 0.38
4.2989998 -1.212 -1.681 0.38
4.303 -1.206 -1.682 0.37
4.3049998 -1.192 -1.681 0.31999999
4.3249998 -1.183 -1.688 0.34999999
4.3369999 -1.1720001 -1.692 0.43000001
4.3319998 -1.156 -1.688 0.40000001
4.3319998 -1.141 -1.686 0.38999999
4.3499999 -1.131 -1.692 0.34
4.348 -1.124 -1.691 0.40000001
4.3460002 -1.108 -1.689 0.38999999
4.3569999 -1.097 -1.692 0.38
4.3460002 -1.079 -1.686 0.38
4.3600001 -1.068 -1.6900001 0.38
4.3759999 -1.058 -1.6950001 0.38
4.3699999 -1.0420001 -1.692 0.38999999
4.375 -1.036 -1.693 0.36000001
4.381 -1.022 -1.694 0.38
4.3800001 -1.008 -1.692 0.38
4.3829999 -0.99400002 -1.692 0.36000001
4.3969998 -0.98299998 -1.697 0.37
4.3979998 -0.96899998 -1.696 0.38999999
4.3940001 -0.95300001 -1.693 0.40000001
4.4050002 -0.94800001 -1.697 0.36000001
4.4039998 -0.93400002 -1.6950001 0.38
4.4000001 -0.91799998 -1.692 0.27000001
4.428 -0.91000003 -1.7029999 0.30000001
4.4180002 -0.89300001 -1.698 0.25
4.4229999 -0.88 -1.698 0.11
4.4349999 -0.875 -1.7029999 0.19
4.4200001 -0.85699999 -1.6950001 0.2
4.4200001 -0.84299999 -1.6950001 0.23
4.4489999 -0.83399999 -1.705 0.11
4.4289999 -0.81599998 -1.696 0
4.448 -0.80500001 -1.7029999 0
4.2010002 1.132 -1.679 0.13
4.1900001 1.143 -1.676 0.23
4.1859999 1.156 -1.676 0.17
4.1950002 1.173 -1.681 0.28999999
4.1880002 1.1849999 -1.6799999 0.25
4.1859999 1.199 -1.681 0.23999999
4.1659999 1.207 -1.674 0.34
4.1729999 1.217 -1.678 0.27000001
4.184 1.234 -1.684 0.27000001
4.1570001 1.24 -1.674 0.30000001
4.1719999 1.2589999 -1.682 0.25999999
4.1490002 1.266 -1.674 0.20999999
4.1550002 1.283 -1.678 0.27000001
4.152 1.288 -1.678 0.23999999
4.1459999 1.301 -1.677 0.20999999
4.1500001 1.317 -1.681 0.13
4.1409998 1.3279999 -1.678 0.20999999
4.132 1.339 -1.676 0.19
4.1430001 1.358 -1.683 0.25999999
4.1269999 1.3660001 -1.678 0.2
4.1279998 1.374 -1.679 0.25
4.1240001 1.387 -1.679 0.20999999
4.1170001 1.399 -1.678 0.16
4.1149998 1.413 -1.679 0.31
4.1100001 1.426 -1.679 0.25
4.1079998 1.439 -1.6799999 0.25999999
4.0960002 1.45 -1.677 0.25999999
4.0939999 1.456 -1.677 0.27000001
4.0960002 1.472 -1.6799999 0.2
4.0910001 1.485 -1.6799999 0.27000001
4.0819998 1.495 -1.678 0.22
4.0869999 1.512 -1.682 0.19
4.0840001 1.526 -1.683 0.27000001
4.0679998 1.527 -1.677 0.25
4.0630002 1.54 -1.677 0.25999999
4.0650001 1.5549999 -1.6799999 0.2
4.0689998 1.571 -1.684 0.28
4.0500002 1.5779999 -1.678 0.25
4.0570002 1.596 -1.683 0.25
4.0209999 1.596 -1.669 0.18000001
4.0479999 1.614 -1.682 0.28999999
4.039 1.626 -1.681 0.23999999
4.027 1.636 -1.678 0.2
4.0289998 1.651 -1.681 0.25999999
4.0149999 1.66 -1.677 0.23999999
4.02 1.677 -1.681 0.23
3.993 1.6799999 -1.6720001 0.18000001
4.006 1.693 -1.678 0.28999999
3.997 1.704 -1.677 0.25
4.0019999 1.721 -1.681 0.20999999
3.9979999 1.734 -1.682 0.25
3.9809999 1.742 -1.677 0.23
3.9679999 1.751 -1.674 0.19
3.974 1.761 -1.678 0.25999999
3.967 1.773 -1.677 0.22
3.951 1.781 -1.6720001 0.25
3.951 1.796 -1.675 0.18000001
3.9449999 1.808 -1.675 0.28999999
3.9289999 1.816 -1.67 0.25
3.9289999 1.83 -1.6720001 0.2
3.9319999 1.84 -1.675 0.27000001
3.915 1.846 -1.67 0.23
3.914 1.8609999 -1.6720001 0.18000001
3.9059999 1.873 -1.6720001 0.25999999
3.891 1.88 -1.6670001 0.23
3.888 1.8940001 -1.668 0.2
3.895 1.913 -1.675 0.25
3.8740001 1.91 -1.666 0.23
3.875 1.925 -1.669 0.19
3.8800001 1.943 -1.675 0.25999999
3.8559999 1.946 -1.666 0.22
3.848 1.957 -1.665 0.2
3.8570001 1.977 -1.6720001 0.25
3.829 1.978 -1.6619999 0.23
3.8559999 2 -1.676 0.18000001
3.8440001 2.0090001 -1.674 0.25999999
3.8180001 2.0109999 -1.665 0.22
3.8299999 2.0320001 -1.673 0.2
3.8199999 2.043 -1.6720001 0.23999999
3.806 2.05 -1.668 0.22
3.812 2.069 -1.674 0.18000001
3.8110001 2.076 -1.675 0.30000001
3.7880001 2.079 -1.6670001 0.25
3.7939999 2.098 -1.673 0.27000001
3.793 2.1129999 -1.675 0.20999999
3.77 2.1159999 -1.668 0.25
3.7679999 2.1300001 -1.67 0.22
3.766 2.1370001 -1.671 0.18000001
3.756 2.1470001 -1.669 0.25999999
3.753 2.161 -1.671 0.23
3.7460001 2.1719999 -1.671 0.20999999
3.737 2.1830001 -1.67 0.25
3.7309999 2.1949999 -1.67 0.22
3.721 2.2049999 -1.668 0.19
3.7279999 2.217 -1.674 0.27000001
3.7119999 2.223 -1.669 0.22
3.7030001 2.234 -1.668 0.19
3.704 2.25 -1.6720001 0.25999999
3.7049999 2.267 -1.676 0.23
3.687 2.2720001 -1.671 0.20999999
3.6860001 2.279 -1.6720001 0.25
3.687 2.296 -1.676 0.23
3.6800001 2.3069999 -1.676 0.18000001
3.671 2.3180001 -1.675 0.25999999
3.6670001 2.332 -1.677 0.25
3.6530001 2.339 -1.674 0.25999999
3.632 2.3410001 -1.6670001 0.2
3.6429999 2.3570001 -1.675 0.27000001
3.6359999 2.369 -1.675 0.23999999
3.6289999 2.3800001 -1.675 0.17
3.6259999 2.395 -1.677 0.28
3.6140001 2.4030001 -1.675 0.23
3.595 2.4070001 -1.669 0.18000001
3.608 2.4319999 -1.679 0.27000001
3.5899999 2.428 -1.6720001 0.22
3.579 2.437 -1.671 0.19
3.5869999 2.4590001 -1.678 0.25999999
3.573 2.4660001 -1.675 0.25
3.562 2.4749999 -1.674 0.18000001
3.5650001 2.494 -1.679 0.25999999
3.553 2.5020001 -1.677 0.23
3.549 2.507 -1.677 0.20999999
3.5469999 2.523 -1.6799999 0.25
3.5209999 2.5209999 -1.671 0.23999999
3.529 2.5439999 -1.679 0.17
3.5150001 2.5510001 -1.676 0.25999999
3.5090001 2.563 -1.677 0.22
3.4890001 2.5650001 -1.671 0.18000001
3.507 2.5869999 -1.682 0.28
3.48 2.5829999 -1.6720001 0.23999999
3.4820001 2.602 -1.678 0.18000001
3.4779999 2.6159999 -1.6799999 0.25999999
3.457 2.6170001 -1.673 0.20999999
3.457 2.635 -1.678 0.16
3.4519999 2.648 -1.679 0.28999999
3.4319999 2.641 -1.671 0.22
3.4389999 2.664 -1.679 0.20999999
3.428 2.6730001 -1.678 0.25
3.418 2.6819999 -1.677 0.23999999
3.405 2.6900001 -1.675 0.16
3.4130001 2.7130001 -1.683 0.28999999
3.3940001 2.707 -1.675 0.23
3.3829999 2.7149999 -1.674 0.19
3.3859999 2.7349999 -1.6799999 0.25999999
3.3659999 2.7360001 -1.674 0.23999999
3.3670001 2.7550001 -1.679 0.22
3.3640001 2.77 -1.682 0.25
3.3469999 2.7739999 -1.678 0.23
3.352 2.7869999 -1.683 0.23999999
3.3380001 2.793 -1.6799999 0.20999999
3.325 2.8 -1.678 0.27000001
3.3180001 2.812 -1.678 0.25
3.3099999 2.823 -1.679 0.19
3.3069999 2.839 -1.682 0.27000001
3.293 2.835 -1.677 0.25
3.2780001 2.8410001 -1.674 0.25
3.2690001 2.8510001 -1.674 0.20999999
3.2709999 2.8710001 -1.6799999 0.27000001
3.2609999 2.8800001 -1.679 0.23999999
3.2420001 2.882 -1.674 0.25
3.237 2.8959999 -1.676 0.25999999
3.234 2.902 -1.677 0.19
3.2279999 2.915 -1.678 0.27000001
3.217 2.9230001 -1.678 0.23999999
3.204 2.9300001 -1.675 0.2
3.197 2.9419999 -1.677 0.25999999
3.1800001 2.9449999 -1.6720001 0.23
3.177 2.961 -1.676 0.27000001
3.1700001 2.964 -1.675 0.28
3.1630001 2.9760001 -1.676 0.25999999
3.155 2.987 -1.677 0.19
3.1459999 2.997 -1.677 0.25999999
3.131 3.0020001 -1.674 0.25
3.1240001 3.0139999 -1.675 0.25
3.1240001 3.033 -1.681 0.23
3.108 3.026 -1.674 0.18000001
3.1070001 3.0450001 -1.679 0.28
3.0869999 3.0439999 -1.673 0.25
3.0840001 3.0610001 -1.677 0.20999999
3.076 3.072 -1.678 0.27000001
3.0599999 3.075 -1.674 0.25
3.0510001 3.086 -1.675 0.2
3.05 3.0940001 -1.677 0.36000001
3.0380001 3.1010001 -1.675 0.31999999
3.04 3.1229999 -1.682 0.25
3.017 3.119 -1.675 0.30000001
3.007 3.1289999 -1.675 0.28999999
3.0050001 3.1459999 -1.679 0.25
2.9860001 3.1459999 -1.674 0.20999999
2.983 3.152 -1.675 0.38
2.98 3.1700001 -1.679 0.34999999
2.9679999 3.1760001 -1.678 0.30000001
2.9619999 3.1900001 -1.6799999 0.25
2.9419999 3.188 -1.674 0.23
2.9389999 3.2049999 -1.678 0.25999999
2.925 3.2 -1.673 0.25
2.9200001 3.2149999 -1.676 0.19
2.911 3.2260001 -1.677 0.27000001
2.905 3.2390001 -1.679 0.22
2.882 3.234 -1.6720001 0.2
2.8789999 3.2509999 -1.676 0.30000001
2.872 3.263 -1.678 0.20999999
2.8699999 3.2720001 -1.6799999 0.30000001
2.845 3.2639999 -1.671 0.23
2.8510001 3.2909999 -1.681 0.27000001
2.8280001 3.286 -1.673 0.25
2.8180001 3.2950001 -1.673 0.25999999
2.8080001 3.3039999 -1.673 0.25
2.7969999 3.313 -1.673 0.25999999
2.7920001 3.3169999 -1.673 0.25999999
2.7839999 3.329 -1.675 0.25
2.7739999 3.3369999 -1.675 0.2
2.7620001 3.345 -1.674 0.27000001
2.7479999 3.349 -1.6720001 0.23999999
2.7479999 3.3710001 -1.678 0.23999999
2.7349999 3.3759999 -1.677 0.17
2.727 3.378 -1.675 0.31999999
2.7179999 3.388 -1.676 0.23
2.7149999 3.4059999 -1.681 0.23999999
2.691 3.3970001 -1.6720001 0.20999999
2.691 3.421 -1.6799999 0.27000001
2.674 3.4200001 -1.675 0.23
2.6619999 3.427 -1.675 0.28
2.6589999 3.434 -1.676 0.28999999
2.6489999 3.444 -1.677 0.19
2.641 3.4549999 -1.678 0.28
2.622 3.4530001 -1.673 0.25
2.6240001 3.4790001 -1.682 0.23
2.6029999 3.474 -1.675 0.22
2.596 3.487 -1.678 0.27000001
2.5810001 3.477 -1.671 0.25
2.5769999 3.4960001 -1.676 0.25999999
2.569 3.5079999 -1.678 0.25999999
2.5539999 3.5109999 -1.675 0.22
2.5450001 3.5220001 -1.677 0.2
2.5369999 3.5339999 -1.679 0.30000001
2.5309999 3.5369999 -1.678 0.25
2.5120001 3.5339999 -1.673 0.19
2.5120001 3.5569999 -1.681 0.28
2.4949999 3.5569999 -1.677 0.25
2.4920001 3.5769999 -1.683 0.23999999
2.4649999 3.562 -1.6720001 0.2
2.4690001 3.5910001 -1.682 0.30000001
2.4530001 3.5799999 -1.675 0.25
2.451 3.6010001 -1.681 0.25999999
2.448 3.6210001 -1.688 0.23999999
2.425 3.612 -1.679 0.17
2.4130001 3.618 -1.678 0.30000001
2.4030001 3.6289999 -1.6799999 0.25
2.391 3.635 -1.679 0.27000001
2.3870001 3.642 -1.681 0.27000001
2.3800001 3.655 -1.684 0.23
2.3659999 3.6600001 -1.682 0.30000001
2.3440001 3.6500001 -1.674 0.27000001
2.3399999 3.6700001 -1.6799999 0.28
2.3269999 3.674 -1.678 0.25
2.312 3.6760001 -1.676 0.2
2.316 3.6960001 -1.684 0.28
2.2980001 3.6919999 -1.678 0.25
2.2850001 3.698 -1.678 0.25
2.2720001 3.7019999 -1.676 0.20999999
2.2690001 3.723 -1.683 0.27000001
2.2490001 3.717 -1.677 0.25
2.2490001 3.744 -1.686 0.23
2.2379999 3.7379999 -1.681 0.30000001
2.221 3.737 -1.678 0.28
2.2179999 3.7579999 -1.684 0.27000001
2.201 3.757 -1.681 0.25999999
2.191 3.767 -1.682 0.28
2.177 3.7690001 -1.6799999 0.2
2.165 3.776 -1.6799999 0.41
2.155 3.773 -1.677 0.27000001
2.1530001 3.7969999 -1.6849999 0.27000001
2.138 3.7980001 -1.682 0.27000001
2.1229999 3.799 -1.6799999 0.25999999
2.115 3.813 -1.683 0.25999999
2.099 3.813 -1.6799999 0.28
2.0940001 3.8180001 -1.681 0.22
2.085 3.829 -1.683 0.25
2.073 3.836 -1.683 0.37
2.0610001 3.842 -1.683 0.30000001
2.049 3.849 -1.683 0.34
2.0369999 3.8570001 -1.684 0.41
2.0239999 3.8599999 -1.682 0.20999999
2.01 3.848 -1.675 0.34
1.9960001 3.8510001 -1.674 0.40000001
1.998 3.885 -1.687 0.36000001
1.9859999 3.892 -1.687 0.25
1.979 3.908 -1.691 0.37
1.961 3.902 -1.686 0.31999999
1.949 3.9100001 -1.687 0.27000001
1.941 3.908 -1.684 0.19
1.936 3.9289999 -1.691 0.27000001
1.914 3.9170001 -1.683 0.25
1.902 3.9230001 -1.683 0.19
1.895 3.941 -1.688 0.28
1.88 3.9400001 -1.6849999 0.23999999
1.8099999 3.822 -1.6289999 0.13
1.714 3.632 -1.541 0.28999999
1.698 3.6270001 -1.536 0.11
1.686 3.631 -1.536 0.30000001
1.812 3.9389999 -1.673 0.20999999
1.8049999 3.9579999 -1.679 0.23
1.7970001 3.974 -1.684 0.23999999
1.7920001 3.9949999 -1.691 0.2
1.786 3.9990001 -1.691 0.25999999
1.77 3.997 -1.688 0.25
1.763 4.0159998 -1.694 0.22
1.748 4.0159998 -1.691 0.14
1.7180001 3.9790001 -1.6720001 0.2
1.72 4.02 -1.688 0.23999999
1.715 4.0440001 -1.697 0.27000001
1.701 4.027 -1.688 0.25
1.693 4.0440001 -1.693 0.25
1.6619999 4.0050001 -1.673 0.16
1.6670001 4.053 -1.692 0.20999999
1.653 4.0560002 -1.691 0.43000001
1.642 4.0650001 -1.693 0.27000001
1.626 4.0630002 -1.6900001 0.16
1.575 3.95 -1.6390001 0.17
1.589 4.0240002 -1.669 0.16
1.5369999 3.9260001 -1.623 0.07
1.515 3.9059999 -1.613 0
1.421 3.6949999 -1.517 0.050000001
1.48 3.888 -1.601 0.15000001
1.456 3.8599999 -1.586 0.23999999
1.464 3.902 -1.604 0.18000001
1.492 4.0159998 -1.652 0.22
1.503 4.0869999 -1.681 0.20999999
1.485 4.0760002 -1.674 0.25
1.3099999 3.622 -1.473 0.16
1.24 3.46 -1.401 0.34
1.1160001 3.122 -1.252 0.19
1.062 2.9960001 -1.1950001 0.31
1.054 3.003 -1.197 0.40000001
1.04 2.994 -1.191 0.34
1.023 2.974 -1.181 0.34
1.0089999 2.9649999 -1.176 0.36000001
1.005 2.9820001 -1.182 0.37
0.99000001 2.97 -1.175 0.38
0.98199999 2.9590001 -1.17 0.34
0.96499997 2.9389999 -1.16 0.34
0.95099998 2.9260001 -1.153 0.38999999
0.94400001 2.938 -1.1569999 0.38
0.94099998 2.961 -1.165 0.34999999
0.92699999 2.948 -1.159 0.34999999
0.91900003 2.954 -1.16 0.37
0.91500002 2.9590001 -1.1619999 0.43000001
0.90100002 2.9460001 -1.155 0.38
0.88999999 2.9430001 -1.152 0.34
0.88800001 2.9690001 -1.1619999 0.34
0.88 2.9790001 -1.165 0.38
0.875 2.994 -1.171 0.38999999
0.88499999 3.0510001 -1.194 0.20999999
0.90499997 3.1589999 -1.239 0.41
0.89499998 3.1600001 -1.239 0.36000001
0.88499999 3.164 -1.239 0.30000001
0.87199998 3.1559999 -1.235 0.41
0.86500001 3.168 -1.239 0.38999999
0.85399997 3.1689999 -1.238 0.38999999
0.84799999 3.165 -1.2359999 0.38
0.83899999 3.1689999 -1.2359999 0.38
0.83200002 3.1860001 -1.243 0.38
0.82300001 3.1930001 -1.244 0.38999999
0.81699997 3.2130001 -1.252 0.34
0.80800003 3.217 -1.252 0.44
0.79699999 3.2160001 -1.251 0.44
1.027 4.2090001 -1.6720001 0.17
1.015 4.2150002 -1.673 0.28999999
1.003 4.2220001 -1.675 0.22
0.991 4.2340002 -1.678 0.27000001
0.97500002 4.2249999 -1.673 0.19
0.96499997 4.2420001 -1.679 0.25999999
0.94999999 4.2360001 -1.675 0.25
0.94199997 4.23 -1.6720001 0
0.92799997 4.2329998 -1.6720001 0
0.76200002 3.507 -1.365 0.07
0.74699998 3.4909999 -1.357 0.22
0.72899997 3.4590001 -1.3430001 0.25999999
0.71399999 3.4400001 -1.3329999 0.059999999
0.70499998 3.451 -1.337 0.14
0.85600001 4.2519999 -1.674 0.18000001
0.84600002 4.2750001 -1.682 0.28
0.829 4.256 -1.673 0.23
0.81800002 4.2709999 -1.678 0.20999999
0.80599999 4.2810001 -1.681 0.13
0.78299999 4.2329998 -1.66 0.17
0.77200001 4.2480001 -1.665 0.23
0.76999998 4.2779999 -1.678 0.23
0.75700003 4.2800002 -1.678 0.25
0.74299997 4.277 -1.675 0.27000001
0.73000002 4.2870002 -1.678 0.23999999
0.71700001 4.289 -1.678 0.20999999
0.70499998 4.302 -1.683 0.14
0.60600001 3.71 -1.4349999 0.14
0.68300003 4.2969999 -1.679 0.25
0.625 4.0009999 -1.5549999 0.039999999
0.51999998 3.368 -1.29 0.07
0.51099998 3.381 -1.294 0.11
0.63099998 4.3140001 -1.683 0.25999999
0.498 3.4460001 -1.3200001 0.18000001
0.602 4.303 -1.677 0
0.59100002 4.277 -1.665 0.14
0.46900001 3.431 -1.313 0.050000001
0.46000001 3.451 -1.3200001 0.16
0.55699998 4.3319998 -1.686 0.11
0.53399998 4.2529998 -1.652 0.090000004
0.52899998 4.3330002 -1.6849999 0.16
0.51499999 4.3239999 -1.681 0.22
0.509 4.3340001 -1.684 0.14
0.495 4.335 -1.684 0.18000001
0.47799999 4.3000002 -1.669 0.050000001
0.465 4.3109999 -1.673 0.16
0.454 4.3319998 -1.681 0.18000001
0.44100001 4.349 -1.688 0.28
0.43399999 4.3400002 -1.684 0.23999999
0.421 4.3470001 -1.686 0.23
0.40799999 4.3590002 -1.691 0.14
0.39300001 4.3460002 -1.684 0.14
0.38 4.3559999 -1.688 0.23
0.36500001 4.3449998 -1.683 0.23999999
0.35299999 4.3590002 -1.688 0.20999999
0.345 4.342 -1.681 0.050000001
0.329 4.3140001 -1.669 0.15000001
0.31799999 4.3520002 -1.684 0.19
0.30500001 4.3660002 -1.6900001 0.27000001
0.29100001 4.3629999 -1.688 0.23
0.27599999 4.3439999 -1.6799999 0.17
0.264 4.3649998 -1.688 0.28999999
0.257 4.369 -1.6900001 0.20999999
0.243 4.368 -1.689 0
0.227 4.3109999 -1.665 0.050000001
0.17 3.309 -1.251 0.11
0.15899999 3.2909999 -1.243 0.2
0.14300001 3.1570001 -1.188 0.07
0.138 3.296 -1.245 0.11
0.168 4.375 -1.691 0.23
0.154 4.3660002 -1.687 0.23999999
0.14 4.3709998 -1.688 0.18000001
0.126 4.3769999 -1.691 0.27000001
0.112 4.3639998 -1.6849999 0.23999999
0.098999999 4.3660002 -1.686 0.19
0.085000001 4.3829999 -1.693 0.25999999
0.078000002 4.3649998 -1.6849999 0.23
0.064999998 4.3699999 -1.688 0.18000001
0.050999999 4.3779998 -1.691 0.25999999
0.037 4.3860002 -1.694 0.20999999
0.023 4.3709998 -1.688 0.22
0.0099999998 4.388 -1.694 0.28
-0.0040000002 4.369 -1.687 0.22
-0.011 4.3800001 -1.691 0.2
-0.025 4.3889999 -1.6950001 0.25
-0.039000001 4.3759999 -1.6900001 0.23
-0.052000001 4.3670001 -1.686 0.18000001
-0.066 4.3870001 -1.694 0.25999999
-0.079999998 4.3759999 -1.6900001 0.25
-0.093999997 4.3850002 -1.694 0.2
-0.101 4.3850002 -1.694 0.25
-0.115 4.3860002 -1.694 0.22
-0.12800001 4.382 -1.693 0.2
-0.142 4.3889999 -1.696 0.25
-0.156 4.381 -1.693 0.20999999
-0.17 4.3940001 -1.698 0.25
-0.183 4.3860002 -1.6950001 0.25
-0.19 4.3829999 -1.694 0.18000001
-0.204 4.3899999 -1.697 0.25
-0.21799999 4.3800001 -1.694 0.23
-0.23100001 4.3779998 -1.693 0.18000001
-0.24600001 4.3860002 -1.697 0.25999999
-0.259 4.3779998 -1.694 0.23
-0.266 4.3779998 -1.694 0.28999999
-0.27900001 4.3730001 -1.692 0.18000001
