# .PCD v0.7 - Point Cloud Data file format
VERSION 0.7
FIELDS x y z intensity
SIZE 4 4 4 4
TYPE F F F F
COUNT 1 1 1 1
WIDTH 1479
HEIGHT 1
VIEWPOINT 0 0 0 1 0 0 0
POINTS 1479
DATA ascii
44.014 -41.591999 1.5880001 0
44.048 -41.362999 1.585 0
44.101002 -41.283001 1.584 0
44.25 -41.161999 1.585 0
44.250999 -40.903999 1.581 0
44.261002 -40.657001 1.577 0
44.263 -40.403 1.573 0
44.263 -40.147999 1.569 0
44.209999 -39.973999 1.566 0
44.215 -39.727001 1.562 0
44.229 -39.488998 1.559 0
44.23 -39.242001 1.5549999 0
44.235001 -38.998001 1.551 0
44.235001 -38.751999 1.548 0
44.251999 -38.521999 1.545 0
21.74 -18.645 0.861 0.57999998
21.653999 -18.452999 0.85600001 0.12
18.533001 -15.599 0.75999999 0.60000002
18.466999 -15.444 0.75700003 0.19
15.486 -12.752 0.66500002 0.68000001
15.625 -12.784 0.66799998 0
15.572 -12.659 0.66500002 0
44.216999 -35.653999 1.502 0
44.223999 -35.431999 1.499 0
44.174999 -35.278999 1.4960001 0
44.181 -35.056 1.493 0
44.195 -34.841999 1.49 0
44.195 -34.618 1.487 0
44.174 -34.377998 1.483 0
44.026001 -34.041 1.476 0
43.944 -33.757999 1.47 0
44.122002 -33.785 1.474 0
44.144001 -33.582001 1.472 0
44.166 -33.380001 1.469 0
44.153999 -33.153999 1.466 0
44.146999 -32.932999 1.4630001 0
44.159 -32.726002 1.46 0
44.111 -32.583 1.457 0
44.113998 -32.372002 1.455 0
44.124001 -32.166 1.452 0
44.129002 -31.958 1.449 0
44.130001 -31.747999 1.446 0
44.139 -31.544001 1.444 0
44.132999 -31.332001 1.441 0
44.091999 -31.198999 1.438 0
44.099998 -30.997 1.436 0
44.104 -30.792999 1.433 0
44.108002 -30.591 1.431 0
43.928001 -30.261 1.423 0.13
43.868999 -30.018 1.419 0.090000004
44.098999 -29.972 1.423 0.090000004
44.083 -29.861 1.421 0.090000004
44.073002 -29.653 1.418 0.090000004
44.088001 -29.462 1.416 0.090000004
44.087002 -29.261 1.413 0.090000004
44.109001 -29.077 1.4119999 0.14
44.091 -28.867001 1.409 0.090000004
44.104 -28.677999 1.406 0.090000004
44.063999 -28.552999 1.404 0.090000004
44.068001 -28.360001 1.402 0.090000004
44.078999 -28.171 1.4 0.14
44.081001 -27.978001 1.397 0.090000004
44.076 -27.781 1.395 0.090000004
44.080002 -27.591 1.393 0.090000004
44.088001 -27.403 1.391 0.090000004
44.050999 -27.285 1.388 0.090000004
44.049999 -27.093 1.386 0.090000004
44.068001 -26.914 1.3839999 0.15000001
44.057999 -26.718 1.382 0.090000004
43.810001 -26.379999 1.373 0
43.813 -26.195 1.3710001 0
43.823002 -26.014 1.369 0
43.771 -25.889999 1.367 0.12
21.517 -12.561 0.77600002 0.16
21.507 -12.464 0.77399999 0.60000002
21.464001 -12.35 0.77200001 0
43.780998 -24.976999 1.3559999 0
43.779999 -24.794001 1.354 0
43.737 -24.497999 1.35 0.029999999
43.757999 -24.33 1.349 0.15000001
43.757 -24.15 1.347 0.12
43.764 -23.975 1.345 0.16
43.762001 -23.795 1.3430001 0.12
43.733002 -23.690001 1.341 0.16
43.742001 -23.518 1.339 0.28
43.741001 -23.341 1.337 0.27000001
43.750999 -23.17 1.336 0.19
43.742001 -22.989 1.334 0.090000004
43.956001 -22.926001 1.337 0.17
43.521 -22.525999 1.324 0.25
43.388 -22.370001 1.3200001 0.11
43.41 -22.209 1.319 0
43.688 -22.179001 1.324 0.13
43.997002 -22.162001 1.33 0.090000004
44.314999 -22.148001 1.337 0.079999998
44.632999 -22.132 1.3430001 0.090000004
44.974998 -22.125 1.35 0.090000004
45.287998 -22.191 1.357 0
45.601002 -22.166 1.363 0
45.672001 -22.024 1.363 0.12
45.678001 -21.85 1.362 0.12
45.688 -21.679001 1.36 0
45.671001 -21.495001 1.358 0
38.105 -17.792999 1.166 0.11
45.653999 -21.225 1.355 0.30000001
45.659 -21.052999 1.353 0.2
45.669998 -20.885 1.352 0.17
45.653999 -20.704 1.35 0.13
45.646999 -20.528999 1.348 0.17
45.659 -20.362 1.347 0.20999999
45.633999 -20.264999 1.346 0.18000001
45.637001 -20.094999 1.344 0.20999999
45.645 -19.927 1.3430001 0.17
45.637001 -19.754 1.341 0.31
45.647999 -19.587999 1.34 0.2
45.634998 -19.413 1.3380001 0.18000001
45.639 -19.246 1.336 0.20999999
45.603001 -19.146 1.335 0.18000001
45.617001 -18.983999 1.334 0.20999999
45.602001 -18.809999 1.332 0.17
45.612999 -18.646999 1.331 0.31999999
45.612 -18.479 1.329 0.2
45.605 -18.309999 1.3279999 0.18000001
45.603001 -18.143 1.326 0
45.59 -18.055 1.325 0.16
19.253 -7.5710001 0.67900002 0.2
45.582001 -17.721001 1.322 0.16
45.653999 -17.584999 1.323 0.20999999
45.917999 -17.521 1.3279999 0.11
46.375 -17.528 1.337 0.079999998
46.799 -17.52 1.346 0.079999998
47.181 -17.579 1.355 0
47.562 -17.549999 1.363 0
48.022999 -17.549 1.373 0
48.407001 -17.517 1.381 0
48.763 -17.473 1.388 0
39.987 -14.192 1.175 0
49.676998 -17.448 1.4069999 0
50.131001 -17.518999 1.418 0
50.588001 -17.500999 1.427 0
50.950001 -17.445999 1.4349999 0.039999999
40.652 -13.783 1.186 0
41.032001 -13.768 1.194 0
41.084999 -13.643 1.194 0
52.991001 -17.403 1.479 0
53.433998 -17.455999 1.489 0
53.978001 -17.445999 1.5 0
54.497002 -17.424999 1.511 0
54.784 -17.327 1.517 0
36.744999 -11.377 1.084 0
37.861 -11.591 1.11 0
55.976002 -17.028 1.541 0
37.861 -11.267 1.108 0
57.001999 -16.365999 1.559 0
43.064999 -11.861 1.226 0
41.757 -11.36 1.194 0
43.108002 -11.581 1.225 0.039999999
39.155998 -10.391 1.131 0.17
39.141998 -10.255 1.13 0.27000001
39.137001 -10.188 1.1289999 0.2
39.088001 -10.044 1.127 0.1
39.039001 -9.9020004 1.126 0.15000001
38.966 -9.7530003 1.123 0.12
39.089001 -9.6529999 1.125 0
39.352001 -9.5869999 1.131 0
39.424999 -9.474 1.132 0
39.409 -9.4040003 1.131 0
39.228001 -9.2309999 1.126 0.07
39.179001 -9.0900002 1.124 0.16
39.183998 -8.9610004 1.124 0.2
39.185001 -8.8319998 1.123 0
39.220001 -8.7110004 1.123 0
44.075001 -9.7130003 1.2359999 0
42.294998 -9.1829996 1.194 0
43.104 -9.2159996 1.212 0
44.287998 -9.323 1.239 0
63.570999 -13.162 1.687 0
64.470001 -13.137 1.707 0
41.967999 -8.4239998 1.183 0
41.091 -8.1809998 1.163 0
43.384998 -8.4949999 1.215 0
41.310001 -7.9549999 1.166 0
43.695 -8.2709999 1.221 0
41.744999 -7.7670002 1.175 0
41.780998 -7.638 1.176 0
37.423 -6.723 1.074 0
44.445999 -7.9070001 1.2359999 0
42.618999 -7.4450002 1.194 0
42.942001 -7.3629999 1.201 0
42.584 -7.164 1.192 0
42.609001 -7.0300002 1.192 0
42.620998 -6.895 1.192 0
42.414001 -6.7930002 1.187 0.07
42.346001 -6.6459999 1.1849999 0
42.307999 -6.5040002 1.183 0
43.93 -6.6110001 1.22 0
42.492001 -6.2589998 1.187 0.029999999
44.073002 -6.3499999 1.222 0
44.125 -6.2160001 1.223 0
43.98 -6.125 1.22 0
59.963001 -8.1490002 1.587 0
60.105 -7.9759998 1.589 0
63.064999 -8.1660004 1.6569999 0
63.124001 -7.9720001 1.6569999 0
63.220001 -7.783 1.659 0
39.313 -4.724 1.11 0
39.207001 -4.6490002 1.108 0
39.189999 -4.5219998 1.107 0
63.491001 -7.1079998 1.663 0.090000004
40.352001 -4.3990002 1.133 0
64.056999 -6.7639999 1.675 0
44.013 -4.5159998 1.216 0
43.897999 -4.3649998 1.2130001 0
44.158001 -4.3210001 1.219 0
44.507 -4.2140002 1.227 0
65.033997 -5.9390001 1.696 0
65.286003 -5.7550001 1.701 0
66.362999 -5.6389999 1.725 0
71.894997 -5.8800001 1.851 0
72.147003 -5.6719999 1.857 0
72.327003 -5.572 1.86 0
72.532997 -5.3590002 1.865 0
41.451 10.08 0.85699999 0.63999999
41.348999 10.193 0.85600001 0
66.447998 17.587 1.253 0
71.916 19.881001 1.3430001 0
71.913002 20.122999 1.344 0
71.913002 20.367001 1.345 0
71.898003 20.607 1.346 0
71.889 20.849001 1.346 0
71.922997 20.981001 1.347 0
68.427002 20.195999 1.293 0
68.204002 20.364 1.291 0
68.194 20.594 1.291 0
68.188004 20.826 1.2920001 0
68.189003 21.061001 1.293 0
68.18 21.292999 1.294 0
68.210999 21.42 1.295 0
68.205002 21.653999 1.296 0
71.899002 23.073999 1.3559999 0
71.880997 23.318001 1.357 0
71.874001 23.565001 1.358 0
64.398003 21.341 1.24 0
71.849998 24.058001 1.36 0
71.884003 24.195 1.362 0
72.632004 24.701 1.375 0
72.572998 26.346001 1.382 0
72.209 26.729 1.3789999 0
71.611 26.764 1.3710001 0
71.658997 27.039 1.373 0.090000004
55.696999 21.222 1.114 0
69.007004 26.659 1.3329999 0
68.401001 26.673 1.325 0
67.768997 26.673 1.316 0
67.392998 26.768999 1.311 0
51.528999 20.85 1.053 0.14
51.501999 20.933001 1.053 0
64.866997 26.596001 1.274 0
64.110001 26.757999 1.265 0.12
47.881001 20.169001 0.99800003 0.28999999
47.773998 20.299999 0.99699998 0.51999998
47.875999 20.431999 1 0
47.852001 20.6 1 0.090000004
47.863998 20.784 1.002 0.090000004
63.867001 27.962 1.268 0.079999998
63.842999 28.190001 1.2690001 0.17
63.847 28.431999 1.271 0.28
63.842999 28.671 1.272 0.19
63.875 28.806 1.274 0.18000001
63.868999 29.045 1.275 0.12
63.858002 29.283001 1.276 0.17
63.845001 29.52 1.278 0.12
63.827 29.754999 1.279 0.17
63.841 30.006001 1.281 0.28999999
63.819 30.240999 1.2819999 0
55.529999 26.424 1.143 0
55.127998 26.445 1.138 0
54.683998 26.444 1.132 0
54.257999 26.448999 1.126 0
53.837002 26.452999 1.12 0
53.426998 26.461 1.115 0
53.014 26.465 1.109 0
52.653 26.388 1.104 0
52.229 26.381001 1.098 0
51.851002 26.395 1.0930001 0
51.458 26.399 1.0880001 0
51.056999 26.396999 1.082 0
50.699001 26.414 1.077 0
50.299 26.407 1.072 0
38.630001 20.365 0.87199998 0.13
38.528 20.466 0.87099999 0
38.509998 20.612 0.87199998 0
48.873001 26.348 1.052 0
48.532001 26.362 1.048 0
48.194 26.375 1.043 0
47.824001 26.368 1.038 0
47.525002 26.301001 1.034 0.13
47.389999 26.421 1.033 0.17
39.049 21.937 0.889 0.23
38.798 21.957001 0.88599998 0.16
38.799 22.118 0.88700002 0.36000001
38.785999 22.273001 0.88800001 0.2
38.782001 22.433001 0.889 0.37
38.799 22.524 0.88999999 0
38.779999 22.676001 0.89099997 0
38.791 22.846001 0.89300001 0.1
38.791 23.011 0.89399999 0.23
38.773998 23.165001 0.89499998 0.18000001
38.769001 23.327999 0.89600003 0
31.580999 19.076 0.76899999 0
47.091999 28.632999 1.046 0
47.064999 28.819 1.0470001 0
47.075001 29.028999 1.049 0
47.067001 29.228001 1.051 0
47.056 29.426001 1.052 0
47.042999 29.624001 1.053 0
47.084 29.754 1.0549999 0
47.083 29.959999 1.057 0
47.057999 30.152 1.058 0
47.043999 30.351999 1.059 0
30.339001 19.721001 0.75800002 0
47.000999 30.743999 1.062 0
47.011002 30.962 1.064 0
47.061001 31.101 1.066 0
47.060001 31.313 1.068 0
47.046001 31.517 1.069 0
47.041 31.729 1.071 0
47.035 31.940001 1.073 0
47.035999 32.157001 1.074 0.039999999
39.596001 27.534 0.94099998 0.88999999
39.185001 27.431 0.935 0.81999999
39.242001 27.656 0.93800002 0
46.969002 33.316002 1.084 0
46.993999 33.556 1.086 0
47.008999 33.790001 1.0880001 0
47.027 33.915001 1.09 0
47.015999 34.132 1.092 0
47.018002 34.360001 1.094 0
47.005001 34.577 1.095 0
39.123001 28.975 0.94800001 0
38.877998 28.983 0.94499999 0
38.626999 28.985001 0.94199997 0
38.408001 28.916 0.93900001 0
38.162998 28.919001 0.93599999 0
37.935001 28.934999 0.93400002 0
37.679001 28.927 0.93000001 0
37.446999 28.936001 0.92799997 0
37.207001 28.938999 0.92500001 0
36.963001 28.936001 0.92199999 0
36.785999 28.889999 0.91900003 0
36.542999 28.885 0.91600001 0
36.339001 28.910999 0.91399997 0
36.119999 28.922001 0.912 0
35.900002 28.931 0.90899998 0
35.644001 28.910999 0.90600002 0
35.459 28.853001 0.903 0
35.245998 28.864 0.90100002 0
35.014 28.858999 0.898 0
34.803001 28.870001 0.89600003 0
34.580002 28.868999 0.89300001 0
34.359001 28.868 0.88999999 0
34.157001 28.881001 0.88800001 0
33.981998 28.825001 0.88599998 0
33.768002 28.827 0.88300002 0
33.556 28.827999 0.88099998 0
33.382 28.862 0.87900001 0
33.169998 28.862 0.87699997 0
32.962002 28.863001 0.87400001 0
32.766998 28.875 0.87199998 0
32.575001 28.797001 0.86900002 0
32.380001 28.806 0.86699998 0
32.18 28.809999 0.86500001 0
31.978001 28.811001 0.86199999 0
31.790001 28.823 0.86000001 0
31.587 28.82 0.85799998 0
31.388 28.820999 0.85600001 0
31.243999 28.778999 0.85399997 0
31.056999 28.788 0.852 0
30.865 28.791 0.85000002 0
30.677 28.796 0.84799999 0
30.495001 28.806 0.84600002 0
30.32 28.822001 0.84399998 0
30.129999 28.820999 0.84200001 0
29.992001 28.780001 0.83999997 0
29.801001 28.777 0.838 0
29.594 28.757999 0.83499998 0
29.422001 28.771 0.83399999 0
29.238001 28.771999 0.83200002 0
29.058001 28.775 0.82999998 0
28.874001 28.773001 0.82800001 0
28.747 28.737 0.82599998 0
28.569 28.739 0.824 0
28.389999 28.739 0.82200003 0
28.214001 28.740999 0.81999999 0
28.045 28.749001 0.81900001 0
27.874001 28.754 0.81699997 0
27.698999 28.754 0.815 0
27.579 28.719 0.81300002 0
27.436001 28.750999 0.81199998 0
27.261999 28.749001 0.81 0
27.093 28.750999 0.80900002 0
26.924999 28.753 0.80699998 0
26.756001 28.754 0.80500001 0
26.568001 28.732 0.80299997 0
26.454 28.698999 0.801 0
26.292 28.704 0.80000001 0
26.125 28.702 0.79799998 0
25.966 28.708 0.79699999 0
25.827999 28.736 0.79500002 0
25.658001 28.729 0.79400003 0
25.502001 28.735001 0.792 0
25.395 28.705999 0.79100001 0
25.23 28.700001 0.78899997 0
25.077999 28.709 0.78799999 0
24.923 28.712999 0.78600001 0
24.764999 28.712999 0.78500003 0
24.596001 28.700001 0.78299999 0
24.455 28.716999 0.78200001 0
24.351999 28.687 0.77999997 0
24.193001 28.683001 0.77899998 0
24.061001 28.708 0.778 0
23.908001 28.708 0.77600002 0
23.761 28.715 0.77499998 0
23.601999 28.705999 0.773 0
23.450001 28.705 0.77200001 0
23.348 28.672001 0.76999998 0
23.177 28.645 0.76800001 0
23.051001 28.673 0.76700002 0
22.893 28.660999 0.76599997 0
22.756001 28.673 0.76499999 0
22.598 28.66 0.76300001 0
22.466 28.677 0.76200002 0
22.355 28.627001 0.75999999 0
22.214001 28.632999 0.759 0
22.086 28.653 0.75800002 0
21.934 28.641001 0.75700003 0
19.531 25.841999 0.69999999 0
21.511 28.643999 0.75300002 0
21.437 28.639 0.75199997 0
21.309999 28.657 0.75099999 0
21.155001 28.636999 0.74900001 0
21.040001 28.669001 0.74900001 0
20.888 28.65 0.74699998 0
20.754999 28.657 0.74599999 0.079999998
20.603001 28.636 0.74400002 0.079999998
20.511999 28.603001 0.74299997 0.090000004
20.372 28.598 0.74199998 0.090000004
20.239 28.601 0.741 0.090000004
20.115 28.615 0.74000001 0.14
19.976 28.610001 0.73900002 0.090000004
19.851999 28.622999 0.73799998 0.14
19.712 28.613001 0.736 0.090000004
19.629 28.587999 0.73500001 0.14
19.496 28.587 0.73400003 0.090000004
19.361 28.580999 0.73299998 0.15000001
19.239 28.594 0.73199999 0.090000004
19.108 28.593 0.73100001 0.15000001
18.978001 28.593 0.73000002 0.1
18.854 28.601 0.72899997 0.15000001
18.768999 28.57 0.72799999 0.1
18.646999 28.579 0.727 0.15000001
18.523001 28.584999 0.72600001 0.16
18.407 28.603001 0.72500002 0.090000004
18.277 28.598 0.72399998 0.090000004
18.157 28.608 0.72299999 0.090000004
18.032 28.608999 0.722 0.14
17.950001 28.577999 0.72100002 0.090000004
17.837 28.597 0.72000003 0.14
17.711 28.594999 0.71899998 0.22
17.575001 28.576 0.71799999 0.25
17.452999 28.577999 0.71700001 0.25
17.327999 28.575001 0.71600002 0.25
17.208 28.579 0.71499997 0.25999999
17.132 28.555 0.71399999 0.25999999
17.009001 28.554001 0.713 0.25999999
16.893999 28.563999 0.713 0.25999999
16.768999 28.556999 0.71100003 0.11
16.649 28.556999 0.71100003 0.16
16.525 28.551001 0.70999998 0.12
16.407 28.554001 0.70899999 0.17
16.339001 28.540001 0.708 0.12
16.218 28.535 0.70700002 0.17
16.107 28.548 0.70599997 0.12
15.977 28.527 0.70499998 0.17
15.873 28.552 0.70499998 0.30000001
15.755 28.549999 0.704 0.2
15.632 28.539 0.70300001 0.18000001
15.575 28.541 0.70200002 0.31
15.47 28.562 0.70200002 0.2
15.355 28.563999 0.70099998 0.17
15.234 28.554001 0.69999999 0.16
15.123 28.561001 0.699 0.16
15.006 28.556999 0.69800001 0.16
14.898 28.569 0.69800001 0.16
14.827 28.542999 0.69700003 0.17
14.714 28.542999 0.69599998 0.17
14.585 28.514 0.69499999 0.19
14.48 28.530001 0.69400001 0.20999999
14.36 28.514 0.69300002 0.19
14.253 28.525 0.69300002 0.20999999
14.131 28.504 0.69199997 0.2
14.075 28.504 0.69099998 0.22
13.968 28.511999 0.69099998 0.18000001
13.856 28.509001 0.69 0.34
13.744 28.507999 0.68900001 0.19
13.64 28.52 0.68900001 0.34
13.518 28.493999 0.68699998 0.18000001
13.42 28.518999 0.68699998 0.36000001
13.353 28.492001 0.68599999 0.19
13.246 28.497999 0.68599999 0.37
13.129 28.48 0.685 0.2
13.03 28.500999 0.68400002 0.37
12.917 28.489 0.68400002 0.19
12.817 28.507 0.68300003 0.38
12.705 28.496 0.68199998 0.22
12.639 28.469 0.68199998 0.18000001
12.536 28.476999 0.68099999 0.16
12.443 28.509001 0.68099999 0.18000001
12.338 28.513 0.68000001 0.31
12.232 28.513 0.68000001 0.2
12.126 28.513 0.67900002 0.17
12.016 28.503 0.67799997 0.31
11.959 28.492001 0.67799997 0.20999999
11.855 28.496 0.67699999 0.18000001
11.747 28.487 0.676 0.31999999
11.635 28.469999 0.676 0.23
11.538 28.488001 0.67500001 0.23
11.416 28.443001 0.67400002 0.17
11.326 28.479 0.67400002 0.43000001
11.27 28.466999 0.67299998 0.25
11.158 28.445999 0.67299998 0.25
11.055 28.445999 0.67199999 0.25
10.958 28.459999 0.67199999 0.25999999
10.85 28.447001 0.671 0.27000001
10.75 28.451 0.67000002 0.25999999
10.653 28.466 0.67000002 0.27000001
10.59 28.434 0.66900003 0.27000001
10.49 28.437 0.66900003 0.28
10.391 28.444 0.66799998 0.28999999
10.288 28.441 0.66799998 0.28999999
10.19 28.445999 0.667 0.25999999
10.093 28.459 0.667 0.27000001
9.9870005 28.444 0.66600001 0.27000001
9.9329996 28.433001 0.66600001 0.28
9.8369999 28.443001 0.66600001 0.28999999
9.7340002 28.434 0.66500002 0.28999999
9.6389999 28.448 0.66500002 0.28999999
9.5310001 28.423 0.66399997 0.25
9.441 28.451 0.66399997 0.41
9.3389997 28.444 0.66299999 0.23
9.2860003 28.431999 0.66299999 0.18000001
9.1890001 28.438 0.662 0.38999999
9.0880003 28.429001 0.662 0.23
8.9870005 28.421 0.66100001 0.19
8.8959999 28.445999 0.66100001 0.38999999
8.7939997 28.431 0.66000003 0.23999999
8.6969995 28.436001 0.66000003 0.20999999
8.6409998 28.410999 0.65899998 0.28999999
8.5450001 28.415001 0.65899998 0.30000001
8.4440002 28.402 0.65799999 0.30000001
8.3470001 28.403 0.65799999 0.30000001
8.2530003 28.412001 0.65799999 0.31
8.1540003 28.407 0.65700001 0.31
8.059 28.410999 0.65700001 0.31999999
8.007 28.396999 0.65700001 0.31999999
7.9099998 28.395 0.65600002 0.31
7.8140001 28.396999 0.65600002 0.31999999
7.7179999 28.396 0.65499997 0.33000001
7.6209998 28.389 0.65499997 0.28999999
7.526 28.392 0.65499997 0.30000001
7.4770002 28.386 0.65399998 0.33000001
7.3779998 28.375 0.65399998 0.30000001
7.2849998 28.379999 0.653 0.31
7.1929998 28.393 0.653 0.31999999
7.0960002 28.382999 0.653 0.33000001
7 28.378 0.65200001 0.31999999
6.908 28.388 0.65200001 0.34
6.8119998 28.384001 0.65200001 0.34
6.7620001 28.370001 0.65100002 0.33000001
6.6690001 28.377001 0.65100002 0.34
6.573 28.367001 0.65100002 0.34999999
6.4829998 28.382999 0.65100002 0.38
6.3959999 28.413 0.65100002 0.27000001
6.3039999 28.424 0.65100002 0.27000001
6.211 28.424 0.64999998 0.28
6.1599998 28.403999 0.64999998 0.28
6.0679998 28.41 0.64999998 0.28
5.974 28.407 0.64899999 0.28
5.882 28.414 0.64899999 0.28
5.789 28.413 0.64899999 0.28999999
5.6919999 28.395 0.648 0.23
5.5939999 28.368 0.648 0.33000001
5.5450001 28.355 0.64700001 0.33000001
5.4530001 28.355 0.64700001 0.34
5.362 28.364 0.64700001 0.34
5.27 28.365 0.64700001 0.34
5.178 28.364 0.64600003 0.34
5.085 28.358 0.64600003 0.34999999
4.9920001 28.354 0.64600003 0.28999999
4.9460001 28.351999 0.64600003 0.34999999
4.8559999 28.362 0.64499998 0.34999999
4.7610002 28.344999 0.64499998 0.33000001
4.671 28.354 0.64499998 0.33000001
4.5799999 28.357 0.64499998 0.31999999
4.4889998 28.357 0.64399999 0.31999999
4.3979998 28.357 0.64399999 0.31999999
4.3499999 28.344999 0.64399999 0.33000001
4.2589998 28.344 0.64399999 0.34
4.1680002 28.348 0.64399999 0.33000001
4.0780001 28.351 0.64300001 0.34
3.9879999 28.358999 0.64300001 0.33000001
3.8959999 28.35 0.64300001 0.33000001
3.8050001 28.344 0.64300001 0.31999999
3.7579999 28.334 0.64300001 0.31
3.6689999 28.344 0.64200002 0.30000001
3.579 28.349001 0.64200002 0.34
3.4890001 28.353001 0.64200002 0.28999999
3.3970001 28.341999 0.64200002 0.31999999
3.3069999 28.346001 0.64200002 0.31999999
3.2179999 28.356001 0.64200002 0.33000001
3.1719999 28.348 0.64200002 0.31999999
3.082 28.344999 0.64099997 0.31999999
2.9920001 28.349001 0.64099997 0.31
2.901 28.344 0.64099997 0.31
2.812 28.347 0.64099997 0.30000001
2.723 28.354 0.64099997 0.33000001
2.632 28.344999 0.64099997 0.28999999
2.586 28.334999 0.64099997 0.30000001
2.497 28.341 0.64099997 0.28999999
2.4059999 28.334 0.63999999 0.28999999
2.3169999 28.34 0.63999999 0.28999999
2.227 28.330999 0.63999999 0.30000001
2.138 28.336 0.63999999 0.30000001
2.049 28.341 0.63999999 0.30000001
2.003 28.33 0.63999999 0.28999999
1.914 28.33 0.63999999 0.30000001
1.824 28.323999 0.639 0.28
1.734 28.315001 0.639 0.31
1.645 28.319 0.639 0.34999999
1.5549999 28.312 0.639 0.30000001
1.466 28.313 0.639 0.31999999
1.421 28.311001 0.639 0.31999999
1.332 28.313 0.639 0.34
1.243 28.297001 0.639 0.30000001
1.154 28.297001 0.639 0.34999999
1.064 28.284 0.63800001 0.30000001
0.97600001 28.306 0.639 0.36000001
0.88599998 28.291 0.63800001 0.31999999
0.84200001 28.282 0.63800001 0.33000001
0.75300002 28.285999 0.63800001 0.31999999
0.66399997 28.277 0.63800001 0.33000001
0.57499999 28.275 0.63800001 0.36000001
0.486 28.290001 0.63800001 0.36000001
0.39700001 28.282 0.63800001 0.31999999
0.308 28.281 0.63800001 0.34999999
0.264 28.277 0.63800001 0.36000001
0.175 28.271999 0.63800001 0.37
0.086000003 28.275999 0.63800001 0.34
-0.003 28.274 0.63800001 0.34999999
-0.092 28.278 0.63800001 0.38999999
-0.18000001 28.271999 0.63800001 0.38
-0.26899999 28.273001 0.63800001 0.38
-0.31400001 28.271 0.63800001 0.37
-0.403 28.278 0.63800001 0.38
-0.491 28.268 0.63800001 0.36000001
-0.57999998 28.278999 0.63800001 0.36000001
-0.66900003 28.278999 0.63800001 0.36000001
-0.75800002 28.278 0.63800001 0.38999999
-0.847 28.275999 0.63800001 0.36000001
-0.89099997 28.274 0.63800001 0.36000001
-0.98000002 28.267 0.63800001 0.34
-1.069 28.268 0.63800001 0.33000001
-1.158 28.275 0.63800001 0.31999999
-1.248 28.283001 0.63800001 0.37
-1.336 28.275 0.63800001 0.30000001
-1.425 28.267 0.63800001 0.34999999
-1.47 28.271999 0.63800001 0.34
-1.559 28.282 0.639 0.34
-1.649 28.285999 0.639 0.34
-1.737 28.278999 0.639 0.34
-1.826 28.275999 0.639 0.31999999
-1.915 28.274 0.639 0.31999999
-2.0050001 28.275 0.639 0.31
-2.049 28.274 0.639 0.31999999
-2.1389999 28.278 0.639 0.33000001
-2.2290001 28.285 0.639 0.33000001
-2.3169999 28.266001 0.639 0.34
-2.4059999 28.266001 0.639 0.34
-2.4960001 28.271999 0.639 0.33000001
-2.585 28.268 0.63999999 0.34
-2.6300001 28.268 0.63999999 0.30000001
-2.72 28.268 0.63999999 0.34999999
-2.809 28.261 0.63999999 0.31
-2.898 28.257999 0.63999999 0.31999999
-2.9890001 28.267 0.63999999 0.36000001
-3.076 28.243 0.63999999 0.31999999
-3.1670001 28.256001 0.63999999 0.37
-3.2130001 28.26 0.63999999 0.30000001
-3.3010001 28.247999 0.63999999 0.34999999
-3.392 28.252001 0.64099997 0.34999999
-3.4820001 28.257 0.64099997 0.30000001
-3.5710001 28.246 0.64099997 0.34999999
-3.661 28.246 0.64099997 0.30000001
-3.753 28.257999 0.64099997 0.34999999
-3.7969999 28.246 0.64099997 0.34
-3.888 28.25 0.64200002 0.31999999
-3.9790001 28.257999 0.64200002 0.31999999
-4.0689998 28.253 0.64200002 0.34
-4.1589999 28.247999 0.64200002 0.31999999
-4.2509999 28.257 0.64200002 0.31
-4.3400002 28.243 0.64200002 0.31
-4.3850002 28.246 0.64300001 0.30000001
-4.4759998 28.246 0.64300001 0.28999999
-4.5679998 28.247999 0.64300001 0.31999999
-4.658 28.243 0.64300001 0.31
-4.7509999 28.252001 0.64399999 0.31
-4.8390002 28.237 0.64399999 0.30000001
-4.9320002 28.243 0.64399999 0.31
-4.9790001 28.250999 0.64399999 0.30000001
-5.0669999 28.229 0.64399999 0.30000001
-5.158 28.229 0.64399999 0.30000001
-5.2529998 28.243999 0.64499998 0.30000001
-5.3410001 28.228001 0.64499998 0.30000001
-5.4299998 28.212999 0.64499998 0.30000001
-5.527 28.235001 0.64499998 0.30000001
-5.5689998 28.214001 0.64499998 0.28
-5.6599998 28.208 0.64499998 0.28999999
-5.7550001 28.224001 0.64600003 0.28999999
-5.8410001 28.191999 0.64600003 0.25999999
-5.9330001 28.193001 0.64600003 0.23
-6.0009999 28.077999 0.64399999 0.18000001
-8.5349998 39.376999 0.82099998 0.14
-8.5030003 38.929001 0.81400001 0.20999999
-8.6549997 39.039001 0.81599998 0.14
-8.7799997 39.023998 0.81599998 0.25999999
-8.8739996 38.870998 0.81400001 0.22
-8.8559999 38.233002 0.80500001 0.19
-8.9519997 38.104 0.80299997 0.34999999
-9.0640001 38.043999 0.80299997 0.20999999
-9.1969995 38.334999 0.80699998 0.23999999
-9.2919998 38.202999 0.80599999 0.14
-5.902 23.895 0.58200002 0.2
-5.9439998 23.746 0.57999998 0.19
-10.732 42.389 0.87300003 0
-9.7080002 37.834 0.80199999 0
-9.8389997 37.848999 0.80299997 0.090000004
-10.086 38.554001 0.81400001 0.11
-6.3130002 23.785 0.58200002 0.41
-6.1469998 22.868999 0.56800002 0.16
-6.1469998 22.580999 0.56400001 0.23
-6.1750002 22.406 0.56099999 0.33000001
-6.2589998 22.436001 0.56199998 0.38
-6.0170002 21.306 0.54400003 0.27000001
-6.0910001 21.309999 0.54500002 0.25
-6.1420002 21.364 0.546 0.46000001
-6.2280002 21.41 0.54699999 0.30000001
-6.2389998 21.195999 0.54400003 0.31999999
-6.4219999 21.570999 0.55000001 0.34
-6.4949999 21.568001 0.55000001 0.36000001
-6.5609999 21.540001 0.55000001 0.36000001
-6.5799999 21.483999 0.55000001 0.28
-6.6659999 21.521999 0.55000001 0.36000001
-7.1750002 22.916 0.57300001 0.23
-7.1609998 22.622999 0.56900001 0.22
-7.2350001 22.608 0.56900001 0.31
-7.4970002 23.177 0.57800001 0.30000001
-7.5710001 23.159 0.57800001 0.31999999
-7.006 21.311001 0.54900002 0.15000001
-7.0640001 21.26 0.54900002 0.28999999
-7.1209998 21.209999 0.54799998 0.44
-6.9239998 20.407 0.53600001 0.23999999
-6.8670001 20.028999 0.52999997 0.30000001
-6.9200001 19.981001 0.52899998 0.50999999
-6.9850001 19.965 0.52899998 0.28
-8.3109999 23.530001 0.58700001 0.25999999
-8.1750002 23.028999 0.579 0.31
-8.1440001 22.712999 0.57499999 0.28
-8.21 22.674 0.57499999 0.25
-8.1260004 22.222 0.56800002 0.23
-7.75 20.983999 0.54799998 0.34
-7.783 20.871 0.54699999 0.30000001
-7.8709998 20.907 0.54799998 0.31
-8.1940002 21.665001 0.56 0.46000001
-8.2969999 21.731001 0.56199998 0.31999999
-8.3260002 21.601999 0.56 0.28
-8.4359999 21.684 0.56199998 0.40000001
-8.7460003 22.275999 0.57200003 0.2
-8.9879999 22.684999 0.579 0.38999999
-8.8739996 22.191999 0.57099998 0.18000001
-8.6969995 21.648001 0.56300002 0.23
-8.7419996 21.563999 0.56199998 0.41
-8.5880003 20.992001 0.55299997 0.27000001
-8.6160002 20.872999 0.551 0.25
-8.6829996 20.849001 0.551 0.41
-8.7410002 20.805 0.551 0.28
-8.6199999 20.336 0.54400003 0.28
-8.625 20.26 0.54299998 0.44999999
-8.0719995 18.791 0.51899999 0.23999999
-8.8870001 20.517 0.54799998 0.25
-9.0500002 20.715 0.55199999 0.37
-9.0240002 20.479 0.54799998 0.2
-9.2779999 20.879 0.55500001 0.38
-9.3570004 20.879999 0.55599999 0.30000001
-9.3269997 20.725 0.55299997 0.28999999
-9.1540003 20.171 0.54500002 0.41
-9.1499996 19.993 0.542 0.27000001
-9.2360001 20.014999 0.54299998 0.36000001
-9.4540005 20.322001 0.54900002 0.27000001
-9.6599998 20.596001 0.55400002 0.2
-9.552 20.198 0.54799998 0.44999999
-9.526 20.062 0.546 0.34
-9.5749998 20.002001 0.54500002 0.28
-9.5839996 19.860001 0.54299998 0.30000001
-9.684 19.907 0.54400003 0.46000001
-9.5050001 19.382 0.53600001 0.23
-9.5489998 19.318001 0.53600001 0.27000001
-9.5930004 19.256001 0.53500003 0.47
-11.41 22.823999 0.59600002 0.14
-10.837 21.504999 0.574 0.34
-12.557 24.733 0.63 0.18000001
-12.592 24.610001 0.62800002 0.16
-12.622 24.478001 0.62699997 0.47999999
-13.901 26.759001 0.66600001 0.2
-14.008 26.757 0.667 0.18000001
-13.128 24.979 0.63700002 0.34
-12.532 23.660999 0.61500001 0.11
-11.604 21.738001 0.583 0.31999999
-11.543 21.461 0.57800001 0.38999999
-11.538 21.291 0.57599998 0.20999999
-11.713 21.454 0.57999998 0.43000001
-12.74 23.165001 0.61000001 0.23
-12.835 23.250999 0.61199999 0.28999999
-12.856 23.117001 0.61000001 0.28
-11.232 20.042 0.55699998 0.22
-11.269 19.959999 0.55599999 0.28999999
-11.336 19.933001 0.55699998 0.38999999
-11.404 19.906 0.55699998 0.31999999
-11.544 20.004999 0.55900002 0
-38.441002 66.495003 1.376 0
-38.729 66.510002 1.3789999 0
-38.854 66.245003 1.376 0
-38.867001 65.792 1.37 0
-39.026001 65.591003 1.369 0
-23.393 39.016998 0.89999998 0
-23.429001 38.799 0.89700001 0
-23.482 38.474998 0.89300001 0.20999999
-23.579 38.363998 0.89300001 0.20999999
-23.674999 38.248001 0.89200002 0.27000001
-23.804001 38.188999 0.89200002 0.47
-23.938 38.136002 0.89300001 0.17
-14.983 23.686001 0.634 0.40000001
-14.954 23.556999 0.63200003 0.23999999
-15.193 23.77 0.63700002 0.18000001
-14.782 22.966 0.62300003 0.34
-14.798 22.833 0.62199998 0.17
-15.076 23.103001 0.62699997 0
-14.42 21.794001 0.60500002 0.23999999
-14.611 22.007999 0.61000001 0.28
-14.583 21.818001 0.60699999 0.23999999
-14.631 21.74 0.60600001 0.5
-14.832 21.891001 0.61000001 0.19
-16.079 23.575001 0.64200002 0.14
-15.205 22.141001 0.616 0.18000001
-15.588 22.547001 0.625 0.2
-15.485 22.323999 0.62099999 0.2
-15.58 22.311001 0.62199998 0.30000001
-15.772 22.434999 0.625 0.31
-15.936 22.518 0.62699997 0.12
-14.704 20.636 0.59299999 0.20999999
-14.718 20.518 0.59200001 0.5
-14.865 20.587 0.59399998 0.23
-15.916 21.972 0.62 0.27000001
-15.027 20.606001 0.59600002 0.2
-14.981 20.408001 0.59299999 0.18000001
-15.183 20.548 0.59600002 0.19
-15.255 20.51 0.597 0.18000001
-15.677 20.941 0.60600001 0.17
-15.663 20.785999 0.60399997 0.43000001
-15.492 20.490999 0.59799999 0.19
-15.302 20.107 0.59200001 0.34
-15.353 20.042999 0.59200001 0.30000001
-15.469 20.063999 0.59299999 0.23
-15.64 20.153999 0.59600002 0.17
-16.115 20.634001 0.60600001 0.28
-16.280001 20.709999 0.60799998 0.18000001
-16.313 20.686001 0.60799998 0.5
-16.365999 20.618999 0.60799998 0.20999999
-16.337 20.450001 0.60600001 0
-16.488001 20.507 0.60799998 0
-43.616001 53.967999 1.263 0
-43.702 53.728001 1.261 0
-44.035 53.792 1.265 0
-44.310001 53.955002 1.27 0
-44.444 53.771999 1.2690001 0
-44.473 53.465 1.266 0
-44.637001 53.32 1.266 0
-44.702999 53.058998 1.263 0
-49.641998 58.550999 1.375 0
-45.018002 52.757 1.263 0
-45.054001 52.632 1.262 0
-45.188 52.452999 1.261 0
-45.358002 52.317001 1.261 0
-45.397999 52.033001 1.258 0
-45.518002 51.84 1.257 0
-45.875 51.917 1.262 0
-46.409 52.189999 1.27 0
-45.898998 51.452999 1.257 0
-46.848999 52.188 1.275 0
-47.147999 52.191002 1.278 0
-48.219002 52.707001 1.294 0
-48.403999 52.577 1.295 0
-47.150002 50.890999 1.263 0
-47.249001 50.837002 1.2640001 0
-47.379002 50.658001 1.263 0
-47.466999 50.432999 1.261 0
-47.571999 50.227001 1.26 0.059999999
-23.184 24.000999 0.71499997 0.99000001
-23.183001 23.849001 0.71399999 0.99000001
-23.202 23.794001 0.713 0.99000001
-23.295 23.74 0.71399999 0.99000001
-23.393999 23.691999 0.71399999 0.99000001
-23.452 23.601 0.71399999 0.99000001
-23.548 23.549999 0.71399999 0.74000001
-23.841 23.693001 0.71899998 0
-49.241001 48.821999 1.263 0
-49.311001 48.585999 1.261 0
-49.332001 48.301998 1.258 0
-49.396 48.062 1.256 0
-50.351002 48.683998 1.273 0
-47.220001 45.368 1.204 0
-47.433998 45.287998 1.205 0
-47.423 45.134998 1.204 0
-47.492001 44.917 1.202 0
-47.355999 44.507 1.196 0
-47.381001 44.251999 1.194 0
-47.493999 44.077999 1.193 0
-47.716999 44.007999 1.1950001 0
-47.842999 43.847 1.1950001 0
-50.313999 45.678001 1.2410001 0
-50.41 45.477001 1.2410001 0
-55.292999 49.571999 1.337 0
-51.834999 46.175999 1.2640001 0
-51.173 45.298 1.247 0
-55.759998 49.049999 1.337 0
-50.248001 43.918999 1.223 0
-50.313999 43.837002 1.223 0
-50.542 43.757 1.225 0
-50.490002 43.435001 1.221 0
-50.529999 43.194 1.219 0
-51.132999 43.432999 1.228 0
-51.380001 43.365002 1.2309999 0
-51.637001 43.444 1.234 0
-51.450001 43.011002 1.228 0
-51.407001 42.701 1.224 0
-49.101002 40.523998 1.176 0
-49.109001 40.271999 1.174 0
-49.174 40.067001 1.173 0
-49.282001 39.898998 1.1720001 0
-49.362999 39.835999 1.173 0
-50.557999 40.540001 1.194 0
-51.264999 40.842999 1.205 0
-51.361 40.655998 1.204 0
-52.396 41.209 1.222 0
-51.757 40.443001 1.207 0
-50.41 39.134998 1.179 0
-50.431 39.023998 1.178 0
-50.042999 38.473 1.168 0
-50.183998 38.332001 1.168 0
-50.244999 38.129002 1.1670001 0
-50.262001 37.894001 1.165 0
-50.285 37.664001 1.163 0
-51.285 38.162998 1.1799999 0
-54.759998 40.484001 1.244 0
-50.465 37.182999 1.161 0
-50.674999 37.092999 1.163 0
-52.603001 38.251999 1.197 0
-50.747002 36.658001 1.16 0
-50.724998 36.400002 1.1569999 0
-52.865002 37.686001 1.1950001 0
-52.251999 37.125 1.183 0
-52.627998 37.144001 1.188 0
-52.335999 36.692001 1.1799999 0
-52.541 36.59 1.182 0
-53.055 36.701 1.189 0
-53.470001 36.741001 1.1950001 0
-52.993999 36.168999 1.184 0
-52.902 35.984001 1.181 0
-53.477001 36.130001 1.1900001 0
-58.251999 39.092999 1.275 0
-59.915001 39.937 1.303 0
-60.457001 40.025002 1.311 0
-61.853001 40.672001 1.334 0
-62.126999 40.571999 1.337 0
-61.259998 39.868999 1.3200001 0
-57.926998 37.181999 1.255 0
-57.408001 36.594002 1.243 0
-57.651001 36.494999 1.2460001 0
-57.671001 36.254002 1.244 0
-57.862999 36.122002 1.245 0
-58.311001 36.275002 1.252 0
-55.058998 34.009998 1.192 0
-55.351002 33.951 1.196 0
-55.956001 34.081001 1.204 0
-55.081001 33.311001 1.187 0
-55.076 33.071999 1.1849999 0
-55.141998 32.875999 1.184 0
-55.196999 32.791 1.184 0
-55.813 32.921001 1.193 0
-55.881001 32.724998 1.193 0
-56.368999 32.773998 1.2 0
-56.557999 32.646 1.201 0
-56.488998 32.369999 1.198 0
-56.765999 32.292 1.201 0
-58.771999 33.312 1.235 0
-58.118 32.701 1.222 0
-65 36.307999 1.34 0
-58.511002 32.439999 1.225 0
-58.709 32.308998 1.227 0
-59.023998 32.241001 1.2309999 0
-59.451 32.231998 1.2359999 0
-59.448002 32.110001 1.2359999 0
-58.813999 31.528999 1.223 0
-58.681999 31.221001 1.219 0
-58.866001 31.082001 1.22 0
-58.932999 30.881001 1.22 0
-58.910999 30.634001 1.2180001 0
-59.16 30.528 1.22 0
-59.148998 30.403999 1.219 0
-59.455002 30.326 1.223 0
-59.993999 30.364 1.2309999 0
-60.181999 30.222 1.232 0
-60.584 30.186001 1.237 0
-60.575001 29.944 1.2359999 0
-60.551998 29.697001 1.234 0
-60.505001 29.556 1.232 0
-60.625999 29.379999 1.233 0
-60.842999 29.249001 1.235 0
-59.666 28.452 1.2130001 0
-60.201 28.476 1.221 0
-60.856998 28.552999 1.23 0
-60.786999 28.287001 1.228 0
-60.516998 28.046 1.222 0
-60.751999 27.923 1.225 0.059999999
-35.59 15.942 0.801 0.99000001
-35.633999 15.827 0.801 0.99000001
-35.676998 15.712 0.801 0.99000001
-35.667 15.641 0.80000001 0.99000001
-35.676998 15.512 0.80000001 0.99000001
-35.695999 15.387 0.79900002 0.99000001
-35.710999 15.261 0.79799998 0.66000003
-35.771999 15.154 0.79900002 0.30000001
-35.742001 15.009 0.79699999 0
-47.903999 19.948999 0.99699998 0
-62.773998 26.034 1.242 0
-61.639999 25.336 1.222 0
-62.651001 25.523001 1.237 0
-63.424 25.606001 1.248 0
-63.66 25.469 1.251 0
-63.937 25.347 1.2539999 0
-64.155998 25.201 1.256 0
-64.054001 25.045 1.2539999 0
-63.658001 24.66 1.2460001 0
-63.484001 24.363001 1.242 0
-63.174999 24.017 1.2359999 0
-63.362 23.860001 1.238 0
-63.668999 23.747999 1.2410001 0
-63.959 23.628 1.245 0
-64.317001 23.645 1.25 0
-64.463997 23.469999 1.251 0
-64.289001 23.177999 1.247 0
-49.460999 17.65 1.007 0
-49.518002 17.495001 1.007 0
-65.124001 22.787001 1.257 0
-65.017998 22.521 1.2539999 0
-65.424004 22.547001 1.26 0
-63.814999 21.768 1.233 0
-71.831001 24.254 1.3609999 0
-64.875 21.676001 1.248 0
-64.054001 21.177 1.234 0.090000004
-61.214001 20.024 1.187 0
-61.186001 19.802 1.186 0
-73.512001 23.67 1.383 0
-66.360001 21.134001 1.267 0
-66.308998 20.889 1.265 0
-66.505997 20.722 1.267 0
-66.528999 20.5 1.267 0
-66.666 20.313 1.268 0
-66.898003 20.153999 1.271 0
-66.134003 19.809999 1.258 0
-66.529999 19.701 1.263 0
-68.035004 19.915001 1.286 0
-68.075996 19.695 1.286 0
-68.458 19.573 1.291 0
-68.376999 19.318001 1.289 0
-69.095001 19.17 1.299 0
-71.996002 19.732 1.3430001 0
-71.249001 19.287001 1.331 0
-71.064003 18.997 1.327 0
-69.663002 18.388 1.304 0
-70.685997 18.421 1.319 0
-70.865997 18.23 1.321 0
-70.797997 18.094 1.319 0
-71.074997 17.927999 1.323 0
-76.358002 18.752001 1.404 0
-76.150002 18.448 1.4 0
-75.776001 18.105 1.393 0
-76.202003 17.954 1.399 0
-76.217003 17.830999 1.398 0
-75.997002 17.528 1.3940001 0
-76.054001 17.290001 1.3940001 0
-76.587997 17.159 1.402 0
-76.815002 16.955999 1.404 0
-75.988998 16.524 1.391 0
-76.068001 16.291 1.391 0
-73.170998 15.549 1.346 0
-75.424004 15.781 1.38 0
-72.944 15.022 1.341 0
-73.278999 14.852 1.345 0
-73.912003 14.738 1.354 0
-74.111 14.536 1.357 0
-73.353996 14.029 1.344 0
-41.591 5.6609998 0.84600002 0
-41.658001 5.5370002 0.847 0
-41.689999 5.408 0.847 0
-41.748001 5.349 0.84799999 0.059999999
-41.736 5.2140002 0.84799999 0
-70.510002 -12.501 1.2970001 0
-42.448002 -8.7110004 0.86699998 0
-42.474998 -8.8559999 0.86799997 0
-42.521999 -9.0050001 0.86900002 0
-42.584 -9.0880003 0.87 0
-42.631001 -9.2379999 0.87099999 0
-42.68 -9.3889999 0.87300003 0
-42.731998 -9.5419998 0.87400001 0
-42.771999 -9.6920004 0.875 0
-42.826 -9.8450003 0.87599999 0.039999999
-42.682999 -9.9540005 0.87400001 0.15000001
-42.57 -9.9980001 0.87300003 0
-42.589001 -10.144 0.87400001 0
-51.25 -12.371 1.01 0
-51.076 -12.5 1.008 0
-50.919998 -12.631 1.006 0
-50.785 -12.767 1.0039999 0
-50.178001 -13.203 0.99699998 0
-50.331001 -13.412 1 0
-65.621002 -21.403999 1.258 0
-67.223 -22.159 1.284 0
-67.121002 -22.360001 1.284 0
-66.973 -23.132 1.286 0
-66.902 -23.341999 1.286 0
-49.782001 -18.080999 1.013 0
-43.903999 -18.01 0.93000001 0
-73.267998 -32.073002 1.424 0
-23.614 -10.757 0.602 0.27000001
-23.455 -10.773 0.60000002 0.20999999
-22.568001 -10.453 0.58600003 0.38
-22.471001 -10.451 0.58499998 0.25999999
-22.221001 -10.42 0.58099997 0.43000001
-22.204 -10.498 0.58099997 0.19
-22.135 -10.55 0.58099997 0.55000001
-22.201 -10.667 0.58200002 0.20999999
-22.125999 -10.717 0.58200002 0.20999999
-22.089001 -10.742 0.58099997 0.28999999
-22.417 -10.988 0.58700001 0.44999999
-22.483 -11.108 0.58899999 0.12
-22.646 -11.277 0.59299999 0.28999999
-22.74 -11.413 0.59500003 0.1
-49.943001 -25.228001 1.059 0.090000004
-22.676001 -11.605 0.59500003 0
-48.910999 -25.191 1.045 0
-48.830002 -25.344 1.045 0
-48.796001 -25.521 1.045 0
-48.766998 -25.701 1.046 0
-48.779999 -25.903999 1.048 0
-49.374001 -26.417999 1.0599999 0
-49.215 -26.532 1.058 0.16
-27.222 -14.744 0.67900002 0.2
-27.142 -14.811 0.67799997 0.28999999
-27.072001 -14.884 0.67799997 0.30000001
-27.045 -14.98 0.67799997 0.25
-26.83 -14.971 0.67500001 0.22
-26.622 -14.965 0.67199999 0.23
-26.514999 -14.96 0.671 0.17
-47.174 -26.788 1.033 0
-47.166 -26.98 1.034 0.11
-12.703 -7.3410001 0.43099999 0.25
-12.626 -7.3499999 0.43000001 0.2
-12.558 -7.3639998 0.42899999 0.16
-12.558 -7.4159999 0.43000001 0.47999999
-12.546 -7.4359999 0.43000001 0.25
-12.541 -7.487 0.43000001 0.23999999
-12.568 -7.5560002 0.43099999 0.23999999
-27.987 -16.908001 0.70499998 0.14
-17.278 -10.525 0.51499999 0.31999999
-17.237 -10.574 0.51499999 0.23
-17.222 -10.639 0.51599997 0.25
-16.687 -10.346 0.50599998 0.41999999
-16.500999 -10.303 0.50400001 0.31999999
-16.421 -10.325 0.50300002 0.33000001
-17.427 -11.032 0.52100003 0.34999999
-16.327 -10.41 0.50199997 0.28999999
-16.333 -10.486 0.50300002 0.34
-16.351 -10.569 0.50400001 0.25
-16.804001 -10.899 0.51200002 0.47999999
-16.735001 -10.929 0.51200002 0.28999999
-16.572001 -10.897 0.509 0.28
-16.511 -10.932 0.509 0.31999999
-16.464001 -10.976 0.509 0.30000001
-16.389999 -11.001 0.50800002 0.41999999
-12.291 -8.3129997 0.433 0.17
-12.253 -8.316 0.433 0.38999999
-12.238 -8.3620005 0.433 0.38
-12.524 -8.6140003 0.43900001 0.36000001
-16.363001 -11.321 0.50999999 0.2
-12.458 -8.6850004 0.43900001 0.47
-16.313 -11.438 0.51099998 0.31999999
-16.301001 -11.507 0.51099998 0.33000001
-12.389 -8.7819996 0.43900001 0.18000001
-12.3 -8.7770004 0.43799999 0.20999999
-12.252 -8.802 0.43700001 0.36000001
-12.239 -8.8509998 0.43700001 0.5
-14.894 -10.834 0.48800001 0.19
-14.835 -10.863 0.48699999 0.38
-14.801 -10.91 0.48699999 0.30000001
-14.881 -11.004 0.48899999 0.52999997
-15.061 -11.284 0.49399999 0.51999998
-15.125 -11.406 0.49599999 0.25
-15.242 -11.57 0.49900001 0.23999999
-14.887 -11.375 0.493 0.43000001
-14.97 -11.513 0.495 0.36000001
-15.03 -11.596 0.49599999 0.30000001
-15.228 -11.825 0.50099999 0.37
-15.211 -11.888 0.50099999 0.31
-15.189 -11.948 0.50199997 0.47
-15.159 -12.002 0.50199997 0.27000001
-13.587 -10.831 0.472 0.30000001
-13.536 -10.859 0.472 0.43000001
-13.502 -10.867 0.47099999 0.43000001
-13.492 -10.929 0.472 0.25999999
-14.988 -12.215 0.50199997 0.52999997
-14.937 -12.252 0.50199997 0.23999999
-14.896 -12.297 0.50199997 0.23999999
-11.3 -9.3959999 0.43099999 0.51999998
-14.729 -12.316 0.5 0.27000001
-14.699 -12.33 0.5 0.28999999
-11.171 -9.4379997 0.43000001 0.33000001
-11.153 -9.4840002 0.43000001 0.46000001
-12.335 -10.619 0.45500001 0.57999998
-12.315 -10.669 0.456 0.33000001
-12.309 -10.698 0.456 0.57999998
-12.319 -10.774 0.45699999 0.30000001
-14.152 -12.451 0.49399999 0.44999999
-14.036 -12.428 0.493 0.14
-12.886 -11.485 0.47 0.28999999
-12.84 -11.516 0.47 0.31
-12.784 -11.539 0.47 0.63
-12.768 -11.561 0.47 0.34
-12.743 -11.611 0.47 0.38999999
-12.764 -11.704 0.47099999 0.40000001
-12.764 -11.778 0.472 0.18000001
-14.065 -13.057 0.5 0.31
-19.41 -18.118999 0.61199999 0.2
-18.902 -17.757 0.602 0.20999999
-18.853001 -17.766001 0.602 0.15000001
-10.746 -10.206 0.433 0.51999998
-19.246 -18.365999 0.61199999 0.2
-19.158001 -18.396999 0.61199999 0.17
-10.704 -10.359 0.43399999 0
-10.597 -10.386 0.433 0.13
-10.589 -10.443 0.43399999 0.50999999
-10.736 -10.621 0.43700001 0.2
-18.587 -18.476999 0.60600001 0.28999999
-18.521999 -18.528 0.60600001 0.14
-21.334999 -21.471001 0.66799998 0.19
-18.365 -18.603001 0.60500002 0.23999999
-18.143 -18.495001 0.602 0.23
-18.098 -18.507 0.60100001 0.25999999
-15.638 -16.098 0.54900002 0.38
-17.860001 -18.495001 0.59899998 0.19
-17.811001 -18.561001 0.59899998 0.17
-23.993 -25.148001 0.736 0.14
-15.314 -16.165001 0.546 0.27000001
-18.056 -19.173 0.60799998 0.13
-17.542 -18.687 0.59799999 0.19
-18.382999 -19.705 0.61799997 0.19
-18.212 -19.646 0.61500001 0.23
-13.048 -14.264 0.50199997 0.38
-13.008 -14.311 0.50199997 0.47
-11.123 -12.32 0.46000001 0.19
-11.099 -12.333 0.46000001 0.47999999
-12.881 -14.396 0.50199997 0.30000001
-11.012 -12.392 0.46000001 0.34
-10.993 -12.449 0.46000001 0.25999999
-10.93 -12.456 0.46000001 0.27000001
-10.885 -12.483 0.46000001 0.5
-10.869 -12.544 0.46000001 0.2
-10.818 -12.525 0.45899999 0.49000001
-13.212 -15.385 0.51599997 0.18000001
-13.02 -15.26 0.51300001 0.36000001
-12.901 -15.217 0.51099998 0.18000001
-12.984 -15.411 0.514 0.11
-17.327999 -20.686001 0.61799997 0.28
-16.021999 -19.252001 0.58899999 0.23
-15.719 -18.950001 0.58200002 0.44999999
-15.767 -19.129 0.58499998 0.23999999
-15.653 -19.113001 0.58399999 0.30000001
-10.505 -12.923 0.461 0.34999999
-16.940001 -20.948 0.61799997 0.23999999
-16.871 -20.997 0.61699998 0.30000001
-16.820999 -21.07 0.61799997 0
-21.513 -27.021999 0.73299998 0.12
-10.158 -12.947 0.458 0.46000001
-10.273 -13.179 0.46200001 0.19
-10.213 -13.187 0.461 0.25999999
-10.402 -13.517 0.46700001 0.38999999
-20.832001 -27.204 0.72899997 0.14
-12.247 -16.063 0.51499999 0.14
-12.18 -16.079 0.51499999 0.37
-12.053 -16.017 0.51300001 0.37
-12.078 -16.155001 0.51499999 0.23
-13.435 -18.083 0.55000001 0.2
-12.022 -16.292 0.51599997 0.19
-12.048 -16.382 0.51700002 0.36000001
-12.028 -16.462 0.51800001 0.25999999
-11.984 -16.511 0.51800001 0.49000001
-11.981 -16.615999 0.51899999 0.28
-12.053 -16.826 0.523 0.17
-11.861 -16.667999 0.51899999 0.28999999
-11.771 -16.653 0.51800001 0.5
-11.717 -16.632999 0.51700002 0.23
-11.571 -16.535 0.51499999 0.33000001
-11.53 -16.587999 0.51499999 0.38999999
-11.448 -16.580999 0.514 0.30000001
-11.421 -16.653 0.51499999 0.33000001
-11.54 -16.940001 0.51999998 0.38
-11.517 -17.021 0.51999998 0.27000001
-11.445 -17.028999 0.51999998 0.38
-11.497 -17.165001 0.52200001 0.25999999
-11.423 -17.171 0.52100003 0.37
-11.37 -17.208 0.52100003 0.30000001
-18.681 -28.436001 0.72500002 0.090000004
-28.922001 -44.299999 1.013 0.14
-28.666 -44.212002 1.0089999 0.16
-28.761 -44.509998 1.0140001 0.1
-28.726999 -44.764999 1.017 0
-28.589001 -44.860001 1.017 0
-28.722 -45.699001 1.029 0
-28.364 -45.446999 1.023 0
-28.316 -45.688 1.025 0
-28.224001 -45.700001 1.025 0
-28.028999 -45.705002 1.023 0
-27.556999 -45.254002 1.0140001 0.12
-27.240999 -45.054001 1.0089999 0.090000004
-27.040001 -45.040001 1.007 0
-26.860001 -45.061001 1.006 0.07
-27.848 -47.051998 1.039 0
-27.712999 -46.992001 1.038 0
-35.967999 -61.414001 1.29 0
-35.783001 -61.541 1.291 0
-35.569 -62.066002 1.296 0
-35.019001 -61.555 1.285 0
-34.615002 -61.292 1.279 0
-34.367001 -61.077 1.274 0
-34.191002 -61.214001 1.274 0
-34.236 -61.748001 1.2819999 0
-34.080002 -61.924999 1.283 0
-33.897999 -62.055 1.283 0
-33.481998 -61.755001 1.276 0
-33.471001 -62.200001 1.2819999 0
-33.499001 -62.486 1.286 0
-33.853001 -63.624001 1.304 0
-32.658001 -61.848999 1.272 0
-32.724998 -62.449001 1.28 0
-32.687 -62.855999 1.285 0
-32.23 -62.456001 1.277 0
-32.021 -62.532001 1.276 0
-22.069 -43.962002 0.95599997 0
-21.827999 -44.171001 0.95700002 0.23999999
-21.733 -44.328999 0.95899999 0.11
-21.538 -44.108002 0.954 0
-21.341 -44.055 0.95200002 0.12
-21.386999 -44.504002 0.95899999 0.090000004
-21.247999 -44.573002 0.95899999 0
-21.426001 -45.312 0.97000003 0.07
-20.858999 -44.476002 0.95499998 0
-20.775999 -44.661999 0.95700002 0
-20.497 -44.244999 0.94999999 0.059999999
-20.174 -43.909 0.94300002 0.079999998
-19.620001 -43.061001 0.92799997 0.14
-19.382 -42.895 0.92400002 0
-19.378 -43.247002 0.92900002 0.13
-19.304001 -43.446999 0.93099999 0.31
-19.158001 -43.487 0.93099999 0
-19.57 -44.610001 0.949 0
-19.181 -44.101002 0.93900001 0
-19.201 -44.916 0.95099998 0.28999999
-19.09 -45.046001 0.95200002 0
-26.034 -61.948002 1.23 0.07
-18.570999 -44.599998 0.94300002 0.20999999
-18.426001 -44.448002 0.94 0.23999999
-18.283001 -44.499001 0.94 0
-24.732 -60.712002 1.205 0
-18.007 -44.624001 0.94 0
-24.747 -61.856998 1.221 0
-24.106001 -60.808998 1.2029999 0
-17.934 -45.888 0.95700002 0.16
-17.737 -45.807999 0.95499998 0
-17.503 -45.627998 0.95099998 0.15000001
-17.253 -45.404999 0.94700003 0.18000001
-17.086 -45.393002 0.94599998 0
-16.943001 -45.446999 0.94599998 0
-6.9120002 -21.410999 0.55000001 0.11
-6.8330002 -21.281 0.54799998 0
-13.31 -44.463001 0.91399997 0.20999999
-5.2420001 -17.975 0.493 0.37
-5.1799998 -17.974001 0.49200001 0.30000001
-5.1370001 -18.035999 0.493 0.41999999
-6.0799999 -21.587 0.54900002 0.18000001
-6.066 -21.667999 0.55000001 0.49000001
-4.9460001 -18.118999 0.493 0.44999999
-4.9190001 -18.243999 0.495 0.30000001
-5.1360002 -19.287001 0.51099998 0.43000001
-5.6939998 -21.641001 0.54799998 0.2
-4.947 -19.059999 0.50700003 0.38
-5.4050002 -20.947001 0.537 0.20999999
-4.6760001 -18.374001 0.49599999 0.43000001
-4.6389999 -18.469999 0.49700001 0.28999999
-4.9980001 -20.157 0.52399999 0.25
-5.0229998 -20.532 0.52899998 0.44999999
-4.9980001 -20.712999 0.53200001 0.22
-4.9159999 -20.656 0.53100002 0.2
-4.2610002 -18.042999 0.49000001 0.34999999
-4.21 -18.08 0.49000001 0.41
-4.665 -20.309999 0.52499998 0.30000001
-4.552 -20.111 0.52100003 0.34
-4.0879998 -18.339001 0.49399999 0.25999999
-4.0339999 -18.368 0.49399999 0.25999999
-3.9890001 -18.437 0.495 0.5
-4.052 -18.867001 0.50099999 0.22
-3.967 -18.761 0.49900001 0.25
-3.858 -18.535999 0.49599999 0.34999999
-3.7980001 -18.537001 0.49599999 0.34
-3.7449999 -18.576 0.49599999 0.31999999
-3.0810001 -15.558 0.449 0.23
-3.0550001 -15.553 0.449 0.34
-3 -15.533 0.44800001 0.34999999
-2.964 -15.609 0.449 0.46000001
-2.934 -15.718 0.45100001 0.27000001
-2.868 -15.639 0.44999999 0.18000001
-2.846 -15.794 0.45199999 0.14
-3.9920001 -22.496 0.55500001 0.16
-3.3280001 -19.128 0.50300002 0.36000001
-3.2880001 -19.076 0.50199997 0.41
-3.1889999 -18.854 0.49900001 0.28999999
-3.1289999 -18.862 0.49900001 0.33000001
-3.079 -18.929001 0.49900001 0.38999999
-3.0139999 -18.905001 0.49900001 0.31999999
-3.237 -20.705999 0.52700001 0.41
-2.9100001 -19.018 0.5 0.28999999
-2.8710001 -18.965 0.49900001 0.28999999
-2.8099999 -18.964001 0.49900001 0.25
-2.7550001 -19.000999 0.5 0.49000001
-2.6989999 -19.035 0.5 0.2
-2.6459999 -19.094999 0.50099999 0.34
-2.5710001 -18.99 0.49900001 0.28
-2.526 -18.881001 0.49700001 0.38999999
-2.464 -18.871 0.49700001 0.44999999
-2.398 -18.830999 0.49599999 0.25
-2.9130001 -23.406 0.56699997 0.27000001
-2.8199999 -23.257 0.56400001 0.34
-2.7379999 -23.191999 0.56300002 0.2
-2.6619999 -23.173 0.56300002 0.34999999
-2.6259999 -23.179001 0.56300002 0.31999999
-2.5569999 -23.226999 0.56300002 0.38999999
-2.4909999 -23.294001 0.56400001 0.31
-2.5220001 -24.296 0.579 0.16
-2.4549999 -24.402 0.58099997 0.50999999
-2.385 -24.471001 0.58200002 0.14
-2.8269999 -29.924999 0.66500002 0.38
