# .PCD v0.7 - Point Cloud Data file format
VERSION 0.7
FIELDS x y z intensity
SIZE 4 4 4 4
TYPE F F F F
COUNT 1 1 1 1
WIDTH 1537
HEIGHT 1
VIEWPOINT 0 0 0 1 0 0 0
POINTS 1537
DATA ascii
4.0079999 1.594 -1.701 0.16
4.0009999 1.598 -1.699 0.039999999
3.9990001 1.612 -1.7 0.14
3.9920001 1.624 -1.699 0.20999999
3.9890001 1.637 -1.7 0.16
3.9920001 1.653 -1.704 0.23999999
3.9890001 1.666 -1.705 0.18000001
3.98 1.677 -1.7029999 0.23999999
3.9790001 1.684 -1.704 0.18000001
3.9749999 1.697 -1.705 0.25
3.97 1.71 -1.705 0.2
3.961 1.721 -1.7029999 0.25
3.9560001 1.733 -1.7029999 0.1
3.9449999 1.744 -1.701 0.18000001
3.9400001 1.756 -1.701 0.2
3.9260001 1.765 -1.697 0.18000001
3.9260001 1.772 -1.699 0.18000001
3.9089999 1.779 -1.693 0.12
3.9219999 1.8 -1.702 0.28999999
3.9059999 1.808 -1.697 0.34
3.8989999 1.819 -1.696 0.22
3.895 1.832 -1.697 0.18000001
3.901 1.85 -1.7029999 0.27000001
3.901 1.858 -1.704 0.23999999
3.892 1.868 -1.7029999 0.2
3.888 1.881 -1.7029999 0.25999999
3.892 1.898 -1.7079999 0.19
3.8740001 1.905 -1.7029999 0.12
3.8699999 1.918 -1.7029999 0.2
3.862 1.929 -1.7029999 0.11
3.8559999 1.934 -1.701 0.2
3.8599999 1.951 -1.706 0.11
3.848 1.96 -1.7029999 0.18000001
3.839 1.971 -1.702 0.050000001
3.8380001 1.985 -1.704 0.17
3.8269999 1.995 -1.702 0.050000001
3.832 2.0050001 -1.706 0.17
3.8199999 2.0139999 -1.7029999 0.050000001
3.8169999 2.0280001 -1.705 0.16
3.8080001 2.0380001 -1.7029999 0.19
3.8080001 2.0539999 -1.706 0.19
3.8010001 2.066 -1.706 0.12
3.79 2.075 -1.704 0.19
3.7850001 2.0799999 -1.7029999 0.28999999
3.783 2.095 -1.706 0.11
3.777 2.1070001 -1.706 0.19
3.7720001 2.119 -1.706 0.11
3.7650001 2.131 -1.706 0.18000001
3.7550001 2.141 -1.705 0.12
3.7550001 2.1570001 -1.7079999 0.2
3.747 2.1600001 -1.706 0.19
3.7249999 2.1630001 -1.699 0.30000001
3.734 2.184 -1.706 0.38999999
3.7449999 2.2060001 -1.715 0.38999999
3.727 2.211 -1.71 0.25
3.733 2.23 -1.716 0.34999999
3.7149999 2.2360001 -1.71 0.23
3.694 2.2309999 -1.702 0.31999999
3.698 2.2490001 -1.707 0.41
3.6989999 2.266 -1.711 0.34
3.6900001 2.276 -1.71 0.31999999
3.684 2.289 -1.711 0.30000001
3.6570001 2.2880001 -1.701 0.33000001
3.6429999 2.2950001 -1.698 0.38
3.651 2.3080001 -1.7029999 0.44
3.6570001 2.3280001 -1.71 0.38
3.664 2.349 -1.717 0.38999999
3.6389999 2.349 -1.709 0.25999999
3.6340001 2.362 -1.71 0.27000001
3.632 2.3770001 -1.7130001 0.43000001
3.619 2.3840001 -1.71 0.36000001
3.618 2.392 -1.711 0.33000001
3.631 2.4170001 -1.721 0.43000001
3.612 2.421 -1.716 0.20999999
3.6140001 2.438 -1.72 0.25999999
3.608 2.451 -1.721 0.19
3.6010001 2.4630001 -1.722 0.13
3.589 2.471 -1.72 0.20999999
3.579 2.473 -1.717 0.17
3.579 2.4890001 -1.72 0.27000001
3.5769999 2.5050001 -1.724 0.23
3.5710001 2.517 -1.724 0.2
3.5569999 2.5239999 -1.721 0.27000001
3.54 2.529 -1.717 0.31
3.5469999 2.55 -1.724 0.36000001
3.52 2.54 -1.7130001 0.18000001
3.5139999 2.552 -1.7130001 0.34
3.503 2.5610001 -1.712 0.44999999
3.5079999 2.582 -1.719 0.33000001
3.5020001 2.5940001 -1.72 0.34999999
3.4920001 2.6040001 -1.719 0.28999999
3.4820001 2.6140001 -1.7180001 0.28999999
3.471 2.6140001 -1.714 0.34999999
3.464 2.625 -1.715 0.43000001
3.457 2.6370001 -1.716 0.31999999
3.4519999 2.651 -1.717 0.34
3.4489999 2.6659999 -1.72 0.31999999
3.448 2.6819999 -1.724 0.33000001
3.437 2.691 -1.723 0.25
3.4430001 2.704 -1.728 0.55000001
3.424 2.707 -1.723 0.23
3.4319999 2.73 -1.7309999 0.28999999
3.4230001 2.7409999 -1.7309999 0.19
3.4159999 2.753 -1.732 0.25
3.404 2.7609999 -1.7309999 0.16
3.4030001 2.7780001 -1.734 0.23999999
3.4100001 2.7920001 -1.7410001 0.2
3.3900001 2.7939999 -1.734 0.12
3.385 2.8080001 -1.737 0.2
3.375 2.8169999 -1.7359999 0.11
3.3659999 2.8280001 -1.7359999 0.18000001
3.359 2.8399999 -1.737 0.23
3.3499999 2.8499999 -1.737 0.20999999
3.3299999 2.842 -1.728 0.2
3.3210001 2.8529999 -1.728 0.38
3.3169999 2.868 -1.7309999 0.34999999
3.319 2.888 -1.738 0.34999999
3.3080001 2.8959999 -1.7359999 0.25999999
3.303 2.9100001 -1.738 0.28999999
3.2850001 2.9130001 -1.734 0.2
3.2739999 2.9119999 -1.73 0.30000001
3.2590001 2.918 -1.727 0.30000001
3.2590001 2.9360001 -1.732 0.46000001
3.26 2.9549999 -1.738 0.20999999
3.267 2.98 -1.747 0.25999999
3.2550001 2.9879999 -1.745 0.19
3.243 2.9960001 -1.744 0.12
3.237 3 -1.743 0.20999999
3.23 3.0120001 -1.745 0.16
3.224 3.026 -1.747 0.25999999
3.207 3.029 -1.742 0.19
3.2030001 3.0439999 -1.745 0.23999999
3.1900001 3.0510001 -1.744 0.18000001
3.181 3.0610001 -1.744 0.23999999
3.175 3.0650001 -1.743 0.2
3.165 3.075 -1.743 0.23999999
3.165 3.0940001 -1.748 0.2
3.1400001 3.0899999 -1.74 0.12
3.1359999 3.105 -1.743 0.20999999
3.1210001 3.109 -1.74 0.17
3.1229999 3.131 -1.747 0.27000001
3.1140001 3.132 -1.745 0.18000001
3.1029999 3.1400001 -1.744 0.23999999
3.092 3.1489999 -1.743 0.18000001
3.082 3.1589999 -1.743 0.23999999
3.069 3.1659999 -1.7410001 0.18000001
3.0669999 3.1830001 -1.7460001 0.23999999
3.0510001 3.1860001 -1.742 0.18000001
3.0510001 3.1960001 -1.745 0.23999999
3.033 3.198 -1.7410001 0.18000001
3.0309999 3.2149999 -1.745 0.25
3.01 3.214 -1.739 0.23999999
2.9979999 3.221 -1.738 0.20999999
2.9960001 3.24 -1.743 0.25
2.987 3.25 -1.744 0.2
2.9809999 3.2539999 -1.743 0.12
2.9630001 3.2550001 -1.738 0.20999999
2.957 3.2679999 -1.7410001 0.27000001
2.9530001 3.2839999 -1.745 0.25
2.9389999 3.29 -1.742 0.28999999
2.927 3.2969999 -1.7410001 0.27000001
2.9089999 3.2980001 -1.737 0.16
2.905 3.3039999 -1.738 0.28999999
2.8970001 3.316 -1.739 0.25
2.8859999 3.3239999 -1.738 0.23
2.868 3.325 -1.734 0.23999999
2.849 3.3239999 -1.728 0.31999999
2.8340001 3.3269999 -1.725 0.31
2.845 3.3610001 -1.739 0.47999999
2.8399999 3.3659999 -1.739 0.30000001
2.835 3.382 -1.743 0.27000001
2.816 3.381 -1.738 0.18000001
2.7880001 3.368 -1.726 0.30000001
2.783 3.3840001 -1.73 0.38999999
2.7920001 3.4170001 -1.743 0.41999999
2.783 3.427 -1.744 0.31
2.7739999 3.427 -1.7410001 0.28999999
2.757 3.4289999 -1.738 0.25
2.7479999 3.4389999 -1.738 0.28999999
2.733 3.4430001 -1.7359999 0.34
2.7260001 3.4560001 -1.738 0.28999999
2.7090001 3.457 -1.734 0.28999999
2.7030001 3.4719999 -1.738 0.28999999
2.6930001 3.47 -1.734 0.28999999
2.6860001 3.483 -1.737 0.28999999
2.6730001 3.49 -1.7359999 0.28
2.674 3.513 -1.744 0.28
2.6659999 3.526 -1.7460001 0.27000001
2.6429999 3.5179999 -1.738 0.25
2.638 3.5350001 -1.742 0.36000001
2.6229999 3.5369999 -1.739 0.28999999
2.618 3.543 -1.74 0.28999999
2.6059999 3.55 -1.739 0.28999999
2.598 3.562 -1.7410001 0.28999999
2.5940001 3.579 -1.7460001 0.25999999
2.582 3.5880001 -1.7460001 0.27000001
2.572 3.5969999 -1.747 0.27000001
2.556 3.599 -1.744 0.27000001
2.5469999 3.5969999 -1.7410001 0.22
2.526 3.592 -1.734 0.30000001
2.5190001 3.6059999 -1.737 0.38
2.5179999 3.6289999 -1.745 0.38999999
2.5050001 3.635 -1.744 0.31999999
2.493 3.641 -1.743 0.28999999
2.4809999 3.6489999 -1.743 0.28
2.477 3.655 -1.744 0.27000001
2.4660001 3.664 -1.745 0.28999999
2.4560001 3.6730001 -1.745 0.28
2.4449999 3.6819999 -1.7460001 0.27000001
2.4319999 3.687 -1.745 0.27000001
2.4200001 3.6949999 -1.745 0.27000001
2.411 3.707 -1.747 0.27000001
2.4070001 3.7119999 -1.748 0.27000001
2.3959999 3.721 -1.748 0.27000001
2.3789999 3.721 -1.745 0.27000001
2.3800001 3.7490001 -1.755 0.25999999
2.362 3.7449999 -1.749 0.30000001
2.352 3.756 -1.751 0.28999999
2.3440001 3.7690001 -1.7539999 0.27000001
2.335 3.7679999 -1.752 0.28
2.3210001 3.7720001 -1.75 0.28
2.3239999 3.803 -1.762 0.27000001
2.302 3.7950001 -1.7539999 0.20999999
2.29 3.8 -1.753 0.23999999
2.2880001 3.825 -1.762 0.47999999
2.2639999 3.812 -1.752 0.25999999
2.263 3.825 -1.756 0.38
2.243 3.8169999 -1.749 0.25999999
2.24 3.8399999 -1.757 0.31
2.23 3.8510001 -1.7589999 0.40000001
2.217 3.8559999 -1.758 0.38999999
2.2049999 3.8629999 -1.758 0.19
2.1960001 3.8759999 -1.761 0.38
2.2 3.8970001 -1.7690001 0.23999999
2.1789999 3.888 -1.762 0.23999999
2.1659999 3.8929999 -1.761 0.33000001
2.1530001 3.8989999 -1.76 0.28
2.145 3.9130001 -1.7640001 0.19
2.1270001 3.9089999 -1.7589999 0.27000001
2.1199999 3.927 -1.7640001 0.23
2.102 3.9070001 -1.753 0.17
2.102 3.937 -1.7640001 0.25999999
2.089 3.9419999 -1.763 0.23
2.0799999 3.9549999 -1.766 0.23
2.0610001 3.95 -1.761 0.33000001
2.049 3.9560001 -1.761 0.17
2.04 3.9690001 -1.7640001 0.28
2.0309999 3.967 -1.762 0.23
2.0220001 3.98 -1.765 0.18000001
2.0079999 3.983 -1.763 0.27000001
1.994 3.9860001 -1.762 0.23999999
1.983 3.9960001 -1.763 0.19
1.972 4.0050001 -1.765 0.27000001
1.9579999 4.0100002 -1.7640001 0.23
1.948 4.0050001 -1.76 0.17
1.939 4.0190001 -1.7640001 0.25999999
1.926 4.0240002 -1.763 0.22
1.913 4.0279999 -1.762 0.17
1.903 4.0409999 -1.766 0.25999999
1.888 4.0419998 -1.763 0.20999999
1.874 4.0440001 -1.762 0.17
1.863 4.053 -1.763 0.25999999
1.8609999 4.066 -1.768 0.19
1.845 4.0650001 -1.765 0.23999999
1.834 4.0749998 -1.766 0.20999999
1.814 4.0650001 -1.7589999 0.16
1.804 4.0760002 -1.762 0.31
1.791 4.0819998 -1.762 0.19
1.778 4.0869999 -1.762 0.23999999
1.774 4.0949998 -1.7640001 0.19
1.758 4.0939999 -1.761 0.12
1.742 4.0929999 -1.758 0.2
1.732 4.105 -1.761 0.11
1.7180001 4.1090002 -1.76 0.19
1.705 4.112 -1.7589999 0.11
1.698 4.1149998 -1.7589999 0.2
1.683 4.1129999 -1.756 0.14
1.674 4.1290002 -1.761 0.28999999
1.658 4.1269999 -1.758 0.23
1.645 4.132 -1.758 0.20999999
1.6339999 4.1430001 -1.76 0.36000001
1.62 4.1440001 -1.7589999 0.27000001
1.6059999 4.1479998 -1.758 0.2
1.602 4.1570001 -1.761 0.25
1.587 4.1550002 -1.758 0.18000001
1.575 4.164 -1.7589999 0.25
1.5599999 4.165 -1.758 0.19
1.5470001 4.1700001 -1.758 0.23999999
1.538 4.1849999 -1.762 0.19
1.522 4.1810002 -1.7589999 0.12
1.515 4.1820002 -1.758 0.20999999
1.498 4.1760001 -1.753 0.16
1.485 4.1830001 -1.7539999 0.25999999
1.475 4.1960001 -1.758 0.19
1.461 4.197 -1.756 0.25
1.4450001 4.1950002 -1.753 0.18000001
1.4349999 4.21 -1.758 0.23999999
1.428 4.2090001 -1.756 0.19
1.413 4.21 -1.755 0.25
1.399 4.2119999 -1.7539999 0.22
1.3890001 4.2249999 -1.758 0.19
1.374 4.2249999 -1.755 0.27000001
1.36 4.2249999 -1.7539999 0.22
1.347 4.2329998 -1.755 0.2
1.336 4.2210002 -1.749 0.28999999
1.329 4.2449999 -1.758 0.34
1.323 4.27 -1.767 0.38999999
1.307 4.2690001 -1.765 0.31999999
1.289 4.2550001 -1.757 0.19
1.278 4.27 -1.762 0.41
1.2640001 4.27 -1.76 0.2
1.26 4.283 -1.765 0.25999999
1.245 4.2820001 -1.762 0.20999999
1.229 4.2750001 -1.758 0.17
1.22 4.2930002 -1.7640001 0.25999999
1.204 4.29 -1.761 0.18000001
1.193 4.302 -1.765 0.23999999
1.179 4.302 -1.763 0.18000001
1.1720001 4.3039999 -1.763 0.25
1.161 4.3169999 -1.767 0.2
1.146 4.3150001 -1.765 0.23
1.1339999 4.3270001 -1.7690001 0.19
1.118 4.3200002 -1.7640001 0.23
1.104 4.3200002 -1.762 0.18000001
1.094 4.3379998 -1.7690001 0.13
1.085 4.3340001 -1.766 0.20999999
1.071 4.3340001 -1.765 0.11
1.056 4.3340001 -1.763 0.20999999
1.0420001 4.3340001 -1.762 0.19
1.023 4.3169999 -1.753 0.27000001
1.0140001 4.3369999 -1.76 0.40000001
1.003 4.3499999 -1.765 0.38
0.986 4.3390002 -1.7589999 0.25
0.98100001 4.3520002 -1.763 0.30000001
0.97100002 4.3670001 -1.7690001 0.52999997
0.954 4.3590002 -1.7640001 0.34
0.94199997 4.3699999 -1.767 0.20999999
0.92900002 4.3759999 -1.7690001 0.23
0.917 4.3839998 -1.771 0.18000001
0.903 4.3870001 -1.771 0.23999999
0.89600003 4.3870001 -1.77 0.2
0.88099998 4.3860002 -1.7690001 0.12
0.86900002 4.3940001 -1.771 0.20999999
0.85299999 4.3899999 -1.768 0.17
0.84200001 4.4029999 -1.773 0.27000001
0.82700002 4.402 -1.771 0.2
0.81099999 4.3940001 -1.766 0.30000001
0.80400002 4.3920002 -1.765 0.30000001
0.792 4.4089999 -1.771 0.28999999
0.77700001 4.402 -1.767 0.18000001
0.76499999 4.4169998 -1.773 0.25999999
0.75099999 4.4180002 -1.772 0.18000001
0.73799998 4.4250002 -1.774 0.23999999
0.72399998 4.428 -1.774 0.22
0.71799999 4.4310002 -1.775 0.27000001
0.70200002 4.4200001 -1.7690001 0.22
0.69 4.4330001 -1.774 0.28999999
0.67699999 4.4460001 -1.779 0.20999999
0.66000003 4.4250002 -1.7690001 0.28999999
0.648 4.4429998 -1.776 0.31
0.63200003 4.4330001 -1.77 0.23
0.62300003 4.4169998 -1.763 0.20999999
0.61000001 4.4229999 -1.765 0.44999999
0.59600002 4.4260001 -1.766 0.38
0.58200002 4.4250002 -1.7640001 0.30000001
0.56699997 4.4250002 -1.763 0.27000001
0.55800003 4.4569998 -1.776 0.28
0.54400003 4.4629998 -1.778 0.2
0.53799999 4.4689999 -1.78 0.12
0.523 4.4650002 -1.778 0.20999999
0.509 4.4650002 -1.777 0.16
0.495 4.4720001 -1.779 0.27000001
0.48100001 4.4720001 -1.779 0.19
0.46700001 4.4720001 -1.778 0.13
0.45199999 4.4660001 -1.775 0.20999999
0.43900001 4.473 -1.777 0.17
0.433 4.4879999 -1.783 0.25999999
0.41800001 4.4780002 -1.779 0.18000001
0.405 4.4889998 -1.783 0.25
0.38999999 4.4860001 -1.781 0.22
0.37400001 4.467 -1.773 0.16
0.36000001 4.4629998 -1.77 0.25999999
0.35499999 4.4860001 -1.779 0.50999999
0.34099999 4.4920001 -1.7819999 0.31999999
0.32699999 4.4889998 -1.78 0.19
0.31299999 4.4959998 -1.783 0.25999999
0.29800001 4.4910002 -1.78 0.23
0.285 4.5 -1.783 0.20999999
0.271 4.4990001 -1.783 0.25
0.26300001 4.4970002 -1.7819999 0.22
0.249 4.494 -1.78 0.17
0.236 4.506 -1.785 0.25999999
0.221 4.5009999 -1.783 0.25
0.206 4.4889998 -1.777 0.20999999
0.193 4.5100002 -1.786 0.25
0.17900001 4.5110002 -1.786 0.18000001
0.16500001 4.5110002 -1.786 0.23999999
0.15800001 4.5190001 -1.789 0.19
0.14300001 4.5079999 -1.784 0.23
0.13 4.5159998 -1.7869999 0.16
0.115 4.5180001 -1.788 0.28
0.101 4.5089998 -1.784 0.18000001
0.086999997 4.5100002 -1.784 0.23999999
0.072999999 4.5170002 -1.7869999 0.2
0.064999998 4.5009999 -1.78 0.16
0.050999999 4.5079999 -1.783 0.31
0.037 4.5180001 -1.7869999 0.23999999
0.023 4.5139999 -1.786 0.17
0.0089999996 4.5229998 -1.79 0.28999999
-0.0049999999 4.5159998 -1.786 0.23
-0.018999999 4.5120001 -1.785 0.17
-0.027000001 4.5250001 -1.79 0.27000001
-0.041000001 4.52 -1.788 0.22
-0.055 4.5180001 -1.7869999 0.15000001
-0.068999998 4.527 -1.791 0.28999999
-0.082999997 4.513 -1.786 0.25
-0.097999997 4.5170002 -1.7869999 0.20999999
-0.111 4.5040002 -1.7819999 0.14
-0.118 4.4780002 -1.771 0.38999999
-0.132 4.4879999 -1.776 0.31999999
-0.147 4.5250001 -1.791 0.22
-0.161 4.4980001 -1.78 0.18000001
-0.175 4.507 -1.784 0.34999999
-0.189 4.507 -1.784 0.41
-0.204 4.5040002 -1.783 0.23
-0.212 4.526 -1.793 0.31999999
-0.226 4.5289998 -1.794 0.23
-0.23999999 4.5229998 -1.7920001 0.23999999
-0.25400001 4.52 -1.791 0.28999999
-0.26899999 4.5339999 -1.7970001 0.30000001
-0.28299999 4.526 -1.794 0.14
-0.29699999 4.5229998 -1.793 0.20999999
-0.30399999 4.5190001 -1.7920001 0.17
-0.31799999 4.5219998 -1.793 0.37
-0.333 4.5240002 -1.795 0.28999999
-0.347 4.5190001 -1.793 0.23
-0.36000001 4.507 -1.789 0.30000001
-0.375 4.5120001 -1.791 0.31999999
-0.38800001 4.507 -1.79 0.38
-0.396 4.5079999 -1.79 0.23999999
-0.412 4.527 -1.799 0.31999999
-0.42500001 4.5159998 -1.795 0.19
-0.44100001 4.5300002 -1.801 0.25
-0.454 4.5250001 -1.8 0.23
-0.46900001 4.5229998 -1.8 0.22
-0.48300001 4.5219998 -1.8 0.25
-0.49700001 4.5240002 -1.801 0.18000001
-0.50400001 4.5209999 -1.8 0.23999999
-0.51700002 4.5050001 -1.794 0.18000001
-0.53299999 4.5219998 -1.802 0.23999999
-0.546 4.5089998 -1.7970001 0.19
-0.56099999 4.513 -1.8 0.25
-0.574 4.5040002 -1.7970001 0
-0.41299999 3.095 -1.199 0
-0.417 3.089 -1.197 0
-0.42500001 3.073 -1.191 0
-0.43700001 3.0880001 -1.198 0
-0.447 3.0940001 -1.201 0
-0.46200001 3.131 -1.217 0
-0.47799999 3.1700001 -1.234 0.029999999
-0.68000001 4.487 -1.796 0.17
-0.68800002 4.4949999 -1.8 0.12
-0.70200002 4.487 -1.7970001 0.2
-0.71600002 4.4910002 -1.8 0.11
-0.73100001 4.4899998 -1.8 0.2
-0.745 4.4899998 -1.801 0.11
-0.75999999 4.4889998 -1.802 0.18000001
-0.77399999 4.4899998 -1.804 0.11
-0.77999997 4.4840002 -1.801 0.2
-0.796 4.4879999 -1.804 0.11
-0.81 4.4860001 -1.804 0.18000001
-0.824 4.4829998 -1.804 0.12
-0.83600003 4.4720001 -1.8 0.19
-0.85399997 4.487 -1.808 0.11
-0.86400002 4.4650002 -1.8 0.18000001
-0.87300003 4.4699998 -1.803 0.11
-0.884 4.4549999 -1.7970001 0.19
-0.90200001 4.4699998 -1.8049999 0.11
-0.91299999 4.4549999 -1.8 0.2
-0.93000001 4.4679999 -1.807 0.11
-0.94300002 4.4580002 -1.804 0.2
-0.95599997 4.4499998 -1.801 0.11
-0.963 4.4499998 -1.802 0.19
-0.97799999 4.4489999 -1.803 0.11
-0.99000001 4.4369998 -1.799 0.18000001
-1.006 4.4439998 -1.804 0.11
-1.021 4.4460001 -1.806 0.18000001
-1.033 4.4320002 -1.801 0.22
-1.05 4.4450002 -1.808 0.22
-1.062 4.4330001 -1.804 0.12
-1.0650001 4.4130001 -1.7970001 0.19
-1.08 4.4169998 -1.8 0.2
-1.092 4.4050002 -1.796 0.1
-1.112 4.4250002 -1.806 0.17
-1.125 4.4190001 -1.8049999 0.22
-1.1390001 4.4159999 -1.8049999 0.2
-1.151 4.4050002 -1.802 0.12
-1.156 4.3959999 -1.799 0.2
-1.1720001 4.401 -1.803 0.11
-1.182 4.382 -1.796 0.19
-1.202 4.4029999 -1.807 0.11
-1.21 4.3759999 -1.7970001 0.2
-1.239 4.375 -1.8 0.34
-1.232 4.3239999 -1.778 0.23999999
-1.262 4.3769999 -1.803 0.23999999
-1.273 4.3639998 -1.799 0.050000001
-0.87800002 2.9449999 -1.178 0.13
-0.875 2.901 -1.16 0.039999999
-0.87699997 2.872 -1.149 0.13
-0.87599999 2.836 -1.1339999 0.050000001
-0.87699997 2.8239999 -1.1289999 0.16
-0.89099997 2.839 -1.137 0.18000001
-0.89399999 2.8169999 -1.128 0.090000004
-0.90499997 2.8210001 -1.132 0.090000004
-0.91100001 2.8069999 -1.127 0.090000004
-0.91799998 2.799 -1.125 0.16
-0.92699999 2.796 -1.125 0.050000001
-0.93199998 2.7969999 -1.125 0.17
-0.935 2.7780001 -1.118 0.050000001
-0.94800001 2.7869999 -1.124 0.16
-0.95300001 2.7739999 -1.119 0.18000001
-0.95899999 2.7620001 -1.115 0.18000001
-0.96799999 2.7590001 -1.115 0.090000004
-0.98000002 2.7679999 -1.1210001 0.17
-0.98400003 2.763 -1.119 0.12
-0.98900002 2.7509999 -1.115 0.2
-1 2.7550001 -1.118 0.2
-1.002 2.733 -1.11 0.18000001
-1.013 2.7349999 -1.112 0.16
-1.026 2.7460001 -1.118 0.17
-1.034 2.7390001 -1.117 0.17
-1.0420001 2.734 -1.1160001 0.17
-1.0470001 2.7360001 -1.118 0.18000001
-1.057 2.7360001 -1.119 0.18000001
-1.068 2.7390001 -1.122 0.16
-1.076 2.734 -1.122 0.16
-1.085 2.7309999 -1.122 0.17
-1.097 2.7379999 -1.126 0.1
-1.1109999 2.7460001 -1.132 0.18000001
-1.113 2.7390001 -1.1289999 0.050000001
-1.1210001 2.734 -1.128 0.16
-1.136 2.7479999 -1.136 0.2
-1.147 2.7490001 -1.1390001 0.1
-1.161 2.7590001 -1.145 0.079999998
-1.1720001 2.7609999 -1.147 0.039999999
-1.191 2.783 -1.159 0
-1.2079999 2.8099999 -1.1720001 0.07
-1.803 4.191 -1.806 0.14
-1.814 4.1799998 -1.804 0.18000001
-1.831 4.1830001 -1.807 0.23999999
-1.8430001 4.1729999 -1.806 0.18000001
-1.848 4.151 -1.798 0.22
-1.8710001 4.1669998 -1.808 0.28999999
-1.876 4.1609998 -1.807 0.23
-1.8890001 4.1550002 -1.807 0.18000001
-1.905 4.1539998 -1.809 0.25999999
-1.914 4.1389999 -1.8049999 0.19
-1.926 4.132 -1.804 0.36000001
-1.941 4.131 -1.807 0.20999999
-1.957 4.1290002 -1.809 0.23999999
-1.96 4.1199999 -1.806 0.18000001
-1.978 4.1230001 -1.811 0.23999999
-1.989 4.1139998 -1.809 0.18000001
-2.0020001 4.1079998 -1.809 0.23999999
-2.016 4.1030002 -1.8099999 0.19
-2.027 4.0929999 -1.808 0.25
-2.039 4.085 -1.807 0.18000001
-2.0480001 4.0869999 -1.8099999 0.25
-2.0599999 4.079 -1.809 0.22
-2.072 4.0710001 -1.808 0.19
-2.0940001 4.0819998 -1.817 0.27000001
-2.1070001 4.0760002 -1.817 0.23
-2.1070001 4.0450001 -1.8049999 0.17
-2.1289999 4.0560002 -1.814 0.25999999
-2.142 4.0510001 -1.814 0.23
-2.1470001 4.0440001 -1.813 0.18000001
-2.142 4.0050001 -1.7970001 0.28999999
-2.1559999 4 -1.798 0.33000001
-2.178 4.0110002 -1.807 0.43000001
-2.2030001 4.027 -1.818 0.28
-2.2119999 4.013 -1.814 0.23999999
-2.2249999 4.006 -1.814 0.34999999
-2.224 3.99 -1.808 0.30000001
-2.233 3.9760001 -1.8049999 0.23
-2.2550001 3.987 -1.814 0.31
-2.27 3.9849999 -1.816 0.22
-2.2869999 3.9860001 -1.8200001 0.20999999
-2.3010001 3.98 -1.821 0.25
-2.3050001 3.9579999 -1.814 0.23999999
-2.3069999 3.947 -1.8099999 0.16
-2.3180001 3.938 -1.809 0.36000001
-2.3399999 3.947 -1.817 0.34999999
-2.3540001 3.9419999 -1.818 0.38
-2.3659999 3.9349999 -1.818 0.2
-2.3829999 3.9349999 -1.822 0.25999999
-2.3889999 3.9170001 -1.817 0.23
-2.401 3.9230001 -1.821 0.20999999
-2.418 3.9230001 -1.825 0.14
-2.4189999 3.8959999 -1.816 0
-1.725 2.7449999 -1.25 0
-1.729 2.7320001 -1.2460001 0
-1.738 2.727 -1.2460001 0
-1.739 2.71 -1.24 0
-1.743 2.7060001 -1.24 0
-1.749 2.698 -1.238 0
-1.756 2.6889999 -1.2359999 0.029999999
-2.517 3.849 -1.821 0.18000001
-2.5350001 3.8499999 -1.826 0.17
-2.5409999 3.8329999 -1.821 0.28999999
-2.5580001 3.8329999 -1.825 0.44
-2.5669999 3.8340001 -1.8279999 0
-2.592 3.8440001 -1.837 0
-2.635 3.8829999 -1.8609999 0
-2.6170001 3.829 -1.8380001 0
-3.152 3.3180001 -1.812 0
-3.165 3.3110001 -1.814 0
-3.1819999 3.3080001 -1.818 0
-3.191 3.296 -1.817 0.059999999
-3.2090001 3.2939999 -1.821 0.12
-3.1989999 3.263 -1.809 0.16
-3.217 3.2709999 -1.817 0.34
-3.234 3.2679999 -1.821 0.19
-3.25 3.2639999 -1.825 0.12
-3.2650001 3.2579999 -1.827 0.18000001
-3.276 3.2490001 -1.8279999 0.20999999
-3.28 3.2320001 -1.824 0.16
-3.2939999 3.2249999 -1.826 0.23
-3.2969999 3.2090001 -1.822 0.19
-3.312 3.2130001 -1.8279999 0.25
-3.319 3.2 -1.826 0.19
-3.332 3.1919999 -1.8279999 0.25
-3.339 3.1789999 -1.826 0.19
-3.345 3.164 -1.824 0.25
-3.355 3.154 -1.824 0.19
-3.372 3.1500001 -1.8279999 0.23999999
-3.378 3.145 -1.8279999 0.18000001
-3.3859999 3.1340001 -1.8279999 0.25
-3.3989999 3.125 -1.829 0.19
-3.4089999 3.115 -1.829 0.23
-3.4170001 3.1029999 -1.8279999 0.19
-3.4300001 3.095 -1.83 0.22
-3.4319999 3.0869999 -1.8279999 0.1
-3.437 3.072 -1.826 0.18000001
-3.451 3.0650001 -1.8279999 0.1
-3.457 3.05 -1.826 0.19
-3.474 3.0469999 -1.831 0.11
-3.471 3.0250001 -1.824 0.2
-3.484 3.017 -1.825 0.2
-3.5 3.0120001 -1.829 0.23999999
-3.4960001 2.9990001 -1.825 0.18000001
-3.51 2.9920001 -1.827 0
-3.3989999 2.8770001 -1.76 0
-3.28 2.7579999 -1.689 0
-3.2809999 2.7409999 -1.6849999 0
-3.2839999 2.7249999 -1.682 0
-3.289 2.7130001 -1.6799999 0
-3.296 2.71 -1.682 0
-3.299 2.6949999 -1.679 0
-3.3080001 2.6849999 -1.679 0
-3.325 2.681 -1.683 0
-3.332 2.6689999 -1.682 0
-3.3599999 2.675 -1.693 0
-3.3499999 2.6500001 -1.683 0.02
-3.3699999 2.6570001 -1.692 0.029999999
-3.372 2.642 -1.689 0.16
-3.3859999 2.6359999 -1.692 0.2
-3.3989999 2.6289999 -1.694 0.28
-3.4130001 2.622 -1.697 0.33000001
-3.418 2.609 -1.696 0.36000001
-3.4349999 2.605 -1.7 0.34999999
-3.4349999 2.5969999 -1.698 0.31999999
-3.45 2.5910001 -1.702 0.34
-3.457 2.579 -1.701 0.36000001
-3.4619999 2.566 -1.699 0.34999999
-3.47 2.5550001 -1.699 0.31
-3.493 2.556 -1.707 0.49000001
-3.506 2.5480001 -1.71 0.31999999
-3.487 2.526 -1.698 0.050000001
-3.5150001 2.529 -1.7079999 0
-3.5050001 2.5050001 -1.699 0
-3.5090001 2.4920001 -1.697 0
-3.523 2.4849999 -1.7 0
-3.5239999 2.4690001 -1.696 0
-3.5309999 2.4579999 -1.696 0
-3.5369999 2.4530001 -1.697 0
-3.579 2.4660001 -1.715 0
-3.582 2.4519999 -1.7130001 0
-3.5910001 2.4419999 -1.7130001 0
-3.6099999 2.438 -1.719 0
-3.631 2.4360001 -1.726 0.050000001
-3.825 2.55 -1.821 0.18000001
-3.8340001 2.5469999 -1.823 0.28999999
-3.839 2.533 -1.821 0.28999999
-3.8540001 2.526 -1.825 0.27000001
-3.859 2.5120001 -1.824 0.25
-3.8559999 2.493 -1.818 0.17
-3.878 2.49 -1.825 0.28
-3.8829999 2.4749999 -1.824 0.18000001
-3.8859999 2.4690001 -1.824 0.25
-3.8900001 2.454 -1.821 0.22
-3.902 2.4449999 -1.824 0.2
-3.9159999 2.4360001 -1.827 0.25
-3.9170001 2.4200001 -1.824 0.18000001
-3.9260001 2.4089999 -1.825 0.25
-3.9289999 2.3940001 -1.822 0.19
-3.938 2.3900001 -1.825 0.25
-3.948 2.3800001 -1.826 0.2
-3.9530001 2.3659999 -1.825 0.12
-3.951 2.3469999 -1.8200001 0.2
-3.9449999 2.3269999 -1.814 0.17
-3.97 2.325 -1.822 0.25999999
-3.974 2.3110001 -1.821 0.18000001
-3.9860001 2.309 -1.825 0.23999999
-3.971 2.2839999 -1.814 0.22
-3.9749999 2.27 -1.812 0.22
-3.97 2.2509999 -1.807 0.27000001
-3.9949999 2.2479999 -1.8150001 0.36000001
-4.0050001 2.237 -1.817 0.30000001
-4 2.2179999 -1.811 0.34
-4.0380001 2.2309999 -1.8279999 0
-4.0500002 2.221 -1.83 0
-4.0489998 2.204 -1.826 0
-4.0510001 2.1889999 -1.824 0
-4.066 -1.99 -1.791 0
-4.0549998 -2 -1.789 0.02
-4.0619998 -2.02 -1.795 0.029999999
-4.0710001 -2.04 -1.802 0.079999998
-4.0489998 -2.0450001 -1.795 0.090000004
-4.0510001 -2.0539999 -1.7970001 0.079999998
-4.0359998 -2.062 -1.793 0.15000001
-4.0300002 -2.075 -1.793 0.16
-4.0170002 -2.0840001 -1.79 0.039999999
-4.0120001 -2.098 -1.791 0.16
-3.9949999 -2.105 -1.786 0.050000001
-3.9979999 -2.1229999 -1.791 0.16
-3.9949999 -2.1289999 -1.791 0.2
-3.98 -2.138 -1.7869999 0
-3.848 -2.0829999 -1.727 0
-3.4619999 -1.891 -1.546 0
-3.3670001 -1.854 -1.503 0
-3.3139999 -1.839 -1.48 0
-3.286 -1.837 -1.47 0
-3.267 -1.8329999 -1.462 0
-3.256 -1.84 -1.459 0
-3.2550001 -1.853 -1.462 0
-3.211 -1.842 -1.443 0
-3.1949999 -1.846 -1.438 0
-3.1670001 -1.844 -1.428 0
-3.1389999 -1.841 -1.4170001 0
-3.1010001 -1.825 -1.4 0
-3.086 -1.829 -1.395 0
-3.0639999 -1.83 -1.387 0
-3.0339999 -1.825 -1.376 0
-3.01 -1.824 -1.3660001 0
-2.983 -1.821 -1.3559999 0
-2.9619999 -1.8200001 -1.348 0
-2.9400001 -1.814 -1.339 0
-2.9119999 -1.809 -1.3279999 0
-2.891 -1.809 -1.3200001 0
-2.8710001 -1.809 -1.313 0
-2.8369999 -1.801 -1.299 0
-2.8050001 -1.793 -1.286 0
-2.8069999 -1.807 -1.29 0
-2.776 -1.793 -1.276 0
-2.757 -1.793 -1.2690001 0
-2.734 -1.791 -1.261 0
-2.7079999 -1.786 -1.25 0
-2.6949999 -1.79 -1.247 0
-2.6789999 -1.791 -1.2410001 0
-2.6359999 -1.775 -1.222 0
-2.6199999 -1.776 -1.217 0
-2.608 -1.774 -1.212 0
-2.579 -1.767 -1.201 0
-2.575 -1.776 -1.202 0
-2.559 -1.789 -1.199 0
-2.5569999 -1.799 -1.201 0
-2.527 -1.784 -1.187 0
-2.5050001 -1.781 -1.178 0
-2.4779999 -1.774 -1.1670001 0
-2.457 -1.771 -1.16 0
-2.45 -1.777 -1.159 0
-2.4119999 -1.762 -1.142 0
-2.4059999 -1.7690001 -1.142 0
-2.385 -1.76 -1.132 0
-2.359 -1.752 -1.122 0
-2.365 -1.768 -1.128 0
-2.3540001 -1.771 -1.125 0
-2.319 -1.757 -1.109 0
-2.2939999 -1.75 -1.099 0
-2.28 -1.75 -1.094 0
-2.28 -1.756 -1.096 0
-2.263 -1.7539999 -1.09 0
-2.223 -1.7359999 -1.072 0
-2.224 -1.747 -1.075 0
-2.22 -1.755 -1.076 0
-2.201 -1.752 -1.069 0
-2.174 -1.742 -1.057 0
-2.174 -1.747 -1.059 0
-2.1570001 -1.745 -1.052 0
-2.1389999 -1.7410001 -1.045 0
-2.1340001 -1.749 -1.046 0
-2.135 -1.761 -1.049 0
-2.1110001 -1.752 -1.039 0
-2.1110001 -1.7640001 -1.0420001 0
-2.0910001 -1.753 -1.033 0
-2.1010001 -1.772 -1.041 0
-2.073 -1.76 -1.029 0
-2.0639999 -1.7640001 -1.028 0
-2.056 -1.768 -1.026 0
-2.05 -1.775 -1.026 0
-2.039 -1.776 -1.023 0
-2.0320001 -1.776 -1.021 0
-2.0250001 -1.781 -1.02 0
-2.0220001 -1.79 -1.021 0
-1.995 -1.777 -1.0089999 0
-2.006 -1.798 -1.018 0
-1.989 -1.794 -1.012 0
-1.975 -1.793 -1.007 0
-1.98 -1.804 -1.012 0
-1.973 -1.809 -1.011 0
-1.965 -1.812 -1.01 0
-1.944 -1.8049999 -1.001 0
-1.937 -1.8099999 -1 0
-1.9299999 -1.814 -1 0
-1.926 -1.822 -1 0
-1.916 -1.824 -0.99800003 0
-1.898 -1.813 -0.98900002 0
-1.898 -1.824 -0.99299997 0
-1.895 -1.8329999 -0.99400002 0
-1.893 -1.842 -0.99599999 0
-1.901 -1.8609999 -1.0039999 0
-1.876 -1.849 -0.99299997 0
-1.826 -1.806 -0.96499997 0
-1.534 -2.1140001 -0.98400003 0
-1.53 -2.122 -0.986 0
-1.5190001 -2.1210001 -0.98199999 0
-1.512 -2.1259999 -0.98199999 0
-1.511 -2.138 -0.986 0
-1.5140001 -2.1559999 -0.99299997 0
-1.501 -2.1530001 -0.98900002 0
-1.497 -2.154 -0.98900002 0
-1.4960001 -2.1670001 -0.99299997 0
-1.506 -2.1949999 -1.005 0
-1.502 -2.2049999 -1.007 0.079999998
-1.508 -2.2279999 -1.017 0
-1.472 -2.191 -0.99599999 0
-1.477 -2.2130001 -1.0039999 0
-1.4809999 -2.2260001 -1.01 0
-1.473 -2.2290001 -1.0089999 0
-1.474 -2.2460001 -1.015 0
-1.476 -2.2639999 -1.022 0
-1.4680001 -2.267 -1.021 0
-1.465 -2.2780001 -1.024 0
-1.454 -2.276 -1.021 0
-1.446 -2.2720001 -1.018 0
-1.4400001 -2.2780001 -1.0190001 0
-1.441 -2.2950001 -1.025 0
-1.434 -2.3010001 -1.026 0
-1.426 -2.3039999 -1.025 0
-1.411 -2.296 -1.0190001 0
-1.413 -2.3150001 -1.026 0
-1.414 -2.325 -1.03 0
-1.402 -2.3210001 -1.026 0
-1.404 -2.342 -1.034 0
-1.397 -2.346 -1.034 0
-1.397 -2.3629999 -1.04 0
-1.402 -2.388 -1.05 0
-1.408 -2.414 -1.061 0
-1.4069999 -2.4230001 -1.064 0
-1.398 -2.424 -1.062 0
-1.392 -2.4319999 -1.064 0
-1.388 -2.4430001 -1.067 0
-1.378 -2.4419999 -1.0650001 0
-1.369 -2.4449999 -1.064 0
-1.3660001 -2.457 -1.068 0
-1.367 -2.467 -1.072 0
-1.363 -2.4779999 -1.075 0
-1.351 -2.4760001 -1.072 0
-1.362 -2.579 -1.112 0
-1.362 -2.5999999 -1.12 0
-1.365 -2.625 -1.13 0
-1.354 -2.6240001 -1.128 0
-1.344 -2.6240001 -1.125 0
-1.3329999 -2.6229999 -1.123 0
-1.325 -2.6270001 -1.123 0
-1.3279999 -2.6440001 -1.13 0
-1.336 -2.6789999 -1.145 0
-1.35 -2.7279999 -1.166 0
-1.337 -2.724 -1.1619999 0
-1.335 -2.7409999 -1.168 0
-1.325 -2.744 -1.1670001 0
-1.316 -2.7460001 -1.1670001 0
-1.317 -2.76 -1.1720001 0
-1.312 -2.7709999 -1.175 0
-1.3049999 -2.7780001 -1.177 0
-1.302 -2.7939999 -1.182 0
-1.3 -2.813 -1.189 0
-1.3 -2.8369999 -1.198 0
-1.3 -2.8599999 -1.207 0
-1.3049999 -2.882 -1.216 0
-1.307 -2.911 -1.228 0
-1.3049999 -2.9300001 -1.235 0
-1.655 -3.793 -1.627 0.20999999
-1.645 -3.7869999 -1.623 0.22
-1.633 -3.7920001 -1.623 0.16
-1.623 -3.8010001 -1.625 0.28999999
-1.61 -3.8039999 -1.624 0.23
-1.599 -3.8110001 -1.625 0.19
-1.586 -3.813 -1.623 0.28
-1.5700001 -3.809 -1.619 0.23
-1.563 -3.8080001 -1.618 0.17
-1.558 -3.8299999 -1.626 0.25999999
-1.539 -3.8180001 -1.618 0.23999999
-1.528 -3.826 -1.619 0.18000001
-1.517 -3.832 -1.62 0.27000001
-1.501 -3.8269999 -1.6160001 0.23
-1.493 -3.8440001 -1.6210001 0.18000001
-1.4809999 -3.8469999 -1.62 0.28
-1.473 -3.846 -1.619 0.23
-1.4579999 -3.8429999 -1.6160001 0.17
-1.449 -3.855 -1.619 0.27000001
-1.434 -3.852 -1.6160001 0.23
-1.421 -3.8529999 -1.614 0.16
-1.413 -3.868 -1.619 0.30000001
-1.398 -3.8659999 -1.6160001 0.23999999
-1.3890001 -3.859 -1.612 0.19
-1.382 -3.8770001 -1.618 0.27000001
-1.367 -3.875 -1.615 0.25
-1.353 -3.8740001 -1.612 0.18000001
-1.342 -3.8829999 -1.615 0.25999999
-1.33 -3.8859999 -1.614 0.23
-1.3200001 -3.8770001 -1.609 0.17
-1.311 -3.892 -1.614 0.27000001
-1.296 -3.8859999 -1.609 0.22
-1.284 -3.891 -1.61 0.19
-1.273 -3.8989999 -1.612 0.25999999
-1.2589999 -3.898 -1.609 0.23
-1.2460001 -3.9000001 -1.609 0.18000001
-1.239 -3.9000001 -1.608 0.25999999
-1.228 -3.9070001 -1.609 0.22
-1.217 -3.915 -1.6109999 0.19
-1.205 -3.9200001 -1.612 0.28
-1.1900001 -3.915 -1.608 0.23
-1.1799999 -3.924 -1.61 0.17
-1.166 -3.9230001 -1.608 0.25999999
-1.154 -3.9300001 -1.609 0.23
-1.149 -3.9330001 -1.61 0.15000001
-1.133 -3.9260001 -1.605 0.28999999
-1.12 -3.928 -1.605 0.23999999
-1.109 -3.9349999 -1.6059999 0.19
-1.096 -3.937 -1.605 0.27000001
-1.085 -3.9460001 -1.608 0.22
-1.075 -3.9330001 -1.602 0.15000001
-1.064 -3.9400001 -1.603 0.28
-1.053 -3.951 -1.6059999 0.23999999
-1.039 -3.948 -1.604 0.18000001
-1.028 -3.9549999 -1.605 0.27000001
-1.016 -3.9619999 -1.607 0.23
-1.002 -3.9560001 -1.603 0.19
-0.99599999 -3.96 -1.604 0.27000001
-0.98500001 -3.9679999 -1.6059999 0.23999999
-0.97000003 -3.96 -1.602 0.19
-0.95700002 -3.964 -1.602 0.25999999
-0.94700003 -3.974 -1.605 0.23
-0.93400002 -3.977 -1.605 0.19
-0.921 -3.9760001 -1.603 0.25999999
-0.91100001 -3.9649999 -1.598 0.23
-0.89899999 -3.9679999 -1.598 0.18000001
-0.88800001 -3.9760001 -1.6 0.27000001
-0.87599999 -3.98 -1.601 0.23999999
-0.86400002 -3.9849999 -1.602 0.18000001
-0.85100001 -3.9879999 -1.602 0.27000001
-0.838 -3.9890001 -1.601 0.23
-0.82999998 -3.9790001 -1.596 0.18000001
-0.81999999 -3.9960001 -1.602 0.28
-0.80699998 -3.9949999 -1.601 0.23
-0.79500002 -3.9990001 -1.602 0.2
-0.78100002 -3.9960001 -1.599 0.25999999
-0.76700002 -3.9920001 -1.596 0.22
-0.75599998 -4.0009999 -1.599 0.18000001
-0.75 -4.006 -1.601 0.28
-0.736 -3.9990001 -1.597 0.23
-0.72100002 -3.9890001 -1.591 0.14
-0.71200001 -4.0089998 -1.599 0.28
-0.69800001 -4.006 -1.597 0.23999999
-0.685 -4.0029998 -1.595 0.16
-0.67400002 -4.0180001 -1.6 0.28
-0.66500002 -4.0040002 -1.594 0.22
-0.653 -4.006 -1.594 0.18000001
-0.64300001 -4.0229998 -1.6 0.27000001
-0.62900001 -4.0170002 -1.597 0.23999999
-0.616 -4.0190001 -1.597 0.18000001
-0.60399997 -4.0209999 -1.597 0.27000001
-0.58999997 -4.0159998 -1.594 0.22
-0.58499998 -4.0240002 -1.597 0.18000001
-0.57200003 -4.026 -1.597 0.27000001
-0.55900002 -4.0219998 -1.595 0.23
-0.54500002 -4.0190001 -1.592 0.19
-0.53500003 -4.0370002 -1.599 0.27000001
-0.51999998 -4.026 -1.594 0.23999999
-0.50700003 -4.0250001 -1.5930001 0.18000001
-0.50199997 -4.033 -1.596 0.27000001
-0.48899999 -4.0349998 -1.596 0.25
-0.47499999 -4.0240002 -1.591 0.18000001
-0.46399999 -4.0359998 -1.595 0.27000001
-0.45199999 -4.0430002 -1.598 0.23
-0.43900001 -4.0409999 -1.596 0.19
-0.426 -4.04 -1.595 0.27000001
-0.41999999 -4.0430002 -1.596 0.23999999
-0.40700001 -4.0419998 -1.595 0.19
-0.39500001 -4.0510001 -1.598 0.27000001
-0.38100001 -4.0450001 -1.595 0.23
-0.368 -4.0419998 -1.594 0.16
-0.35600001 -4.0489998 -1.596 0.28
-0.34299999 -4.0430002 -1.5930001 0.25
-0.336 -4.0380001 -1.591 0.16
-0.32499999 -4.059 -1.599 0.28999999
-0.31099999 -4.0469999 -1.594 0.23
-0.29800001 -4.0440001 -1.592 0.18000001
-0.28600001 -4.0560002 -1.597 0.27000001
-0.27399999 -4.0609999 -1.598 0.23999999
-0.25999999 -4.0539999 -1.595 0.19
-0.25400001 -4.0580001 -1.597 0.27000001
-0.242 -4.0570002 -1.596 0.23
-0.229 -4.0539999 -1.595 0.2
-0.21600001 -4.0630002 -1.598 0.27000001
-0.20299999 -4.0560002 -1.595 0.23
-0.191 -4.0669999 -1.599 0.25
-0.178 -4.0630002 -1.597 0.20999999
-0.17200001 -4.0679998 -1.599 0.27000001
-0.15800001 -4.0539999 -1.5930001 0.23999999
-0.146 -4.0640001 -1.597 0.19
-0.133 -4.0679998 -1.598 0.27000001
-0.12 -4.0650001 -1.597 0.23
-0.107 -4.0560002 -1.5930001 0.18000001
-0.094999999 -4.0650001 -1.597 0.27000001
-0.088 -4.0619998 -1.595 0.23
-0.075000003 -4.0570002 -1.5930001 0.18000001
-0.063000001 -4.066 -1.597 0.25999999
-0.050000001 -4.066 -1.597 0.23
-0.037 -4.0570002 -1.5930001 0.16
-0.025 -4.0650001 -1.596 0.28999999
-0.017999999 -4.0679998 -1.598 0.25
-0.0049999999 -4.0679998 -1.598 0.20999999
0.0070000002 -4.0609999 -1.595 0.23999999
0.02 -4.0700002 -1.598 0.22
0.033 -4.0609999 -1.595 0.11
0.046 -4.0619998 -1.595 0.20999999
0.057999998 -4.0599999 -1.595 0.050000001
0.064999998 -4.0809999 -1.603 0
0.078000002 -4.0900002 -1.607 0
0.090999998 -4.0970001 -1.61 0
0.104 -4.1110001 -1.6160001 0
0.117 -4.105 -1.614 0
0.13 -4.1030002 -1.613 0
0.89499998 -1.775 -0.72100002 0
0.89899999 -1.775 -0.72100002 0
0.90600002 -1.775 -0.72299999 0
0.91500002 -1.779 -0.72600001 0
0.91900003 -1.773 -0.72500002 0
0.92199999 -1.765 -0.722 0
0.93400002 -1.775 -0.72799999 0
0.93199998 -1.758 -0.72100002 0
0.93300003 -1.753 -0.72000003 0
0.94499999 -1.761 -0.72500002 0
0.94700003 -1.752 -0.722 0
0.95999998 -1.7640001 -0.72899997 0
0.96499997 -1.7589999 -0.72799999 0
0.96899998 -1.7539999 -0.72799999 0
0.977 -1.756 -0.73000002 0
0.98100001 -1.756 -0.73100001 0
0.98900002 -1.758 -0.73299998 0
1.002 -1.768 -0.73900002 0
1.011 -1.771 -0.74199998 0
1.015 -1.765 -0.741 0
1.024 -1.768 -0.74400002 0
1.0319999 -1.776 -0.74900001 0
1.036 -1.7690001 -0.74699998 0
1.0420001 -1.768 -0.74800003 0
1.0470001 -1.763 -0.74699998 0
1.053 -1.761 -0.74800003 0
1.062 -1.763 -0.75 0
1.075 -1.772 -0.75599998 0
1.076 -1.767 -0.755 0
1.0650001 -1.737 -0.74199998 0
1.076 -1.743 -0.74599999 0
1.079 -1.735 -0.74400002 0
1.09 -1.7410001 -0.74900001 0
1.097 -1.7410001 -0.75 0
1.099 -1.7309999 -0.74699998 0
1.109 -1.735 -0.75099999 0
1.115 -1.738 -0.75300002 0
1.12 -1.735 -0.75300002 0
1.125 -1.73 -0.75199997 0
1.131 -1.728 -0.75300002 0
1.1440001 -1.735 -0.759 0
1.145 -1.725 -0.75599998 0
1.159 -1.734 -0.76200002 0
1.158 -1.727 -0.759 0
1.163 -1.722 -0.759 0
1.176 -1.7309999 -0.76499999 0
1.181 -1.726 -0.764 0
1.189 -1.726 -0.76599997 0
1.197 -1.726 -0.76800001 0
1.1950001 -1.7180001 -0.76499999 0
1.204 -1.719 -0.76700002 0
1.217 -1.727 -0.773 0
1.221 -1.72 -0.77200001 0
1.226 -1.716 -0.77200001 0
1.235 -1.717 -0.77399999 0
1.243 -1.717 -0.77700001 0
1.252 -1.725 -0.78100002 0
1.261 -1.725 -0.78399998 0
1.263 -1.717 -0.78100002 0
1.266 -1.71 -0.77999997 0
1.281 -1.719 -0.787 0
1.312 -1.749 -0.80500001 0
1.3 -1.721 -0.792 0
1.2970001 -1.712 -0.78799999 0
1.304 -1.709 -0.78899997 0
1.309 -1.705 -0.78899997 0
1.322 -1.711 -0.79400003 0
1.329 -1.709 -0.79500002 0
1.3329999 -1.7029999 -0.79400003 0
1.346 -1.709 -0.80000001 0
1.354 -1.714 -0.80400002 0
1.365 -1.717 -0.80800003 0
1.364 -1.704 -0.80299997 0
1.367 -1.697 -0.801 0
1.38 -1.7029999 -0.80699998 0
1.391 -1.706 -0.81099999 0
1.39 -1.693 -0.80599999 0
1.398 -1.698 -0.81 0
1.409 -1.701 -0.81400001 0
1.414 -1.6950001 -0.81300002 0
1.426 -1.699 -0.81800002 0
1.4349999 -1.699 -0.81999999 0
1.438 -1.691 -0.81900001 0
1.449 -1.694 -0.82200003 0
1.455 -1.696 -0.82499999 0
1.46 -1.691 -0.82499999 0
1.466 -1.687 -0.82499999 0
1.484 -1.697 -0.833 0
1.48 -1.682 -0.82700002 0
1.495 -1.688 -0.833 0
1.501 -1.6900001 -0.83600003 0
1.51 -1.689 -0.838 0
1.526 -1.697 -0.84500003 0
1.5319999 -1.692 -0.84500003 0
1.527 -1.676 -0.83899999 0
1.544 -1.684 -0.84600002 0
1.556 -1.687 -0.85000002 0
1.554 -1.679 -0.847 0
1.554 -1.669 -0.84399998 0
1.591 -1.698 -0.86400002 0.02
1.587 -1.684 -0.85799998 0.07
1.589 -1.675 -0.85600001 0
1.6 -1.676 -0.86000001 0
1.597 -1.6619999 -0.85399997 0
1.609 -1.665 -0.85900003 0
1.632 -1.684 -0.87099999 0
1.626 -1.6670001 -0.86400002 0
1.645 -1.676 -0.87300003 0
1.658 -1.679 -0.87800002 0
1.664 -1.674 -0.87800002 0
1.673 -1.6720001 -0.88 0
1.692 -1.682 -0.88800001 0
1.688 -1.6720001 -0.88499999 0
1.7029999 -1.676 -0.88999999 0
1.711 -1.673 -0.89200002 0
1.715 -1.6670001 -0.89099997 0
1.728 -1.669 -0.89499998 0
1.742 -1.673 -0.90100002 0
1.73 -1.656 -0.89200002 0
1.763 -1.677 -0.90899998 0
1.758 -1.6619999 -0.90200001 0
1.762 -1.655 -0.90200001 0
1.783 -1.664 -0.91100001 0
1.793 -1.664 -0.91399997 0
1.807 -1.666 -0.91900003 0
1.8049999 -1.659 -0.91600001 0
1.823 -1.665 -0.92299998 0
1.8279999 -1.659 -0.92299998 0
1.836 -1.656 -0.92500001 0
1.849 -1.658 -0.93000001 0
1.858 -1.655 -0.93199998 0
1.868 -1.653 -0.93400002 0
1.865 -1.645 -0.93099999 0
1.8839999 -1.652 -0.93900001 0
1.9 -1.656 -0.94499999 0
1.918 -1.661 -0.95200002 0
1.921 -1.654 -0.95099998 0
1.925 -1.646 -0.95099998 0
1.932 -1.641 -0.95099998 0
1.959 -1.66 -0.96499997 0
1.973 -1.661 -0.97000003 0
1.967 -1.645 -0.96399999 0
2.2950001 -1.646 -1.073 0
2.309 -1.645 -1.0779999 0
2.323 -1.6440001 -1.0829999 0
2.346 -1.65 -1.092 0
2.3559999 -1.646 -1.094 0
2.369 -1.6440001 -1.098 0
2.3770001 -1.638 -1.1 0
2.3989999 -1.648 -1.11 0
2.418 -1.65 -1.117 0
2.431 -1.648 -1.1210001 0
2.457 -1.655 -1.132 0
2.4489999 -1.638 -1.125 0
2.477 -1.646 -1.136 0
2.4860001 -1.641 -1.1390001 0
2.506 -1.648 -1.147 0
2.5109999 -1.64 -1.147 0
2.563 -1.652 -1.168 0
2.5680001 -1.6440001 -1.168 0
2.5810001 -1.641 -1.1720001 0
2.546 -1.613 -1.153 0
3.092 -1.6950001 -1.369 0
3.1059999 -1.6900001 -1.373 0
3.1300001 -1.691 -1.383 0
3.1570001 -1.692 -1.393 0
3.1989999 -1.7029999 -1.41 0
3.263 -1.724 -1.438 0
3.6559999 -1.928 -1.625 0.090000004
3.743 -1.959 -1.664 0.17
3.7479999 -1.947 -1.663 0.18000001
3.75 -1.933 -1.661 0.17
3.77 -1.928 -1.668 0.090000004
3.7639999 -1.91 -1.6619999 0.079999998
3.77 -1.899 -1.6619999 0.090000004
3.773 -1.893 -1.6619999 0
3.7030001 -1.8430001 -1.626 0
3.619 -1.786 -1.584 0
3.5450001 -1.735 -1.546 0
3.5769999 -1.737 -1.559 0
3.71 -1.788 -1.619 0
3.74 -1.788 -1.63 0
3.701 -1.762 -1.6109999 0
3.6889999 -1.742 -1.602 0
3.684 -1.726 -1.598 0
3.675 -1.707 -1.591 0
3.6819999 -1.696 -1.591 0
3.6849999 -1.684 -1.591 0
3.691 -1.6720001 -1.591 0
3.71 -1.674 -1.598 0
3.7249999 -1.6670001 -1.603 0
3.7349999 -1.658 -1.605 0
3.779 -1.663 -1.623 0
3.825 -1.669 -1.642 0
3.852 -1.6670001 -1.652 0.039999999
3.9489999 -1.694 -1.694 0.18000001
3.9530001 -1.689 -1.6950001 0.18000001
3.967 -1.6799999 -1.699 0.30000001
3.9630001 -1.664 -1.6950001 0.18000001
3.974 -1.654 -1.697 0.25
3.9719999 -1.638 -1.694 0.18000001
3.9820001 -1.628 -1.696 0.25
3.994 -1.618 -1.699 0.18000001
3.99 -1.609 -1.696 0.23999999
3.997 -1.597 -1.697 0.19
3.9979999 -1.584 -1.696 0.25
4.0050001 -1.572 -1.696 0.19
4.0120001 -1.5599999 -1.697 0.12
4.013 -1.546 -1.696 0.18000001
4.0159998 -1.533 -1.6950001 0.12
4.013 -1.524 -1.692 0.18000001
4.02 -1.512 -1.693 0.20999999
4.0250001 -1.5 -1.693 0.15000001
4.0279999 -1.4859999 -1.692 0.25999999
4.0310001 -1.473 -1.692 0.18000001
4.0229998 -1.456 -1.686 0.050000001
4.0380001 -1.447 -1.691 0.17
4.0450001 -1.443 -1.693 0.11
4.0409999 -1.427 -1.689 0.19
4.0489998 -1.415 -1.691 0.1
4.059 -1.404 -1.693 0.18000001
4.0580001 -1.39 -1.691 0.11
4.0619998 -1.377 -1.691 0.18000001
4.0739999 -1.367 -1.694 0.1
4.0710001 -1.358 -1.692 0.18000001
4.0799999 -1.347 -1.694 0.11
4.0809999 -1.3329999 -1.692 0.19
4.0879998 -1.322 -1.694 0.1
4.086 -1.307 -1.691 0.18000001
4.098 -1.2970001 -1.6950001 0.11
4.1040001 -1.291 -1.696 0.16
4.1030002 -1.277 -1.694 0.20999999
4.1079998 -1.2640001 -1.6950001 0.1
4.1139998 -1.252 -1.696 0.16
4.1129999 -1.237 -1.693 0.050000001
4.1110001 -1.223 -1.691 0.17
4.1290002 -1.214 -1.697 0.19
4.1149998 -1.2029999 -1.6900001 0
4.1240001 -1.192 -1.692 0
4.1259999 -1.178 -1.692 0
4.1339998 -1.166 -1.693 0
6.2670002 -1.687 -2.618 0
6.2859998 -1.671 -2.625 0
6.2880001 -1.65 -2.6229999 0
6.2969999 -1.631 -2.625 0
16.879 4.46 -7.4099998 0
4.0370002 1.329 -1.715 0
4.0079999 1.3329999 -1.704 0.039999999
3.9860001 1.34 -1.696 0.16
3.987 1.354 -1.699 0.1
3.9909999 1.363 -1.701 0.19
3.9809999 1.373 -1.699 0.20999999
3.9679999 1.383 -1.6950001 0.18000001
3.964 1.395 -1.6950001 0.17
3.9630001 1.409 -1.696 0.18000001
3.9549999 1.42 -1.6950001 0.18000001
3.9489999 1.432 -1.694 0.18000001
3.95 1.439 -1.6950001 0.17
3.9400001 1.45 -1.693 0.090000004
3.9660001 1.474 -1.707 0.16
3.9219999 1.471 -1.689 0.050000001
3.9400001 1.492 -1.699 0.17
3.9230001 1.5 -1.694 0.2
3.9419999 1.521 -1.705 0.18000001
3.9319999 1.524 -1.701 0.23
3.9400001 1.5420001 -1.707 0.2
3.9119999 1.545 -1.696 0.20999999
3.908 1.558 -1.697 0.090000004
3.904 1.5700001 -1.697 0.079999998
3.8829999 1.576 -1.6900001 0.039999999
3.8829999 1.59 -1.692 0.07
3.872 1.5930001 -1.688 0.039999999
3.878 1.609 -1.693 0.07
3.862 1.617 -1.688 0.039999999
3.869 1.6339999 -1.694 0.14
3.8610001 1.645 -1.692 0.050000001
3.8740001 1.665 -1.701 0.14
3.8599999 1.674 -1.697 0.11
3.8629999 1.682 -1.699 0.2
3.849 1.6900001 -1.6950001 0.19
3.8499999 1.706 -1.699 0.16
3.825 1.709 -1.689 0.18000001
3.8199999 1.721 -1.689 0.1
3.822 1.7359999 -1.693 0.18000001
3.812 1.7460001 -1.691 0.2
3.8039999 1.75 -1.688 0.1
3.8169999 1.77 -1.697 0.18000001
3.796 1.775 -1.6900001 0.20999999
3.7909999 1.7869999 -1.6900001 0.090000004
3.7969999 1.8049999 -1.6950001 0.18000001
3.8080001 1.825 -1.7029999 0.25999999
3.7920001 1.832 -1.699 0.27000001
3.789 1.8380001 -1.699 0.20999999
3.7850001 1.85 -1.699 0.25
3.7780001 1.8609999 -1.699 0.23
3.777 1.876 -1.701 0.18000001
3.7609999 1.883 -1.696 0.27000001
3.77 1.902 -1.7029999 0.2
3.7550001 1.91 -1.699 0.23
3.7509999 1.915 -1.699 0.18000001
3.7550001 1.931 -1.7029999 0.23
3.7550001 1.947 -1.707 0.20999999
3.7260001 1.946 -1.6950001 0.12
3.7409999 1.969 -1.706 0.2
3.7320001 1.979 -1.704 0.11
3.7119999 1.984 -1.698 0.18000001
3.7130001 1.992 -1.699 0.17
3.7030001 2.0020001 -1.698 0.30000001
3.6849999 2.007 -1.692 0.30000001
3.6919999 2.026 -1.699 0.36000001
3.6199999 2 -1.666 0
3.681 2.05 -1.699 0
3.6860001 2.0680001 -1.705 0
3.6849999 2.075 -1.707 0
3.688 2.092 -1.711 0
3.6989999 2.1140001 -1.72 0
3.704 2.132 -1.726 0
3.7019999 2.1459999 -1.728 0
3.7060001 2.165 -1.734 0
3.7149999 2.178 -1.74 0
3.6930001 2.1800001 -1.732 0
3.697 2.198 -1.737 0
3.6570001 2.277 -1.7410001 0
3.641 2.283 -1.7359999 0
3.628 2.29 -1.733 0
3.6370001 2.313 -1.7410001 0
3.632 2.325 -1.742 0
3.605 2.316 -1.73 0
3.5810001 2.316 -1.722 0
3.575 2.3280001 -1.722 0.059999999
3.5539999 2.3299999 -1.715 0.14
3.539 2.336 -1.711 0.23
3.536 2.3510001 -1.714 0.22
3.513 2.3510001 -1.706 0.17
3.4949999 2.3469999 -1.698 0.31999999
3.5190001 2.3789999 -1.714 0.25
3.5150001 2.392 -1.716 0.20999999
3.5020001 2.4000001 -1.714 0.25
3.5050001 2.4189999 -1.719 0.20999999
3.487 2.4219999 -1.714 0.22
3.5009999 2.448 -1.725 0.2
3.477 2.4400001 -1.714 0.20999999
3.4679999 2.45 -1.714 0.22
3.4719999 2.4690001 -1.72 0.27000001
3.4749999 2.4879999 -1.726 0.20999999
3.4579999 2.4920001 -1.721 0.23
3.4590001 2.5090001 -1.726 0.23
3.447 2.517 -1.723 0.30000001
3.4430001 2.5220001 -1.723 0.28999999
3.447 2.5420001 -1.73 0.27000001
3.437 2.552 -1.729 0.25
3.431 2.5639999 -1.73 0.34999999
3.4130001 2.5669999 -1.724 0.30000001
3.418 2.5869999 -1.7309999 0.28
3.398 2.5799999 -1.722 0.31
3.382 2.585 -1.7180001 0.27000001
3.4000001 2.6159999 -1.733 0.23
3.3870001 2.6240001 -1.73 0.050000001
3.382 2.6359999 -1.732 0
3.368 2.6429999 -1.729 0
3.3710001 2.6619999 -1.735 0
3.3859999 2.6830001 -1.745 0
3.3829999 2.698 -1.749 0
3.3670001 2.7030001 -1.745 0
3.342 2.6989999 -1.735 0
3.326 2.704 -1.7309999 0
3.335 2.7279999 -1.7410001 0
3.339 2.7490001 -1.748 0
3.346 2.773 -1.756 0.0099999998
3.3169999 2.7579999 -1.743 0.029999999
3.29 2.753 -1.733 0
3.286 2.767 -1.735 0
3.286 2.7839999 -1.74 0
3.2809999 2.7980001 -1.742 0
3.2539999 2.793 -1.732 0.059999999
3.2620001 2.8180001 -1.7410001 0.17
3.23 2.7980001 -1.726 0.22
3.2179999 2.806 -1.724 0.33000001
3.2219999 2.8269999 -1.7309999 0.37
3.223 2.846 -1.737 0.30000001
3.22 2.862 -1.7410001 0.25999999
3.217 2.8770001 -1.744 0.20999999
3.2119999 2.891 -1.7460001 0.28
3.197 2.8859999 -1.74 0.23999999
3.178 2.8870001 -1.734 0.25999999
3.177 2.905 -1.739 0.23
3.1659999 2.914 -1.738 0.31999999
3.1489999 2.9159999 -1.734 0.25999999
3.148 2.9330001 -1.738 0.25
3.1429999 2.938 -1.738 0.18000001
3.1289999 2.9430001 -1.735 0.23999999
3.1400001 2.9719999 -1.747 0.20999999
3.1170001 2.9690001 -1.739 0.12
3.1099999 2.9820001 -1.7410001 0.20999999
3.102 2.993 -1.7410001 0.11
3.082 2.9920001 -1.735 0.2
3.075 2.994 -1.734 0.11
3.079 3.017 -1.7410001 0.20999999
3.0639999 3.0209999 -1.738 0.27000001
3.0569999 3.0339999 -1.74 0.2
3.0450001 3.0409999 -1.738 0.28
3.0380001 3.053 -1.74 0.18000001
3.0179999 3.052 -1.734 0.23
3.02 3.063 -1.737 0.17
3.007 3.0699999 -1.7359999 0.23
3.0039999 3.086 -1.74 0.18000001
2.9820001 3.082 -1.732 0.23999999
2.9849999 3.105 -1.74 0.2
2.964 3.102 -1.733 0.12
2.9579999 3.115 -1.735 0.20999999
2.9530001 3.1199999 -1.735 0.14
2.9430001 3.1289999 -1.735 0.28
2.9289999 3.1340001 -1.733 0.25
2.9230001 3.148 -1.735 0.19
2.908 3.151 -1.732 0.25999999
2.9119999 3.1760001 -1.7410001 0.19
2.888 3.1700001 -1.732 0.23999999
2.8859999 3.177 -1.734 0.20999999
2.8870001 3.198 -1.7410001 0.18000001
2.8670001 3.1960001 -1.734 0.25999999
2.858 3.207 -1.735 0.22
2.858 3.227 -1.7410001 0.18000001
2.8329999 3.2190001 -1.732 0.25999999
2.826 3.2309999 -1.734 0.23
2.829 3.2449999 -1.739 0.25
2.8069999 3.24 -1.7309999 0.27000001
2.7980001 3.25 -1.732 0.2
2.789 3.26 -1.733 0.28
2.7750001 3.2650001 -1.73 0.25
2.7750001 3.286 -1.737 0.25
2.7709999 3.302 -1.7410001 0.23
2.753 3.2909999 -1.733 0.20999999
2.7449999 3.302 -1.734 0.37
2.7349999 3.312 -1.735 0.5
2.7049999 3.2969999 -1.722 0.30000001
2.704 3.316 -1.728 0.28999999
2.6949999 3.326 -1.729 0.28
2.678 3.326 -1.724 0.27000001
2.681 3.342 -1.73 0.28999999
2.6719999 3.352 -1.7309999 0.25999999
2.6559999 3.3529999 -1.727 0.25999999
2.652 3.3699999 -1.732 0.25999999
2.6440001 3.381 -1.734 0.27000001
2.6259999 3.381 -1.729 0.25999999
2.6159999 3.3889999 -1.729 0.27000001
2.6170001 3.402 -1.734 0.27000001
2.5999999 3.401 -1.729 0.25999999
2.595 3.4170001 -1.733 0.27000001
2.582 3.4219999 -1.7309999 0.28999999
2.576 3.437 -1.735 0.27000001
2.5680001 3.448 -1.737 0.28
2.552 3.451 -1.734 0.28
2.5569999 3.4679999 -1.7410001 0.28999999
2.543 3.471 -1.738 0.27000001
2.533 3.4809999 -1.739 0.28
2.5220001 3.4890001 -1.739 0.28999999
2.5120001 3.4979999 -1.74 0.28999999
2.4979999 3.5020001 -1.737 0.28
2.4820001 3.5020001 -1.734 0.30000001
2.4809999 3.513 -1.737 0.27000001
2.4719999 3.5239999 -1.739 0.27000001
2.4579999 3.527 -1.737 0.28999999
2.4519999 3.543 -1.7410001 0.30000001
2.441 3.55 -1.7410001 0.28999999
2.4289999 3.556 -1.74 0.28999999
2.421 3.569 -1.742 0.30000001
2.4089999 3.563 -1.737 0.30000001
2.3989999 3.572 -1.738 0.28999999
2.388 3.5799999 -1.738 0.28999999
2.375 3.586 -1.737 0.27000001
2.365 3.595 -1.738 0.27000001
2.3570001 3.6070001 -1.7410001 0.27000001
2.349 3.6199999 -1.744 0.28
2.3380001 3.615 -1.739 0.28
2.335 3.6359999 -1.7460001 0.25999999
2.3239999 3.6429999 -1.7460001 0.28999999
2.3110001 3.6489999 -1.745 0.33000001
2.2950001 3.6489999 -1.7410001 0.27000001
2.2880001 3.664 -1.745 0.27000001
2.276 3.6689999 -1.745 0.27000001
2.27 3.6730001 -1.745 0.23999999
2.257 3.677 -1.743 0.34999999
