# .PCD v0.7 - Point Cloud Data file format
VERSION 0.7
FIELDS x y z intensity
SIZE 4 4 4 4
TYPE F F F F
COUNT 1 1 1 1
WIDTH 1409
HEIGHT 1
VIEWPOINT 0 0 0 1 0 0 0
POINTS 1409
DATA ascii
0.477 -7.638 -0.23 0.18000001
0.49700001 -7.5809999 -0.227 0.22
0.52399999 -7.6209998 -0.229 0.2
0.54299998 -7.5580001 -0.226 0.25999999
0.56599998 -7.5359998 -0.22400001 0.22
0.56699997 -7.23 -0.207 0.17
0.602 -7.5469999 -0.22499999 0.14
0.62900001 -7.5869999 -0.228 0.34
0.64899999 -7.5359998 -0.22499999 0.2
0.66600001 -7.4559999 -0.22 0.090000004
0.67699999 -7.3130002 -0.212 0.14
0.68400002 -7.1350002 -0.20200001 0.17
0.70700002 -7.1430001 -0.20299999 0.17
0.71700001 -7.1300001 -0.20200001 0.18000001
0.75400001 -7.277 -0.211 0.20999999
0.77399999 -7.2470002 -0.20900001 0
0.78899997 -7.1690001 -0.205 0
0.83700001 -7.3959999 -0.21799999 0
0.82200003 -7.0539999 -0.199 0.13
0.82999998 -6.9349999 -0.192 0.23
0.82499999 -6.7909999 -0.184 0.19
0.84100002 -6.744 -0.18099999 0.16
0.866 -6.7740002 -0.183 0.23
0.88999999 -6.7969999 -0.185 0.17
0.91500002 -6.8169999 -0.186 0.38
0.93300003 -6.7950001 -0.185 0.25
0.95899999 -6.8189998 -0.18700001 0
0.97500002 -6.8590002 -0.189 0.07
1.053 -7.2579999 -0.212 0
1.052 -7.086 -0.20200001 0
1.041 -6.862 -0.19 0
1.077 -6.9530001 -0.19499999 0
1.1440001 -7.2399998 -0.212 0
1.127 -6.9819999 -0.197 0
1.109 -6.803 -0.18700001 0.13
1.132 -6.809 -0.18700001 0.16
1.164 -6.868 -0.191 0.17
1.1849999 -6.8590002 -0.191 0.18000001
1.256 -7.1459999 -0.207 0
1.2359999 -6.8969998 -0.193 0.11
1.2359999 -6.7729998 -0.186 0.16
1.249 -6.7859998 -0.18700001 0.16
1.258 -6.7160001 -0.183 0.2
1.277 -6.6960001 -0.183 0
1.308 -6.7470002 -0.186 0.13
1.334 -6.7659998 -0.18700001 0.12
1.3609999 -6.7909999 -0.189 0.14
1.399 -6.869 -0.19400001 0.28999999
1.414 -6.8889999 -0.19499999 0.2
1.4349999 -6.8839998 -0.19499999 0.13
1.4680001 -6.9320002 -0.198 0.15000001
1.512 -7.0349998 -0.204 0
1.512 -6.927 -0.198 0
1.591 -7.1859999 -0.213 0.1
1.658 -7.3790002 -0.22499999 0.16
1.658 -7.3260002 -0.222 0.1
1.642 -7.1479998 -0.212 0.14
1.6900001 -7.2529998 -0.21799999 0.28999999
1.743 -7.3800001 -0.226 0.25
1.789 -7.4679999 -0.23100001 0.19
1.795 -7.3909998 -0.227 0.18000001
1.8049999 -7.3309999 -0.22400001 0.34
1.8099999 -7.302 -0.223 0.23999999
1.834 -7.3010001 -0.223 0.28999999
1.875 -7.3660002 -0.227 0.17
1.878 -7.2789998 -0.222 0.38
1.87 -7.1529999 -0.215 0.2
1.885 -7.1220002 -0.214 0.20999999
1.899 -7.0819998 -0.212 0.25999999
1.913 -7.0900002 -0.212 0.20999999
1.9299999 -7.0650001 -0.211 0.28
1.937 -7.0029998 -0.208 0
2.7130001 -9.6099997 -0.36199999 0.28999999
2.3940001 -8.368 -0.289 0.31999999
2.3840001 -8.283 -0.285 0.31
2.437 -8.3699999 -0.28999999 0.37
2.4779999 -8.4119997 -0.29300001 0.28999999
2.8599999 -9.6090002 -0.36399999 0.19
2.895 -9.6169996 -0.36500001 0.5
2.928 -9.6160002 -0.36500001 0.20999999
2.5050001 -8.1219997 -0.278 0.33000001
2.973 -9.6020002 -0.36500001 0.16
3.007 -9.6059999 -0.366 0.31999999
3.04 -9.6040001 -0.36700001 0.28
3.073 -9.6059999 -0.36700001 0.41
2.6159999 -8.0749998 -0.27700001 0.17
3.1389999 -9.6009998 -0.368 0.31999999
3.1830001 -9.6350002 -0.37099999 0.30000001
3.2079999 -9.6599998 -0.373 0.31999999
3.2390001 -9.6520004 -0.373 0.31999999
3.277 -9.665 -0.37400001 0.36000001
3.313 -9.6689997 -0.375 0.28999999
2.77 -7.9889998 -0.27500001 0.31999999
2.8039999 -8.007 -0.27700001 0.23
2.826 -7.9889998 -0.27599999 0.25999999
2.849 -8.0129995 -0.278 0.38
2.8759999 -8.0089998 -0.278 0.36000001
3.4949999 -9.6540003 -0.37799999 0.18000001
3.529 -9.6540003 -0.37799999 0.31999999
3.5639999 -9.6540003 -0.37900001 0.33000001
3.595 -9.6470003 -0.37900001 0.33000001
3.631 -9.651 -0.38 0.31999999
3.6489999 -9.6520004 -0.38100001 0.31999999
3.684 -9.6540003 -0.38100001 0.33000001
3.7190001 -9.6529999 -0.382 0.34
3.7539999 -9.6549997 -0.38299999 0.34999999
3.7850001 -9.6429996 -0.38299999 0.34999999
3.816 -9.6350002 -0.38299999 0.34
3.813 -9.5819998 -0.38 0.31999999
3.7750001 -9.3999996 -0.37 0.33000001
3.9400001 -9.6370001 -0.38600001 0.57999998
3.9519999 -9.5799999 -0.38299999 0.28999999
3.9990001 -9.6079998 -0.38600001 0.34999999
4.0549998 -9.658 -0.389 0.23
4.0669999 -9.6440001 -0.389 0.55000001
4.0809999 -9.5909996 -0.38600001 0.27000001
4.1440001 -9.6569996 -0.391 0.38
4.1789999 -9.6549997 -0.39199999 0.38
4.2160001 -9.6560001 -0.39300001 0.38999999
4.25 -9.6499996 -0.39300001 0.38
4.2859998 -9.6520004 -0.39399999 0.41
4.3189998 -9.6440001 -0.39500001 0.38999999
4.3369999 -9.6440001 -0.39500001 0.40000001
4.3779998 -9.6520004 -0.396 0.40000001
4.4159999 -9.6569996 -0.398 0.38999999
4.4489999 -9.6479998 -0.398 0.38999999
4.4819999 -9.6400003 -0.398 0.38999999
4.5219998 -9.6470003 -0.40000001 0.38999999
4.5560002 -9.6400003 -0.40000001 0.41
4.5770001 -9.6459999 -0.40099999 0.41
4.6139998 -9.6459999 -0.40200001 0.41
4.6469998 -9.6370001 -0.40200001 0.41999999
4.684 -9.6359997 -0.403 0.41999999
4.7270002 -9.6470003 -0.405 0.41
4.7589998 -9.6350002 -0.405 0.40000001
4.7779999 -9.6370001 -0.405 0.40000001
4.8200002 -9.6450005 -0.40700001 0.40000001
4.8520002 -9.6330004 -0.40700001 0.41
4.888 -9.6289997 -0.40799999 0.41
4.9250002 -9.6280003 -0.40900001 0.40000001
4.9619999 -9.625 -0.40900001 0.43000001
5 -9.625 -0.41 0.41
5.0250001 -9.6350002 -0.412 0.41
5.0640001 -9.6370001 -0.41299999 0.41
5.098 -9.6280003 -0.41299999 0.41
5.138 -9.6289997 -0.414 0.40000001
5.1719999 -9.6199999 -0.41499999 0.40000001
5.211 -9.6210003 -0.41600001 0.40000001
5.2509999 -9.6230001 -0.417 0.41
5.2909999 -9.6239996 -0.41800001 0.41999999
5.3119998 -9.6260004 -0.419 0.41
5.3509998 -9.625 -0.41999999 0.41999999
5.388 -9.6199999 -0.421 0.41
5.428 -9.6219997 -0.42199999 0.41
5.4660001 -9.6169996 -0.42300001 0.41
5.5019999 -9.6099997 -0.42300001 0.41999999
5.5380001 -9.6040001 -0.42399999 0.54000002
5.5749998 -9.6330004 -0.426 0.20999999
5.605 -9.6149998 -0.426 0.44999999
5.7639999 -9.8179998 -0.44100001 0.57999998
5.6760001 -9.599 -0.428 0.2
5.7259998 -9.6140003 -0.43000001 0
5.7649999 -9.6110001 -0.43099999 0
3.7030001 -6.1329999 -0.20200001 0
3.628 -5.9660001 -0.192 0
3.675 -6 -0.19499999 0
3.471 -5.6240001 -0.171 0
3.5320001 -5.6830001 -0.175 0
3.5320001 -5.645 -0.17399999 0.059999999
3.5769999 -5.6760001 -0.176 0
3.556 -5.6230001 -0.17299999 0
3.6440001 -5.723 -0.18099999 0.059999999
3.6389999 -5.6760001 -0.178 0.14
3.6489999 -5.651 -0.177 0.18000001
3.664 -5.6360002 -0.177 0.19
3.7119999 -5.6719999 -0.18000001 0.31
3.698 -5.612 -0.177 0
3.691 -5.5809999 -0.175 0
3.6110001 -5.4229999 -0.16599999 0
3.563 -5.3130002 -0.15899999 0
3.575 -5.2950001 -0.15800001 0
3.5699999 -5.2509999 -0.156 0
3.5680001 -5.2129998 -0.154 0
3.6159999 -5.2480001 -0.15700001 0
3.6229999 -5.2410002 -0.15700001 0.11
3.6329999 -5.2189999 -0.15700001 0.1
3.6400001 -5.1950002 -0.156 0.079999998
3.651 -5.1750002 -0.155 0.11
3.6359999 -5.1199999 -0.152 0
3.628 -5.0739999 -0.15000001 0
3.6459999 -5.066 -0.15000001 0
3.635 -5.0339999 -0.148 0
3.655 -5.0279999 -0.149 0
3.7030001 -5.0609999 -0.152 0
3.7850001 -5.1399999 -0.15800001 0.079999998
3.766 -5.0799999 -0.155 0.090000004
3.7820001 -5.0679998 -0.155 0
3.7490001 -4.9899998 -0.15000001 0
3.7520001 -4.9780002 -0.15000001 0
3.717 -4.8990002 -0.145 0
3.743 -4.902 -0.146 0
3.819 -4.9689999 -0.152 0.07
3.846 -4.9720001 -0.153 0.090000004
3.865 -4.9640002 -0.153 0.079999998
3.8710001 -4.9569998 -0.153 0.090000004
3.9070001 -4.9699998 -0.155 0.15000001
3.9330001 -4.9720001 -0.156 0.090000004
3.9349999 -4.9419999 -0.154 0.14
3.9779999 -4.9640002 -0.15700001 0.090000004
3.974 -4.9260001 -0.155 0
3.938 -4.8499999 -0.15000001 0
3.983 -4.8909998 -0.154 0.07
3.9660001 -4.8379998 -0.15099999 0.090000004
3.977 -4.8210001 -0.15000001 0.090000004
4.0009999 -4.8189998 -0.15099999 0.14
4.0320001 -4.8249998 -0.153 0.18000001
4.0450001 -4.8109999 -0.153 0.28999999
4.0500002 -4.7859998 -0.152 0.23
4.0549998 -4.7610002 -0.15099999 0.11
4.0570002 -4.7480001 -0.15000001 0.16
4.046 -4.7049999 -0.148 0
4.1160002 -4.756 -0.153 0.1
4.191 -4.8119998 -0.15800001 0.18000001
4.2290001 -4.8260002 -0.16 0.19
4.2249999 -4.7909999 -0.15800001 0.12
4.2160001 -4.7659998 -0.15700001 0.19
4.2340002 -4.756 -0.15700001 0.25999999
4.2529998 -4.7470002 -0.15700001 0.22
4.2800002 -4.7470002 -0.15899999 0
4.3200002 -4.7620001 -0.161 0.1
4.355 -4.77 -0.162 0.25
4.3850002 -4.7729998 -0.164 0.20999999
4.4219999 -4.7979999 -0.16599999 0.17
4.4439998 -4.7919998 -0.167 0.25
4.4530001 -4.7719998 -0.16599999 0.18000001
4.4640002 -4.7529998 -0.16599999 0.31
4.4910002 -4.7519999 -0.167 0.2
4.5229998 -4.756 -0.168 0.16
4.5310001 -4.7340002 -0.168 0.16
4.5489998 -4.7389998 -0.169 0.1
4.6100001 -4.7719998 -0.17200001 0.14
4.5780001 -4.7090001 -0.168 0.17
4.5619998 -4.6630001 -0.16599999 0
4.585 -4.6570001 -0.167 0.15000001
4.7449999 -4.7909999 -0.178 0.19
4.7709999 -4.7870002 -0.17900001 0.17
4.7659998 -4.7670002 -0.178 0.090000004
4.7919998 -4.763 -0.17900001 0
4.8260002 -4.7659998 -0.18099999 0.13
4.9029999 -4.8130002 -0.186 0.090000004
4.8979998 -4.7779999 -0.184 0.19
4.9400001 -4.789 -0.186 0.23999999
4.9710002 -4.789 -0.18700001 0.2
4.9990001 -4.8000002 -0.189 0.18000001
5.0170002 -4.7870002 -0.189 0.28999999
5.0349998 -4.7740002 -0.189 0.18000001
5.0380001 -4.7480001 -0.189 0.1
5.0380001 -4.7179999 -0.18700001 0
5.0050001 -4.6570001 -0.184 0.13
5.072 -4.6900001 -0.18799999 0.22
5.0770001 -4.6799998 -0.18799999 0.1
5.1409998 -4.71 -0.191 0.14
5.1599998 -4.698 -0.192 0.16
5.2080002 -4.711 -0.19400001 0.15000001
5.2340002 -4.7049999 -0.19499999 0.34999999
5.23 -4.671 -0.19400001 0.19
5.2249999 -4.638 -0.192 0.16
5.2620001 -4.6560001 -0.19400001 0.22
5.335 -4.691 -0.199 0.20999999
5.3740001 -4.6950002 -0.20100001 0.25
5.3899999 -4.6799998 -0.20100001 0.14
5.3969998 -4.6560001 -0.2 0.18000001
5.3889999 -4.6199999 -0.198 0
5.4330001 -4.6430001 -0.20100001 0.16
5.5549998 -4.7179999 -0.20900001 0.19
5.5770001 -4.7069998 -0.20999999 0.25999999
5.5799999 -4.6789999 -0.20900001 0.34999999
5.645 -4.704 -0.213 0.22
5.6739998 -4.697 -0.214 0.31999999
5.7140002 -4.7010002 -0.21600001 0.19
5.7199998 -4.691 -0.215 0.31
5.7810001 -4.711 -0.219 0.18000001
5.79 -4.6880002 -0.21799999 0.20999999
5.829 -4.6900001 -0.22 0.28
5.835 -4.664 -0.219 0.20999999
5.8769999 -4.6680002 -0.222 0.34
5.9419999 -4.6890001 -0.22499999 0.25
5.96 -4.6880002 -0.226 0.25999999
5.9809999 -4.6750002 -0.226 0.28999999
6.04 -4.6900001 -0.23 0.20999999
6.0560002 -4.6719999 -0.23 0.28999999
6.1009998 -4.677 -0.23199999 0.18000001
6.1329999 -4.671 -0.233 0.47
6.2069998 -4.6960001 -0.237 0.20999999
6.23 -4.6989999 -0.23800001 0.28
6.283 -4.7080002 -0.241 0.30000001
6.2979999 -4.6880002 -0.241 0.31
6.3299999 -4.6810002 -0.242 0.23999999
6.3979998 -4.7010002 -0.24600001 0.31999999
6.428 -4.6919999 -0.24699999 0.28
6.4770002 -4.697 -0.25 0.23
6.4990001 -4.697 -0.25099999 0.38999999
6.5349998 -4.6919999 -0.252 0.27000001
6.5929999 -4.7030001 -0.255 0.31
6.6240001 -4.6939998 -0.25600001 0.28
6.6550002 -4.6849999 -0.257 0.25
6.7249999 -4.7030001 -0.26100001 0.36000001
6.724 -4.6700001 -0.25999999 0.27000001
6.7930002 -4.7030001 -0.264 0.30000001
6.737 -4.6329999 -0.259 0
6.8509998 -4.6789999 -0.266 0.11
6.8800001 -4.6680002 -0.26699999 0
6.9159999 -4.6609998 -0.26899999 0
6.9369998 -4.6440001 -0.26899999 0
9.4429998 -4.7540002 -0.39500001 0
9.3809996 -4.6859999 -0.38999999 0.1
9.448 -4.6830001 -0.39300001 0.13
9.5019999 -4.6719999 -0.396 0.38999999
9.8549995 -4.809 -0.417 0.22
9.9399996 -4.8119998 -0.42199999 0.25
9.8109999 -4.73 -0.41299999 0.25
9.835 -4.7030001 -0.414 0.30000001
9.9200001 -4.7059999 -0.41800001 0.30000001
9.96 -4.6869998 -0.41999999 0.30000001
9.9980001 -4.6669998 -0.421 0.31999999
10.127 -4.6880002 -0.428 0.51999998
10.374 -4.7639999 -0.44299999 0.23
10.311 -4.7150002 -0.43799999 0.40000001
10.389 -4.711 -0.442 0.40000001
10.451 -4.6999998 -0.44499999 0.28999999
10.602 -4.7290001 -0.454 0.46000001
10.67 -4.7189999 -0.45699999 0.40000001
10.778 -4.7259998 -0.463 0.37
10.824 -4.7059999 -0.46399999 0.31999999
11.091 -4.802 -0.47999999 0.40000001
11.128 -4.777 -0.48199999 0.41
11.222 -4.776 -0.48699999 0.43000001
11.375 -4.7989998 -0.495 0.30000001
11.456 -4.7909999 -0.49900001 0.2
12.367 -5.1290002 -0.55400002 0.41
12.394 -5.0939999 -0.55500001 0.31999999
12.396 -5.072 -0.55400002 0.25
12.383 -5.0209999 -0.55299997 0.66000003
12.386 -4.9770002 -0.55199999 0.28
12.384 -4.9320002 -0.551 0.22
12.394 -4.8909998 -0.55000001 0.44999999
12.387 -4.8429999 -0.54900002 0.44999999
12.389 -4.7989998 -0.54799998 0.46000001
12.36 -4.7649999 -0.546 0.58999997
12.378 -4.7270002 -0.546 0.38999999
12.367 -4.6789999 -0.54500002 0.43000001
12.369 -4.6350002 -0.54400003 0.43000001
12.37 -4.5910001 -0.54299998 0.44999999
12.362 -4.5440001 -0.542 0.44
12.352 -4.5180001 -0.54100001 0.44999999
12.351 -4.474 -0.54000002 0.44999999
12.341 -4.4260001 -0.53799999 0.47
12.34 -4.382 -0.537 0.46000001
12.342 -4.3390002 -0.537 0.44999999
12.339 -4.2950001 -0.53600001 0.46000001
12.331 -4.2490001 -0.53500003 0.44
12.329 -4.2259998 -0.53399998 0.43000001
12.321 -4.1799998 -0.53299999 0.44
12.317 -4.1360002 -0.53200001 0.44999999
12.319 -4.0929999 -0.53100002 0.44999999
12.314 -4.0489998 -0.52999997 0.46000001
12.312 -4.0050001 -0.52899998 0.46000001
12.313 -3.9630001 -0.528 0.46000001
12.302 -3.938 -0.52700001 0.44999999
12.303 -3.895 -0.52700001 0.44999999
12.292 -3.8499999 -0.52499998 0.44999999
12.291 -3.8069999 -0.52499998 0.43000001
12.297 -3.766 -0.52399999 0.47999999
12.297 -3.724 -0.52399999 0.5
12.286 -3.6789999 -0.52200001 0.68000001
12.313 -3.6659999 -0.523 0.38999999
12.324 -3.6270001 -0.523 0.55000001
12.363 -3.596 -0.52499998 0.38
12.401 -3.5650001 -0.52700001 0.44999999
12.46 -3.54 -0.52899998 0.41
12.502 -3.5090001 -0.53100002 0.38999999
12.557 -3.4820001 -0.53399998 0.47999999
12.628 -3.4809999 -0.53799999 0.31999999
12.692 -3.4560001 -0.54100001 0.44999999
12.778 -3.4360001 -0.54500002 0.34
12.866 -3.4170001 -0.55000001 0.41999999
12.954 -3.3970001 -0.55400002 0.47999999
13.158 -3.3840001 -0.565 0.38999999
13.282 -3.372 -0.57200003 0.38
13.424 -3.3640001 -0.57999998 0.36000001
13.46 -3.3280001 -0.58099997 0
31.979 -7.8369999 -1.659 0
31.978001 -7.73 -1.6569999 0
31.99 -7.6269999 -1.656 0
31.952 -7.5650001 -1.654 0
31.910999 -7.4489999 -1.65 0
31.878 -7.336 -1.647 0
31.833 -7.2199998 -1.643 0
31.82 -7.112 -1.641 0
31.813 -7.006 -1.6390001 0
31.736 -6.8839998 -1.633 0
31.695999 -6.823 -1.63 0
31.676001 -6.7150002 -1.628 0
31.625999 -6.6009998 -1.624 0
31.587999 -6.4889998 -1.62 0
31.559999 -6.3800001 -1.618 0
31.514999 -6.2680001 -1.614 0
31.503 -6.1630001 -1.612 0
31.478001 -6.1059999 -1.61 0
31.406 -5.9899998 -1.605 0
31.417 -5.8899999 -1.604 0
31.396 -5.7839999 -1.602 0
31.361 -5.6760001 -1.599 0
31.318001 -5.566 -1.596 0
31.302 -5.4619999 -1.594 0
31.277 -5.4070001 -1.592 0
31.254 -5.302 -1.589 0
31.239 -5.198 -1.5880001 0
31.209999 -5.0929999 -1.585 0
31.171 -4.9860001 -1.582 0
31.141001 -4.881 -1.579 0
31.107 -4.7750001 -1.576 0
31.066999 -4.7189999 -1.574 0
31.035999 -4.6149998 -1.571 0
30.981001 -4.507 -1.567 0
30.926001 -4.4000001 -1.563 0
30.844999 -4.289 -1.558 0
30.777 -4.1810002 -1.553 0
30.698999 -4.1220002 -1.548 0
30.667999 -4.0190001 -1.546 0
30.615 -3.915 -1.5420001 0
30.593 -3.8139999 -1.54 0
30.530001 -3.7090001 -1.536 0
30.5 -3.608 -1.534 0
30.440001 -3.5039999 -1.529 0
30.410999 -3.4519999 -1.528 0
30.358999 -3.3499999 -1.524 0
30.347 -3.2520001 -1.523 0
30.315001 -3.152 -1.52 0
30.291 -3.053 -1.518 0
30.275 -2.9560001 -1.517 0
30.368 -2.868 -1.522 0
30.33 -2.8169999 -1.5190001 0.050000001
30.372999 -2.7249999 -1.521 0
30.347 -2.6259999 -1.5190001 0
30.266001 -2.523 -1.5140001 0
30.208 -2.4230001 -1.511 0
30.143999 -2.322 -1.506 0
30.111 -2.2249999 -1.5039999 0
30.105 -2.177 -1.5039999 0
30.105 -2.082 -1.503 0
30.087999 -1.9859999 -1.502 0
30.058001 -1.8890001 -1.5 0
30.08 -1.795 -1.501 0
30.042 -1.698 -1.498 0
29.979 -1.6 -1.494 0
29.976999 -1.553 -1.494 0
29.865999 -1.4529999 -1.488 0
29.797001 -1.3559999 -1.484 0
29.716999 -1.258 -1.479 0
29.625 -1.161 -1.473 0
29.555 -1.0650001 -1.469 0
29.490999 -1.017 -1.465 0
29.417999 -0.92199999 -1.461 0
29.372999 -0.82800001 -1.4579999 0
29.294001 -0.73299998 -1.454 0
29.242001 -0.63999999 -1.451 0
29.158001 -0.54699999 -1.446 0
29.096001 -0.454 -1.442 0
29.046 -0.40700001 -1.4400001 0
28.941999 -0.315 -1.434 0
28.889 -0.22400001 -1.4299999 0
28.833 -0.132 -1.427 0
28.839001 -0.041999999 -1.428 0
26.871 0.033 -1.46 0
26.806999 0.117 -1.456 0
26.731001 0.20100001 -1.451 0
26.674 0.28400001 -1.447 0
26.608999 0.36700001 -1.443 0
26.559999 0.449 -1.441 0
26.481001 0.53100002 -1.436 0.13
26.445999 0.57200003 -1.434 0.12
26.458 0.65600002 -1.434 0.079999998
26.472 0.73900002 -1.4349999 0.15000001
26.423 0.82099998 -1.433 0.1
26.396999 0.903 -1.431 0.14
26.372 0.98500001 -1.4299999 0.31999999
26.356001 1.026 -1.429 0
26.305 1.107 -1.426 0.07
25.000999 1.1289999 -1.345 0.079999998
25.014999 1.209 -1.347 0.16
24.264 1.324 -1.3 0.22
23.927 1.381 -1.28 0.38999999
23.514 1.3940001 -1.2539999 0.44
23.372 1.459 -1.2460001 0
25.047001 1.6440001 -1.35 0.1
26.266001 1.809 -1.426 0.34
26.25 1.89 -1.425 0.22
26.274 1.975 -1.427 0.22
23.354 1.863 -1.247 0.56
23.354 1.937 -1.247 0.34
26.382 2.2750001 -1.4349999 0.25999999
26.436001 2.3640001 -1.439 0.28999999
26.51 2.454 -1.444 0.28999999
26.559999 2.543 -1.448 0
16.724001 1.778 -0.838 0
16.288 1.7819999 -0.81099999 0
15.809 1.88 -0.78200001 0.12
15.776 1.901 -0.77999997 0.14
15.784 1.9529999 -0.78100002 0.51999998
15.744 1.998 -0.77899998 0.99000001
15.581 2.027 -0.76899999 0.81999999
15.725 2.096 -0.77899998 0.23999999
15.677 2.1400001 -0.77600002 0.47
15.687 2.1659999 -0.77700001 0.25
15.661 2.2130001 -0.77600002 0.50999999
15.648 2.2609999 -0.77499998 0.41
15.641 2.3099999 -0.77499998 0.43000001
15.623 2.358 -0.77499998 0.41
15.624 2.408 -0.77499998 0.40000001
15.622 2.4579999 -0.77600002 0.34999999
15.63 2.484 -0.77600002 0.36000001
15.63 2.5350001 -0.77700001 0.37
15.628 2.585 -0.77700001 0.31999999
15.639 2.6370001 -0.778 0.31999999
15.629 2.6860001 -0.778 0.30000001
15.619 2.7349999 -0.778 0.28999999
15.626 2.7869999 -0.77899998 0.28
15.659 2.8180001 -0.78200001 0.23
15.638 2.865 -0.78100002 0.23
15.648 2.918 -0.78200001 0.2
15.657 2.97 -0.78299999 0.28999999
15.643 3.0190001 -0.78299999 0.11
15.687 3.0780001 -0.78600001 0.27000001
15.746 3.141 -0.79100001 0.43000001
15.764 3.171 -0.792 0.34999999
15.666 3.2019999 -0.78600001 0
12.829 2.6589999 -0.60799998 0
12.725 2.6789999 -0.602 0
12.673 2.71 -0.59899998 0
12.645 2.7460001 -0.59799999 0.029999999
12.361 2.744 -0.58099997 0
12.113 2.7290001 -0.565 0
12.908 2.9519999 -0.616 0
12.93 3 -0.61799997 0
12.924 3.0420001 -0.61900002 0
12.928 3.085 -0.62 0
12.932 3.1289999 -0.62 0
12.942 3.154 -0.62099999 0
12.921 3.191 -0.62099999 0
12.926 3.2360001 -0.62199998 0
12.933 3.2809999 -0.62300003 0
12.904 3.316 -0.62199998 0
12.907 3.3599999 -0.62199998 0
12.251 3.3329999 -0.583 0
12.873 3.5469999 -0.62300003 0
12.904 3.599 -0.62599999 0.12
12.901 3.642 -0.62699997 0
12.889 3.6600001 -0.62599999 0
12.91 3.71 -0.62800002 0
12.862 3.74 -0.62599999 0
12.836 3.8640001 -0.62699997 0
11.999 3.7550001 -0.57499999 0
12.038 3.809 -0.57800001 0
19.857 6.4380002 -1.089 0.17
19.729 6.4650002 -1.082 0.5
19.622 6.4640002 -1.075 0.28
16.927999 5.632 -0.90100002 0.16
19.656 6.6129999 -1.08 0.2
19.594 6.6599998 -1.0779999 0.5
19.813999 6.8049998 -1.0930001 0.34
19.77 6.8590002 -1.092 0.27000001
19.788 6.9349999 -1.094 0.28999999
19.865999 6.9980001 -1.1 0.30000001
19.829 7.0549998 -1.099 0.60000002
16.514999 5.9299998 -0.88300002 0.37
16.530001 5.994 -0.88499999 0.33000001
20.660999 7.572 -1.159 0.28999999
20.601 7.6240001 -1.156 0.56999999
16.458 6.1440001 -0.884 0.23
16.42 6.1589999 -0.88200003 0.30000001
16.552 6.2680001 -0.89200002 0.46000001
13.668 5.2199998 -0.70200002 0.28
13.623 5.2519999 -0.70099998 0.23999999
20.280001 7.9060001 -1.1440001 0.22
13.54 5.3179998 -0.69700003 0.43000001
13.414 5.3169999 -0.69 0.37
13.413 5.3410001 -0.69 0.38999999
13.429 5.3959999 -0.69300002 0.43000001
13.264 5.3779998 -0.68300003 0.44999999
13.114 5.3649998 -0.67400002 0.25999999
13.332 5.5040002 -0.69 0.31999999
12.959 5.3969998 -0.66600001 0.47999999
12.7 5.3119998 -0.64899999 0.46000001
12.266 5.1750002 -0.62099999 0.28999999
12.171 5.1799998 -0.616 0.33000001
12.067 5.1799998 -0.61000001 0.44
11.959 5.178 -0.60399997 0.36000001
12.032 5.2550001 -0.61000001 0.46000001
11.645 5.1279998 -0.58499998 0.23
11.548 5.1069999 -0.57800001 0.52999997
11.517 5.1370001 -0.57700002 0.19
11.466 5.1570001 -0.57499999 0.54000002
11.35 5.1479998 -0.56800002 0.31
11.332 5.1820002 -0.56800002 0.46000001
11.241 5.184 -0.56300002 0.34999999
11.075 5.1490002 -0.55299997 0.40000001
11.058 5.1620002 -0.55199999 0.33000001
11.115 5.2319999 -0.55699998 0.5
11.108 5.2709999 -0.55800003 0.34999999
10.996 5.2600002 -0.551 0.38999999
11.116 5.3600001 -0.56099999 0.28999999
10.93 5.3130002 -0.54900002 0.41999999
10.826 5.3039999 -0.54299998 0.38
10.889 5.3559999 -0.54799998 0.36000001
10.894 5.401 -0.55000001 0.41
11.089 5.5419998 -0.56400001 0.36000001
10.779 5.4289999 -0.54400003 0.34
10.705 5.434 -0.54000002 0.38999999
10.69 5.4679999 -0.54000002 0.41
10.588 5.4580002 -0.53399998 0.44999999
10.659 5.5159998 -0.54000002 0.36000001
10.564 5.5089998 -0.53399998 0.41
10.613 5.5770001 -0.53899997 0.38999999
10.561 5.592 -0.537 0.41
10.587 5.6490002 -0.54000002 0.28
10.518 5.6539998 -0.53600001 0.46000001
10.504 5.6890001 -0.53600001 0.40000001
10.553 5.737 -0.54000002 0.38999999
10.515 5.7600002 -0.53899997 0.36000001
10.494 5.7909999 -0.53899997 0.44
10.455 5.8119998 -0.537 0.41
10.402 5.8249998 -0.53500003 0.44
10.392 5.8629999 -0.53500003 0.31999999
10.384 5.901 -0.53600001 0.46000001
10.484 5.98 -0.54400003 0.46000001
10.792 6.2020001 -0.56699997 0.30000001
10.637 6.1570001 -0.55800003 0.43000001
10.673 6.223 -0.56199998 0.41999999
11.379 6.6849999 -0.61400002 0.18000001
10.867 6.4289999 -0.57800001 0.34
10.689 6.369 -0.56699997 0.30000001
10.643 6.3639998 -0.565 0.31999999
10.705 6.447 -0.56999999 0.55000001
10.924 6.6259999 -0.588 0.23
10.678 6.5219998 -0.57099998 0.44999999
10.607 6.5240002 -0.56800002 0.30000001
10.486 6.4949999 -0.56 0.52999997
10.63 6.631 -0.57200003 0.30000001
10.45 6.5419998 -0.56 0.38
10.47 6.5999999 -0.56300002 0.36000001
10.451 6.6339998 -0.56300002 0.47999999
10.529 6.73 -0.56999999 0.38999999
10.446 6.723 -0.56599998 0.31999999
10.479 6.7909999 -0.56999999 0.47
10.451 6.796 -0.56900001 0.41
10.47 6.8559999 -0.57200003 0.40000001
10.413 6.8649998 -0.56900001 0.38999999
10.476 6.954 -0.57499999 0.41
10.474 7.0009999 -0.57700002 0.38999999
10.571 7.1139998 -0.58600003 0.28
10.513 7.1220002 -0.583 0.51999998
10.618 7.2189999 -0.59200001 0.30000001
10.583 7.243 -0.59100002 0.46000001
10.573 7.2849998 -0.59200001 0.36000001
10.588 7.3449998 -0.59500003 0.43000001
10.56 7.375 -0.59399998 0.34
10.554 7.4200001 -0.59500003 0.5
10.601 7.5029998 -0.60100001 0.23
10.527 7.4759998 -0.59600002 0.62
10.707 7.6550002 -0.61199999 0.28
10.495 7.552 -0.597 0.25
10.424 7.5510001 -0.59399998 0.58999997
10.84 7.9060001 -0.62699997 0.41
11.093 8.1450005 -0.64899999 0.27000001
10.875 8.0369997 -0.634 0.31
10.648 7.8940001 -0.61699998 0.43000001
10.537 7.8629999 -0.611 0.16
10.354 7.777 -0.59799999 0.47999999
10.36 7.8330002 -0.60100001 0.31999999
10.481 7.9770002 -0.61199999 0.5
10.562 8.0909996 -0.62 0.33000001
10.41 8.026 -0.611 0.38
10.451 8.0839996 -0.61500001 0.33000001
10.538 8.2049999 -0.62400001 0.47
10.54 8.2600002 -0.62599999 0.44999999
10.738 8.4700003 -0.64300001 0.25999999
10.6 8.415 -0.63499999 0.38999999
10.546 8.4259996 -0.63200003 0.31
10.501 8.4440002 -0.63099998 0.47999999
10.509 8.4779997 -0.63300002 0.28999999
10.512 8.5349998 -0.63499999 0.46000001
10.486 8.5699997 -0.63499999 0.36000001
10.446 8.5909996 -0.634 0.33000001
10.403 8.6110001 -0.63300002 0.56999999
10.474 8.7259998 -0.64099997 0.25
10.448 8.7600002 -0.64099997 0.47999999
6.4200001 5.3870001 -0.31600001 0.28999999
6.4120002 5.415 -0.317 0.14
6.3189998 5.3699999 -0.31 0.41999999
10.315 8.8430004 -0.63800001 0.16
6.3010001 5.4219999 -0.31200001 0.30000001
10.426 9.0530005 -0.65200001 0.15000001
10.271 9.0030003 -0.64200002 0.55000001
10.252 9.0430002 -0.64300001 0.27000001
6.3200002 5.5970001 -0.31999999 0.28
6.3400002 5.6500001 -0.32300001 0.34
6.1560001 5.5209999 -0.30899999 0.23999999
6.0479999 5.4580002 -0.301 0.18000001
5.9660001 5.4000001 -0.29499999 0.28
5.927 5.3990002 -0.29300001 0.27000001
5.8889999 5.3979998 -0.292 0.11
5.8940001 5.4369998 -0.29300001 0.17
5.8740001 5.4530001 -0.29300001 0.12
5.875 5.4879999 -0.29499999 0.17
5.8720002 5.52 -0.296 0.28999999
5.9790001 5.6389999 -0.30599999 0.19
5.677 5.3860002 -0.28200001 0.16
5.4640002 5.2160001 -0.26499999 0.31
5.5139999 5.2969999 -0.27000001 0.28999999
5.4029999 5.2220001 -0.26199999 0.25
5.3709998 5.224 -0.26100001 0.27000001
5.4169998 5.302 -0.266 0.30000001
5.513 5.4320002 -0.27599999 0.23999999
5.2930002 5.2290001 -0.25799999 0.27000001
5.2059999 5.1750002 -0.252 0.16
5.1719999 5.1750002 -0.25 0.16
5.1830001 5.2179999 -0.252 0.17
5.0879998 5.1539998 -0.245 0.28999999
5.072 5.1700001 -0.245 0.2
5.0830002 5.2150002 -0.248 0.22
5.0560002 5.2030001 -0.24600001 0.23999999
5.006 5.184 -0.243 0.11
5.2789998 5.5029998 -0.26899999 0.14
5.2839999 5.5430002 -0.271 0.17
5.1360002 5.421 -0.259 0.22
5.3649998 5.6999998 -0.28200001 0.2
5.2600002 5.6230001 -0.27399999 0
4.973 5.3309999 -0.248 0.07
5.1350002 5.5409999 -0.26499999 0
4.9429998 5.3670001 -0.249 0.13
4.9530001 5.4120002 -0.25099999 0.12
4.8629999 5.3460002 -0.244 0.11
4.7350001 5.2379999 -0.234 0.31999999
4.7319999 5.2509999 -0.235 0.23999999
4.7870002 5.3470001 -0.241 0.11
4.7969999 5.3920002 -0.244 0.14
4.7579999 5.381 -0.242 0.1
4.7789998 5.4400001 -0.245 0.079999998
4.6680002 5.3460002 -0.236 0.079999998
4.6929998 5.4089999 -0.23999999 0
4.638 5.3629999 -0.236 0
4.579 5.3280001 -0.23199999 0.07
4.6399999 5.434 -0.23899999 0.18000001
4.4000001 5.184 -0.21799999 0.25999999
4.3639998 5.1750002 -0.21600001 0.25999999
4.3340001 5.1719999 -0.215 0
4.402 5.2870002 -0.223 0.1
4.4099998 5.3140001 -0.22499999 0
4.3979998 5.3340001 -0.22499999 0
4.3060002 5.2550001 -0.21799999 0.07
4.3179998 5.3039999 -0.221 0
4.2620001 5.2680001 -0.21699999 0
4.2090001 5.2360001 -0.213 0
4.1040001 5.138 -0.204 0
4.1609998 5.2259998 -0.211 0
4.165 5.2649999 -0.213 0
4.0999999 5.2150002 -0.208 0
4.0999999 5.25 -0.20999999 0
4.0640001 5.2379999 -0.208 0
4.0879998 5.303 -0.212 0
4.1160002 5.375 -0.21600001 0
4.125 5.4229999 -0.219 0
4.1539998 5.4790001 -0.223 0
4.1240001 5.474 -0.221 0
4.1009998 5.4790001 -0.221 0
4.0100002 5.3920002 -0.213 0
3.974 5.3790002 -0.211 0
3.8329999 5.2199998 -0.198 0
3.954 5.4229999 -0.213 0
3.9219999 5.3969998 -0.20999999 0
3.8340001 5.3099999 -0.20299999 0
3.812 5.3140001 -0.20200001 0
3.8670001 5.427 -0.20999999 0
3.8900001 5.4970002 -0.214 0
3.786 5.3839998 -0.205 0
3.8840001 5.5619998 -0.21699999 0
3.934 5.6529999 -0.223 0
3.848 5.5669999 -0.21600001 0
3.8670001 5.632 -0.22 0
3.6259999 5.3150001 -0.19499999 0.059999999
3.6110001 5.3280001 -0.19599999 0.12
3.5639999 5.2940001 -0.192 0.13
3.5610001 5.3260002 -0.19400001 0
3.5350001 5.3049998 -0.192 0
3.5039999 5.2940001 -0.19 0
3.4489999 5.2459998 -0.186 0
3.427 5.2490001 -0.185 0
3.441 5.3070002 -0.189 0
3.437 5.3369999 -0.19 0
3.3989999 5.3150001 -0.18799999 0.059999999
3.3940001 5.3249998 -0.18799999 0.079999998
3.385 5.349 -0.189 0.18000001
3.3429999 5.3189998 -0.186 0.27000001
3.3529999 5.3720002 -0.189 0.19
3.329 5.3709998 -0.18799999 0.18000001
3.2980001 5.3590002 -0.18700001 0.13
3.2679999 5.3470001 -0.185 0.19
3.244 5.3260002 -0.183 0.13
3.221 5.3260002 -0.182 0.38999999
3.1989999 5.3280001 -0.182 0.23
3.1819999 5.336 -0.182 0
3.1760001 5.3649998 -0.183 0
3.2320001 5.5009999 -0.192 0
3.1860001 5.461 -0.189 0.13
3.151 5.4190001 -0.185 0.22
3.1329999 5.427 -0.185 0.18000001
3.108 5.4229999 -0.184 0.14
3.092 5.4349999 -0.184 0.2
3.0580001 5.415 -0.182 0.25
3.039 5.421 -0.182 0.23999999
3.0190001 5.4250002 -0.182 0
3.188 5.7540002 -0.204 0
3.2149999 5.8460002 -0.20999999 0
3.1389999 5.7490001 -0.20299999 0
2.9289999 5.402 -0.178 0.050000001
2.8789999 5.349 -0.17299999 0.2
2.845 5.3249998 -0.171 0.11
2.826 5.3299999 -0.171 0.16
2.8050001 5.3299999 -0.17 0.22
2.8010001 5.3429999 -0.171 0.18000001
2.7709999 5.3270001 -0.169 0.090000004
2.7579999 5.3429999 -0.169 0.14
2.7509999 5.3709998 -0.171 0
2.7149999 5.3429999 -0.168 0
2.7420001 5.4390001 -0.17399999 0
2.7049999 5.4060001 -0.171 0
2.678 5.3730001 -0.169 0.07
2.645 5.349 -0.167 0
2.6340001 5.368 -0.167 0.11
2.5999999 5.342 -0.16500001 0.12
2.5739999 5.3299999 -0.164 0.16
2.556 5.3369999 -0.163 0.20999999
2.5220001 5.3070002 -0.161 0.20999999
2.5039999 5.2909999 -0.16 0.11
2.477 5.2750001 -0.15800001 0.16
2.4590001 5.2810001 -0.15800001 0.18000001
2.4449999 5.2940001 -0.15800001 0.18000001
2.434 5.3140001 -0.15899999 0.28999999
2.4219999 5.3309999 -0.16 0.2
2.4059999 5.3410001 -0.16 0.25999999
2.3959999 5.342 -0.16 0.18000001
2.3870001 5.3660002 -0.161 0.15000001
2.3510001 5.3299999 -0.15800001 0.13
2.325 5.3169999 -0.156 0.19
2.302 5.3080001 -0.155 0.13
2.2820001 5.3080001 -0.155 0.38999999
2.266 5.3169999 -0.155 0.19
2.2590001 5.3239999 -0.155 0.1
2.2620001 5.3790002 -0.15800001 0
2.223 5.3330002 -0.155 0.090000004
2.1960001 5.3140001 -0.153 0
2.188 5.3429999 -0.155 0
2.1830001 5.3790002 -0.15700001 0.07
2.1860001 5.434 -0.16 0.079999998
2.1800001 5.4710002 -0.162 0
2.168 5.4650002 -0.161 0
2.178 5.5419998 -0.16599999 0
2.1889999 5.6240001 -0.171 0
2.1700001 5.6269999 -0.171 0
2.1270001 5.5669999 -0.16599999 0
2.075 5.48 -0.16 0
2.076 5.5089998 -0.162 0
2.0869999 5.592 -0.167 0
2.072 5.6059999 -0.167 0
2.0650001 5.6430001 -0.169 0
1.976 5.448 -0.156 0
2.0090001 5.5970001 -0.16500001 0.11
1.902 5.348 -0.149 0.22
1.895 5.3540001 -0.149 0
1.89 5.3959999 -0.15099999 0
1.855 5.349 -0.148 0.1
1.829 5.3270001 -0.146 0.12
1.809 5.323 -0.145 0.090000004
1.784 5.3039999 -0.14399999 0.079999998
1.77 5.3189998 -0.14399999 0.090000004
1.78 5.4060001 -0.15000001 0
1.768 5.3969998 -0.149 0
1.781 5.4980001 -0.155 0
1.7690001 5.5209999 -0.156 0
1.74 5.4860001 -0.153 0
1.675 5.3390002 -0.14399999 0.13
1.658 5.342 -0.14300001 0.22
1.6339999 5.3249998 -0.142 0.18000001
1.627 5.3309999 -0.142 0.30000001
1.609 5.3319998 -0.142 0
1.595 5.3470001 -0.14300001 0
1.587 5.381 -0.14399999 0
1.6210001 5.566 -0.156 0
1.5880001 5.5139999 -0.152 0
1.5829999 5.5630002 -0.155 0
1.567 5.54 -0.154 0
1.556 5.5700002 -0.155 0
1.571 5.6919999 -0.163 0
1.543 5.6589999 -0.16 0
1.516 5.631 -0.15800001 0
1.475 5.5450001 -0.152 0
1.419 5.402 -0.14300001 0
1.4400001 5.5170002 -0.15000001 0
1.381 5.3590002 -0.14 0.11
1.348 5.2989998 -0.13600001 0.1
1.3329999 5.3070002 -0.13600001 0.090000004
1.313 5.2979999 -0.13500001 0.19
1.294 5.2919998 -0.134 0.1
1.28 5.3099999 -0.13500001 0.14
1.258 5.2540002 -0.132 0.20999999
1.258 5.3280001 -0.13600001 0.19
1.243 5.3369999 -0.13600001 0.17
1.224 5.3309999 -0.13600001 0.1
1.197 5.29 -0.133 0
1.175 5.2709999 -0.131 0
1.163 5.2940001 -0.133 0
1.159 5.3150001 -0.134 0.12
1.135 5.2859998 -0.132 0.18000001
1.124 5.3150001 -0.133 0.23999999
1.11 5.3319998 -0.134 0.28
1.0880001 5.3099999 -0.133 0.38
1.0700001 5.3070002 -0.132 0
1.045 5.2659998 -0.13 0
1.039 5.283 -0.131 0
1.022 5.2800002 -0.13 0
1.003 5.2719998 -0.12899999 0
0.977 5.2259998 -0.126 0
0.95499998 5.197 -0.124 0
0.949 5.2550001 -0.12800001 0
0.94099998 5.309 -0.131 0
0.93599999 5.3330002 -0.132 0
0.926 5.375 -0.13500001 0
0.93199998 5.5180001 -0.14399999 0
0.90499997 5.4590001 -0.14 0
0.87900001 5.4050002 -0.13600001 0
0.861 5.4000001 -0.13600001 0
0.83999997 5.3790002 -0.134 0
0.824 5.3850002 -0.134 0
0.81900001 5.408 -0.13600001 0
0.801 5.4050002 -0.13500001 0
0.78600001 5.421 -0.13600001 0
0.77100003 5.4439998 -0.138 0
0.80800003 5.8460002 -0.162 0
0.80599999 5.9749999 -0.17 0
0.78200001 5.9380002 -0.168 0
0.704 5.3920002 -0.134 0
0.676 5.3070002 -0.12800001 0
0.65499997 5.2659998 -0.126 0.14
0.63200003 5.2199998 -0.123 0.23999999
0.61400002 5.204 -0.122 0.1
0.60100001 5.2399998 -0.124 0.14
0.588 5.2680001 -0.125 0.090000004
0.579 5.2690001 -0.125 0.16
0.56099999 5.257 -0.124 0.17
0.546 5.2719998 -0.125 0
0.52700001 5.2420001 -0.123 0
0.51899999 5.335 -0.12899999 0
0.514 5.4699998 -0.13699999 0
0.48699999 5.3600001 -0.13 0.059999999
0.47799999 5.3530002 -0.13 0.15000001
0.46000001 5.3460002 -0.12899999 0.16
0.44400001 5.3499999 -0.13 0
0.428 5.3590002 -0.13 0
0.42399999 5.5419998 -0.141 0
0.417 5.698 -0.15099999 0
0.38499999 5.4809999 -0.13699999 0
0.373 5.4250002 -0.134 0.07
0.34799999 5.3109999 -0.127 0.090000004
0.33199999 5.3140001 -0.127 0.18000001
0.31200001 5.2529998 -0.123 0.11
0.296 5.2740002 -0.124 0
0.27900001 5.2589998 -0.123 0
0.264 5.29 -0.125 0.079999998
0.25400001 5.2480001 -0.122 0.17
0.237 5.243 -0.122 0.23
0.22 5.2420001 -0.122 0.18000001
0.204 5.2470002 -0.122 0.18000001
0.18799999 5.243 -0.122 0.12
0.171 5.2600002 -0.123 0.15000001
0.155 5.2579999 -0.123 0.18000001
0.146 5.25 -0.122 0.13
0.13 5.2729998 -0.124 0
0.113 5.243 -0.122 0
0.096000001 5.2140002 -0.12 0
0.079999998 5.2379999 -0.121 0.12
0.064000003 5.2080002 -0.12 0.23
0.046999998 5.1880002 -0.118 0.25999999
0.039000001 5.2179999 -0.12 0.27000001
0.023 5.244 -0.122 0.16
0.0060000001 5.244 -0.122 0.38
-0.0099999998 5.2820001 -0.124 0.19
-0.027000001 5.2360001 -0.121 0.13
-0.043000001 5.2420001 -0.122 0.18000001
-0.059 5.2340002 -0.121 0.30000001
-0.068000004 5.2259998 -0.121 0.23
-0.085000001 5.2579999 -0.123 0.25999999
-0.101 5.256 -0.123 0.17
-0.118 5.2550001 -0.123 0.28999999
-0.13500001 5.2789998 -0.124 0.20999999
-0.15099999 5.276 -0.124 0.28999999
-0.168 5.2719998 -0.124 0.27000001
-0.184 5.2589998 -0.123 0.19
-0.192 5.2490001 -0.122 0.41
-0.20900001 5.256 -0.123 0.22
-0.22400001 5.2420001 -0.122 0.30000001
-0.241 5.2410002 -0.122 0.20999999
-0.25799999 5.2579999 -0.123 0.27000001
-0.27599999 5.2849998 -0.125 0.18000001
-0.29100001 5.2519999 -0.123 0.13
-0.30000001 5.2600002 -0.123 0.44
-0.31799999 5.277 -0.124 0.20999999
-0.333 5.2579999 -0.123 0.28999999
-0.35100001 5.2729998 -0.124 0.25999999
-0.36700001 5.2719998 -0.124 0.28999999
-0.38600001 5.3000002 -0.126 0.23
-0.40099999 5.2789998 -0.125 0.33000001
-0.41 5.289 -0.126 0.20999999
-0.42500001 5.2649999 -0.124 0.27000001
-0.44100001 5.2600002 -0.124 0.20999999
-0.45699999 5.257 -0.124 0.14
-0.47499999 5.2709999 -0.125 0.17
-0.491 5.256 -0.124 0.27000001
-0.50999999 5.2779999 -0.125 0.20999999
-0.51499999 5.2529998 -0.124 0.14
-0.53399998 5.2729998 -0.125 0.16
-0.55299997 5.29 -0.126 0.27000001
-0.56999999 5.2919998 -0.127 0.19
-0.58499998 5.2740002 -0.126 0.44
-0.602 5.2800002 -0.126 0
-0.61799997 5.276 -0.126 0.16
-0.63300002 5.329 -0.12899999 0.25
-0.65100002 5.335 -0.13 0.23999999
-0.66299999 5.2930002 -0.127 0.18000001
-0.67699999 5.2729998 -0.126 0.19
-0.69700003 5.2989998 -0.12800001 0.12
-0.71600002 5.3099999 -0.12899999 0.16
-0.736 5.3319998 -0.13 0.16
-0.741 5.3049998 -0.12899999 0.41999999
-0.75800002 5.3099999 -0.12899999 0.22
-0.77399999 5.3000002 -0.12899999 0.31999999
-0.79000002 5.296 -0.12899999 0.28999999
-0.80800003 5.2989998 -0.12899999 0.27000001
-0.824 5.2950001 -0.12899999 0.25
-0.83999997 5.2880001 -0.12899999 0.30000001
-0.84600002 5.2709999 -0.12800001 0.30000001
-0.86299998 5.2719998 -0.12800001 0.14
-0.88 5.2729998 -0.12800001 0.43000001
-0.89899999 5.2820001 -0.12899999 0.20999999
-0.91500002 5.2779999 -0.12899999 0.23999999
-0.93800002 5.3099999 -0.131 0.16
-0.958 5.323 -0.132 0.090000004
-0.96799999 5.329 -0.132 0.090000004
-0.98500001 5.3299999 -0.133 0.15000001
-0.99699998 5.3010001 -0.131 0.28999999
-1.012 5.29 -0.131 0.19
-1.03 5.2950001 -0.131 0.16
-1.0420001 5.27 -0.13 0.14
-1.059 5.2670002 -0.13 0.16
-1.074 5.256 -0.12899999 0.20999999
-1.081 5.25 -0.12899999 0.2
-1.097 5.243 -0.12899999 0.27000001
-1.12 5.2690001 -0.131 0.15000001
-1.136 5.263 -0.131 0.13
-1.159 5.2870002 -0.132 0.17
-1.175 5.2810001 -0.132 0.28
-1.179 5.2639999 -0.131 0.25
-1.199 5.2740002 -0.132 0.27000001
-1.2130001 5.2579999 -0.131 0.23999999
-1.233 5.27 -0.132 0.34999999
-1.251 5.27 -0.132 0.18000001
-1.2640001 5.2540002 -0.132 0.36000001
-1.278 5.2410002 -0.131 0.11
-1.3049999 5.2750001 -0.134 0.13
-1.3099999 5.263 -0.133 0.13
-1.3380001 5.302 -0.13600001 0.16
-1.359 5.3130002 -0.13699999 0.31
-1.377 5.3169999 -0.13699999 0.23999999
-1.391 5.303 -0.13699999 0.18000001
-1.418 5.3330002 -0.139 0.090000004
-1.442 5.355 -0.141 0
-1.469 5.4200001 -0.145 0.07
-1.474 5.375 -0.142 0
-1.4910001 5.3709998 -0.142 0
-1.5089999 5.3699999 -0.142 0
-1.533 5.3899999 -0.14399999 0.07
-1.543 5.362 -0.14300001 0.14
-1.551 5.3249998 -0.141 0.14
-1.5599999 5.3260002 -0.141 0.31999999
-1.576 5.3169999 -0.141 0
-1.599 5.3330002 -0.142 0.12
-1.6 5.277 -0.139 0.28
-1.6160001 5.27 -0.138 0.17
-1.627 5.25 -0.13699999 0.36000001
-1.651 5.2670002 -0.139 0.20999999
-1.6569999 5.257 -0.138 0.25
-1.675 5.256 -0.139 0.20999999
-1.698 5.2709999 -0.14 0.2
-1.717 5.2729998 -0.141 0.36000001
-1.7309999 5.2579999 -0.14 0.22
-1.748 5.257 -0.14 0.25999999
-1.761 5.2399998 -0.139 0.25999999
-1.773 5.2490001 -0.14 0.25999999
-1.79 5.2449999 -0.14 0.27000001
-1.814 5.2600002 -0.142 0.23
-1.8279999 5.2490001 -0.141 0.2
-1.8380001 5.2220001 -0.14 0.2
-1.855 5.2179999 -0.14 0.41999999
-1.872 5.2140002 -0.14 0.25
-1.887 5.2319999 -0.142 0.27000001
-1.895 5.2020001 -0.14 0.28999999
-1.915 5.2069998 -0.141 0.2
-1.938 5.2179999 -0.142 0.38999999
-1.949 5.197 -0.141 0.18000001
-1.965 5.1900001 -0.141 0.36000001
-1.978 5.1750002 -0.14 0.27000001
-2.0009999 5.1869998 -0.141 0.19
-2.013 5.1929998 -0.142 0.31
-2.04 5.2129998 -0.14399999 0.23
-2.05 5.1919999 -0.14300001 0.17
-2.069 5.1929998 -0.14300001 0.38999999
-2.0929999 5.2030001 -0.14399999 0.2
-2.112 5.204 -0.145 0.38
-2.1259999 5.2150002 -0.146 0.18000001
-2.1289999 5.1750002 -0.14399999 0.25999999
-2.1600001 5.2049999 -0.146 0.18000001
-2.168 5.178 -0.145 0.19
-2.1860001 5.1750002 -0.145 0.41999999
-2.204 5.1719999 -0.145 0.2
-2.2149999 5.152 -0.14399999 0.23
-2.2279999 5.1609998 -0.145 0.40000001
-2.24 5.145 -0.145 0.25
-2.2650001 5.158 -0.146 0.2
-2.2909999 5.171 -0.147 0.41
-2.3069999 5.164 -0.147 0.2
-2.3269999 5.1659999 -0.148 0.25
-2.3540001 5.1820002 -0.15000001 0.18000001
-2.3759999 5.1869998 -0.15000001 0.31999999
-2.3800001 5.1729999 -0.15000001 0.23
-2.408 5.1900001 -0.15099999 0.30000001
-2.411 5.1560001 -0.15000001 0.18000001
-2.428 5.1500001 -0.15000001 0.38
-2.4489999 5.151 -0.15000001 0.23999999
-2.4779999 5.1700001 -0.152 0.18000001
-2.4890001 5.152 -0.15099999 0.38999999
-2.503 5.1609998 -0.152 0.2
-2.5179999 5.1490002 -0.152 0.37
-2.54 5.1539998 -0.153 0.23999999
-2.5699999 5.1739998 -0.155 0.23
-2.5810001 5.1550002 -0.154 0.37
-2.609 5.1700001 -0.156 0.22
-2.6270001 5.1659999 -0.156 0.23999999
-2.6289999 5.1490002 -0.155 0.18000001
-2.648 5.1459999 -0.155 0.17
-2.6789999 5.1659999 -0.15700001 0.18000001
-2.707 5.1810002 -0.15899999 0.14
-2.737 5.197 -0.161 0.17
-2.756 5.1929998 -0.161 0.23
-2.776 5.1919999 -0.162 0.25
-2.783 5.1859999 -0.162 0.20999999
-2.799 5.177 -0.162 0.25
-2.8069999 5.152 -0.16 0.25
-2.8340001 5.1630001 -0.162 0.18000001
-2.8529999 5.1589999 -0.162 0.31999999
-2.8789999 5.1669998 -0.163 0.17
-2.8970001 5.1620002 -0.164 0.28
-2.9130001 5.171 -0.16500001 0.20999999
-2.9519999 5.2020001 -0.167 0.23
-2.967 5.1890001 -0.167 0.34999999
-2.983 5.1799998 -0.167 0.23999999
-2.9990001 5.1700001 -0.167 0.20999999
-3.0079999 5.1490002 -0.16599999 0.20999999
-3.046 5.1750002 -0.169 0.16
-3.056 5.1550002 -0.168 0.41
-3.076 5.171 -0.17 0.20999999
-3.0969999 5.1680002 -0.17 0.20999999
-3.105 5.145 -0.169 0.38999999
-3.131 5.152 -0.17 0.2
-3.1489999 5.1459999 -0.171 0.27000001
-3.1730001 5.1479998 -0.17200001 0.19
-3.21 5.171 -0.17399999 0.25
-3.23 5.1849999 -0.175 0.23999999
-3.2449999 5.1729999 -0.175 0.27000001
-3.2620001 5.1630001 -0.175 0.27000001
-3.286 5.1659999 -0.176 0.36000001
-3.302 5.1539998 -0.176 0.25
-3.335 5.1700001 -0.178 0.18000001
-3.3599999 5.1729999 -0.17900001 0.41
-3.3770001 5.1810002 -0.18000001 0.25
-3.3829999 5.1560001 -0.17900001 0.28999999
-3.401 5.1469998 -0.17900001 0.16
-3.421 5.1430001 -0.18000001 0.36000001
-3.4619999 5.1680002 -0.182 0.19
-3.4579999 5.1279998 -0.18000001 0.31999999
-3.4860001 5.1350002 -0.18099999 0.13
-3.5090001 5.151 -0.183 0.38999999
-3.527 5.1409998 -0.183 0.22
-3.5510001 5.1420002 -0.184 0.23
-3.5610001 5.1220002 -0.183 0.23
-3.612 5.1599998 -0.18700001 0.18000001
-3.6270001 5.1469998 -0.18700001 0.31999999
-3.6389999 5.131 -0.18700001 0.1
-3.7219999 5.2119999 -0.19400001 0
-3.717 5.1880002 -0.192 0
-3.7509999 5.2010002 -0.19400001 0.11
-3.7320001 5.1399999 -0.19 0.23
-3.76 5.145 -0.192 0.18000001
-3.756 5.1059999 -0.19 0.23
-3.7909999 5.119 -0.192 0.20999999
-3.793 5.105 -0.191 0.28999999
-3.839 5.1329999 -0.19400001 0.2
-3.859 5.1259999 -0.19400001 0.22
-3.8710001 5.1090002 -0.19400001 0.41
-3.902 5.1160002 -0.19499999 0.16
-3.927 5.1149998 -0.19599999 0.38999999
-3.9489999 5.1100001 -0.197 0.23999999
-3.98 5.1339998 -0.199 0.20999999
-3.9979999 5.1230001 -0.199 0.37
-4.0219998 5.1209998 -0.2 0.16
-4.0500002 5.1230001 -0.20100001 0.25999999
-4.0879998 5.138 -0.204 0.23
-4.1170001 5.1409998 -0.205 0.25
-4.1370001 5.132 -0.205 0.27000001
-4.1729999 5.1440001 -0.207 0.23
-4.177 5.1329999 -0.207 0.37
-4.2210002 5.1539998 -0.20999999 0.19
-4.2449999 5.1490002 -0.20999999 0.36000001
-4.2579999 5.132 -0.20999999 0.22
-4.27 5.1139998 -0.20999999 0.22
-4.316 5.1350002 -0.212 0.18000001
-4.348 5.1409998 -0.214 0.25999999
-4.3540001 5.131 -0.214 0.28999999
-4.3829999 5.1329999 -0.215 0.18000001
-4.4029999 5.1240001 -0.215 0.28
-4.4429998 5.1370001 -0.21799999 0.15000001
-4.48 5.1469998 -0.22 0.37
-4.5159998 5.1550002 -0.221 0.2
-4.5320001 5.1409998 -0.221 0.18000001
-4.527 5.119 -0.22 0.44999999
-4.5580001 5.1209998 -0.222 0.2
-4.5840001 5.119 -0.222 0.31999999
-4.5669999 5.0669999 -0.219 0.19
-4.6199999 5.0939999 -0.223 0.18000001
-4.6570001 5.1020002 -0.22499999 0.30000001
-4.677 5.0910001 -0.22499999 0.28999999
-4.7049999 5.1059999 -0.227 0.27000001
-4.7319999 5.1030002 -0.228 0.28999999
-4.7600002 5.1009998 -0.229 0.25999999
-4.79 5.0999999 -0.23 0.28999999
-4.8060002 5.085 -0.23 0.27000001
-4.8569999 5.1059999 -0.233 0.23999999
-4.8660002 5.0840001 -0.233 0.18000001
-4.8740001 5.0760002 -0.233 0.47
-4.9159999 5.0879998 -0.235 0.25
-4.9699998 5.1110001 -0.23800001 0.25999999
-4.9770002 5.0869999 -0.23800001 0.27000001
-4.9879999 5.066 -0.237 0.34
-5.033 5.0799999 -0.23999999 0.23999999
-5.0630002 5.0780001 -0.241 0.19
-5.046 5.0450001 -0.23899999 0.38999999
-5.0999999 5.066 -0.242 0.22
-5.1500001 5.0840001 -0.245 0.25999999
-5.1820002 5.0830002 -0.24600001 0.31
-5.1880002 5.0570002 -0.24600001 0.25
-5.2210002 5.0570002 -0.24699999 0.40000001
-5.2610002 5.0640001 -0.249 0.23999999
-5.2709999 5.0570002 -0.249 0.20999999
-5.3499999 5.1009998 -0.255 0.30000001
-5.362 5.0799999 -0.25400001 0.31
-5.3860002 5.072 -0.255 0.34
-5.3889999 5.0419998 -0.25400001 0.28
-5.4120002 5.0320001 -0.255 0.36000001
-5.619 5.191 -0.271 0.14
-5.4899998 5.04 -0.25799999 0.41999999
-5.546 5.0760002 -0.26199999 0.25
-5.5500002 5.0469999 -0.26199999 0.20999999
-5.5780001 5.0409999 -0.26199999 0.34
-5.6149998 5.0419998 -0.264 0.28999999
-5.6630001 5.053 -0.26699999 0.40000001
-5.7290001 5.079 -0.271 0.23
-5.7420001 5.0580001 -0.271 0.25999999
-5.7420001 5.0430002 -0.27000001 0.30000001
-5.783 5.0469999 -0.27200001 0.28
-5.8309999 5.0560002 -0.27500001 0.28
-5.8670001 5.0539999 -0.27599999 0.25
-5.8889999 5.0409999 -0.27700001 0.34
-5.9899998 5.0949998 -0.28400001 0.25999999
-5.96 5.0370002 -0.28 0.28
-5.9879999 5.0450001 -0.28200001 0.25999999
-5.9640002 4.993 -0.27900001 0.43000001
-5.9920001 4.9840002 -0.28 0.23
-6.086 5.0300002 -0.28600001 0.19
-6.1030002 5.0120001 -0.28600001 0.38
-6.1329999 5.0040002 -0.287 0.30000001
-6.152 4.987 -0.287 0.28
-6.2189999 5.0250001 -0.292 0.27000001
-6.2839999 5.0450001 -0.296 0.31999999
-6.256 4.9910002 -0.29300001 0.33000001
-6.4320002 5.0970001 -0.30500001 0.25999999
-6.3979998 5.0380001 -0.301 0.31
-6.4310002 5.0310001 -0.303 0.20999999
-6.5510001 5.0910001 -0.31099999 0.43000001
-6.4429998 4.9920001 -0.30199999 0.25
-6.6059999 5.085 -0.31299999 0.27000001
-6.901 5.2750001 -0.33500001 0.28
-6.6880002 5.0799999 -0.317 0.25999999
-6.6919999 5.0510001 -0.31600001 0.28
-6.7179999 5.0370002 -0.317 0.38
-6.9390001 5.1680002 -0.333 0.28999999
-6.8540001 5.0879998 -0.32499999 0.28
-6.8169999 5.0279999 -0.32100001 0.31999999
-6.8410001 5.0120001 -0.322 0.23
-6.8940001 5.0180001 -0.32499999 0.43000001
-7.1009998 5.1329999 -0.33899999 0.2
-7.0159998 5.039 -0.33199999 0.37
-7.0190001 5.0079999 -0.331 0.34
-7.0669999 5.0250001 -0.33399999 0.23
-7.0879998 5.007 -0.33399999 0.49000001
-7.1199999 4.9959998 -0.33500001 0.34
-7.119 4.9619999 -0.33399999 0.31999999
-7.3340001 5.0770001 -0.34900001 0.33000001
-7.2490001 4.9850001 -0.34200001 0.28999999
-7.2810001 4.973 -0.34299999 0.36000001
-7.3369999 4.994 -0.34599999 0.30000001
-7.3509998 4.9699998 -0.34599999 0.34999999
-7.4980001 5.0339999 -0.35600001 0.27000001
-7.5040002 5.0040002 -0.35499999 0.38
-7.5510001 5.0019999 -0.35800001 0.36000001
-7.7069998 5.0700002 -0.368 0.2
-7.6459999 4.9949999 -0.36199999 0.41
-7.677 4.9980001 -0.36399999 0.38999999
-7.7649999 5.0209999 -0.36899999 0.33000001
-7.7839999 4.9980001 -0.37 0.38999999
-7.8670001 5.0170002 -0.375 0.30000001
-7.9419999 5.0289998 -0.37900001 0.25999999
-7.9429998 4.9949999 -0.37799999 0.40000001
-7.9889998 4.9889998 -0.38 0.36000001
-8.0299997 4.9790001 -0.382 0.37
-8.0670004 4.9840002 -0.384 0.25
-8.1420002 4.9949999 -0.38800001 0.43000001
-8.217 5.006 -0.39300001 0.36000001
-8.2449999 4.987 -0.39300001 0.36000001
-8.3100004 4.9910002 -0.39700001 0.31999999
-8.3809996 4.9970002 -0.40099999 0.40000001
-8.4169998 4.9829998 -0.403 0.41999999
-8.4799995 5.0019999 -0.40599999 0.37
-8.5439997 5.0040002 -0.41 0.41
-8.6219997 5.013 -0.414 0.30000001
-8.6999998 5.0219998 -0.419 0.23999999
-8.7580004 5.0180001 -0.42199999 0.46000001
-8.8199997 5.0170002 -0.42500001 0.44999999
-16.473 9.2419996 -0.96600002 0.68000001
-16.261 9.0559998 -0.949 0.19
-16.475 9.1070004 -0.96200001 0.5
-16.482 9.0439997 -0.95999998 0.40000001
-16.469999 8.9700003 -0.95700002 0.41
-16.466999 8.901 -0.95499998 0.41
-16.416 8.8409996 -0.95099998 0.63999999
-16.281 8.7030001 -0.93900001 0.28
-16.464001 8.7340002 -0.94999999 0.55000001
-16.587999 8.7329998 -0.95700002 0.33000001
-16.671 8.7089996 -0.96100003 0.50999999
-16.792 8.7049999 -0.96700001 0.33000001
-16.889 8.6879997 -0.972 0.5
-17.006001 8.6809998 -0.97799999 0.33000001
-17.091 8.6899996 -0.98299998 0.51999998
-17.216999 8.6859999 -0.99000001 0.31
-17.313 8.6669998 -0.995 0.52999997
-17.450001 8.6660004 -1.003 0.31999999
-17.542999 8.6440001 -1.007 0.5
-17.673 8.6389999 -1.0140001 0.31999999
-17.782 8.6230001 -1.02 0.50999999
-17.903999 8.6470003 -1.027 0.31
-18.003 8.625 -1.0319999 0.5
-18.129 8.6160002 -1.039 0.30000001
-18.245001 8.6000004 -1.045 0.5
-18.375 8.5909996 -1.052 0.31999999
-18.462999 8.5620003 -1.056 0.55000001
-11.451 5.277 -0.57700002 0.27000001
-11.377 5.2220001 -0.57200003 0.55000001
-11.558 5.2600002 -0.583 0.2
-11.689 5.2750001 -0.59100002 0.20999999
-16.806 7.5089998 -0.93599999 0.34
-16.808001 7.447 -0.935 0.38999999
-11.992 5.276 -0.60799998 0.17
-16.777 7.3390002 -0.93000001 0.31999999
-16.761 7.2690001 -0.92699999 0.56
-12.264 5.2810001 -0.62300003 0.20999999
-16.750999 7.1399999 -0.92400002 0.22
-16.705999 7.059 -0.91900003 0.58999997
-16.785 7.0300002 -0.92299998 0.33000001
-16.816 6.9809999 -0.92400002 0.2
-16.794001 6.941 -0.921 0.36000001
-16.837999 6.8979998 -0.92299998 0.54000002
-16.868999 6.848 -0.92400002 0.28999999
-16.923 6.809 -0.926 0.17
-17.101999 6.8179998 -0.93599999 0.54000002
-17.218 6.802 -0.94300002 0.25
-21.464001 8.3940001 -1.223 0.2
-13.479 5.2329998 -0.69199997 0.23
-13.589 5.2509999 -0.699 0.2
-15.156 5.7989998 -0.801 0.15000001
-22.044001 8.342 -1.255 0.14
-22.221001 8.3290005 -1.265 0.12
