# .PCD v0.7 - Point Cloud Data file format
VERSION 0.7
FIELDS x y z intensity
SIZE 4 4 4 4
TYPE F F F F
COUNT 1 1 1 1
WIDTH 1407
HEIGHT 1
VIEWPOINT 0 0 0 1 0 0 0
POINTS 1407
DATA ascii
-7.2080002 1.767 -1.893 0.02
-7.2069998 1.755 -1.892 0.029999999
-7.2140002 1.732 -1.893 0.16
-7.2069998 1.707 -1.8890001 0.15000001
-7.204 1.682 -1.887 0.28999999
-7.2080002 1.659 -1.886 0.25
-7.2090001 1.636 -1.885 0.25999999
-7.2119999 1.613 -1.885 0.27000001
-7.198 1.598 -1.88 0.25
-7.2270002 1.58 -1.887 0.23999999
-7.2210002 1.5549999 -1.8839999 0.17
-7.2129998 1.53 -1.88 0.28
-7.2329998 1.51 -1.8839999 0.23
-7.224 1.485 -1.881 0.25999999
-7.2140002 1.459 -1.876 0.16
-7.2199998 1.448 -1.878 0.28999999
-7.2280002 1.426 -1.8789999 0.25
-7.217 1.401 -1.874 0.16
-7.2220001 1.378 -1.874 0.28999999
-7.2319999 1.357 -1.876 0.23999999
-7.23 1.3329999 -1.874 0.25999999
-7.2210002 1.308 -1.8710001 0.17
-7.2290001 1.2970001 -1.872 0.30000001
-7.2270002 1.274 -1.8710001 0.25
-7.2309999 1.251 -1.8710001 0.27000001
-7.237 1.229 -1.8710001 0.25999999
-7.2270002 1.204 -1.868 0.19
-7.2309999 1.181 -1.868 0.27000001
-7.2420001 1.159 -1.87 0.25
-7.2420001 1.148 -1.869 0.27000001
-7.244 1.125 -1.869 0.16
-7.2360001 1.1 -1.865 0.28999999
-7.23 1.076 -1.863 0.23999999
-7.2290001 1.053 -1.862 0.25999999
-7.2360001 1.031 -1.863 0.25999999
-7.2379999 1.008 -1.862 0.25999999
-7.2389998 0.99599999 -1.862 0.19
-7.2379999 0.97299999 -1.8609999 0.27000001
-7.2490001 0.95099998 -1.863 0.23
-7.2350001 0.926 -1.859 0.19
-7.2449999 0.90499997 -1.8609999 0.27000001
-7.237 0.88 -1.858 0.23
-7.243 0.85799998 -1.859 0.18000001
-7.237 0.84600002 -1.857 0.27000001
-7.243 0.824 -1.858 0.23
-7.2329998 0.79900002 -1.854 0.18000001
-7.237 0.77700001 -1.854 0.28
-7.2280002 0.75300002 -1.851 0.17
-7.2399998 0.73100001 -1.854 0.25
-7.2340002 0.708 -1.852 0.20999999
-7.2389998 0.69700003 -1.853 0.2
-7.2259998 0.67299998 -1.849 0.23999999
-7.2280002 0.64999998 -1.849 0.23
-7.211 0.62599999 -1.8430001 0.18000001
-7.2280002 0.60399997 -1.848 0.27000001
-7.23 0.58099997 -1.848 0.22
-7.224 0.55800003 -1.846 0.19
-7.223 0.54699999 -1.845 0.25999999
-7.2210002 0.52399999 -1.844 0.23
-7.217 0.50099999 -1.842 0.19
-7.224 0.47799999 -1.844 0.25999999
-7.2119999 0.45500001 -1.84 0.22
-7.223 0.433 -1.8430001 0.2
-7.2090001 0.40900001 -1.839 0.23999999
-7.2129998 0.398 -1.84 0.18000001
-7.2010002 0.375 -1.836 0.25
-7.2059999 0.352 -1.837 0.2
-7.2030001 0.329 -1.836 0.23999999
-7.1950002 0.30599999 -1.834 0.16
-7.1859999 0.28299999 -1.831 0.27000001
-7.1830001 0.26100001 -1.83 0.22
-7.164 0.249 -1.825 0.2
-7.1900001 0.227 -1.831 0.25
-7.1810002 0.204 -1.829 0.18000001
-7.1719999 0.182 -1.826 0.23999999
-7.1690001 0.15899999 -1.825 0.17
-7.1690001 0.13600001 -1.825 0.23999999
-7.1729999 0.114 -1.826 0.2
-7.1700001 0.103 -1.825 0.12
-7.1560001 0.079999998 -1.821 0.20999999
-7.1430001 0.057 -1.818 0.18000001
-7.1570001 0.035 -1.821 0.27000001
-7.1570001 0.013 -1.821 0.18000001
-7.1589999 -0.0099999998 -1.822 0.23999999
-7.1570001 -0.021 -1.821 0.18000001
-7.1609998 -0.044 -1.823 0.23999999
-7.1550002 -0.066 -1.821 0.19
-7.158 -0.089000002 -1.822 0.23999999
-7.1659999 -0.111 -1.824 0.19
-7.1500001 -0.133 -1.8200001 0.25
-7.1550002 -0.156 -1.821 0.22
-7.1589999 -0.167 -1.823 0.2
-7.1560001 -0.19 -1.822 0.25
-7.1479998 -0.212 -1.8200001 0.23
-7.1490002 -0.235 -1.8200001 0.18000001
-7.303 -0.26300001 -1.862 0.23
-7.2870002 -0.27399999 -1.858 0.17
-7.29 -0.29699999 -1.859 0.28999999
-7.2950001 -0.31999999 -1.8609999 0.23999999
-7.2839999 -0.34299999 -1.858 0.16
-7.2919998 -0.366 -1.8609999 0.28999999
-7.2930002 -0.389 -1.8609999 0.23
-7.2820001 -0.41100001 -1.859 0.19
-7.2849998 -0.435 -1.86 0.28
-7.276 -0.44600001 -1.858 0.25
-7.2940001 -0.47 -1.863 0.23
-7.2870002 -0.49200001 -1.8609999 0.16
-7.2800002 -0.51499999 -1.86 0.30000001
-7.2800002 -0.53799999 -1.86 0.25
-7.2670002 -0.56 -1.857 0.16
-7.2729998 -0.583 -1.859 0.28999999
-7.2620001 -0.59399998 -1.857 0.23
-7.256 -0.616 -1.8559999 0.17
-7.2639999 -0.63999999 -1.858 0.28
-7.2579999 -0.662 -1.857 0.25
-7.25 -0.68400002 -1.8559999 0.25999999
-7.2519999 -0.708 -1.857 0.19
-7.2470002 -0.71899998 -1.8559999 0.27000001
-7.2480001 -0.74199998 -1.857 0.25
-7.244 -0.764 -1.8559999 0.16
-7.2319999 -0.78600001 -1.853 0.30000001
-7.224 -0.80800003 -1.852 0.25
-7.2290001 -0.83200002 -1.854 0.19
-7.2280002 -0.85500002 -1.854 0.28
-7.2290001 -0.866 -1.855 0.25
-7.2199998 -0.88800001 -1.853 0.19
-7.2080002 -0.91000003 -1.851 0.25999999
-7.2069998 -0.93300003 -1.851 0.23999999
-7.2119999 -0.95599997 -1.853 0.19
-7.2049999 -0.97799999 -1.852 0.28
-7.1960001 -1 -1.851 0.23999999
-7.1919999 -1.011 -1.85 0.16
-7.191 -1.034 -1.851 0.28
-7.1690001 -1.054 -1.846 0.23999999
-7.1820002 -1.079 -1.85 0.19
-7.1789999 -1.101 -1.85 0.28
-7.177 -1.124 -1.851 0.23
-7.1620002 -1.145 -1.848 0.15000001
-7.1680002 -1.158 -1.85 0.28999999
-7.1459999 -1.177 -1.845 0.25
-7.1529999 -1.201 -1.848 0.19
-7.151 -1.224 -1.848 0.27000001
-7.1490002 -1.247 -1.849 0.23
-7.1420002 -1.2690001 -1.848 0.25
-7.1490002 -1.293 -1.851 0.23999999
-7.118 -1.299 -1.8430001 0.16
-7.1259999 -1.324 -1.846 0.31
-7.1269999 -1.347 -1.848 0.25
-7.1100001 -1.367 -1.844 0.27000001
-7.1030002 -1.3890001 -1.8430001 0.25
-7.0970001 -1.411 -1.8430001 0.25
-7.0869999 -1.432 -1.841 0.25
-7.1059999 -1.447 -1.847 0.25
-7.0760002 -1.464 -1.84 0.18000001
-7.0700002 -1.4859999 -1.84 0.28999999
-7.0710001 -1.51 -1.841 0.23999999
-7.0549998 -1.529 -1.8380001 0.27000001
-7.0419998 -1.55 -1.836 0.25999999
-7.046 -1.562 -1.8380001 0.27000001
-7.0219998 -1.58 -1.832 0.16
-7.0209999 -1.603 -1.834 0.28999999
-7.0100002 -1.624 -1.832 0.25
-7.007 -1.646 -1.832 0.25999999
-6.9899998 -1.665 -1.829 0.25
-6.994 -1.6900001 -1.832 0.25999999
-6.9749999 -1.696 -1.827 0.2
-6.9679999 -1.7180001 -1.827 0.28
-6.9660001 -1.7410001 -1.8279999 0.25
-6.934 -1.756 -1.8200001 0.16
-6.9510002 -1.783 -1.827 0.28999999
-6.9439998 -1.8049999 -1.826 0.25
-6.914 -1.8200001 -1.819 0.2
-6.921 -1.845 -1.823 0.28
-6.914 -1.855 -1.822 0.23999999
-6.901 -1.875 -1.8200001 0.25999999
-6.908 -1.9 -1.824 0.27000001
-6.8829999 -1.9170001 -1.818 0.22
-6.8759999 -1.938 -1.818 0.27000001
-6.855 -1.955 -1.814 0.23999999
-6.8520002 -1.966 -1.814 0.27000001
-6.8449998 -1.987 -1.814 0.25999999
-6.8169999 -2.0020001 -1.807 0.22
-6.8309999 -2.03 -1.813 0.13
-6.8130002 -2.0480001 -1.8099999 0.18000001
-6.8049998 -2.069 -1.809 0.050000001
-6.7950001 -2.089 -1.808 0
-6.8010001 -2.102 -1.811 0
-6.3410001 -3.2420001 -1.812 0.059999999
-6.336 -3.2650001 -1.814 0.19
-6.276 -3.2590001 -1.798 0.25999999
-6.2410002 -3.2520001 -1.789 0.25
-6.2220001 -3.267 -1.786 0.31
-6.1950002 -3.2780001 -1.781 0.28
-6.1890001 -3.3 -1.783 0.31999999
-6.1700001 -3.3150001 -1.78 0.28999999
-6.1409998 -3.3239999 -1.774 0.28999999
-6.1329999 -3.3440001 -1.775 0.30000001
-6.1240001 -3.352 -1.774 0.30000001
-6.1100001 -3.369 -1.773 0.28999999
-6.0890002 -3.3829999 -1.77 0.27000001
-6.079 -3.402 -1.77 0.31
-6.0489998 -3.411 -1.7640001 0.36000001
-6.039 -3.4300001 -1.7640001 0.31
-6.026 -3.448 -1.763 0.33000001
-6.0219998 -3.4579999 -1.7640001 0.31999999
-6.013 -3.4779999 -1.7640001 0.31
-5.9889998 -3.4890001 -1.76 0.28999999
-5.9759998 -3.507 -1.76 0.30000001
-5.9650002 -3.5250001 -1.76 0.28999999
-5.9530001 -3.543 -1.7589999 0.31
-5.941 -3.562 -1.7589999 0.30000001
-5.934 -3.5699999 -1.7589999 0.28999999
-5.9239998 -3.5899999 -1.7589999 0.31
-5.8930001 -3.596 -1.753 0.20999999
-5.9050002 -3.6289999 -1.76 0.43000001
-5.8790002 -3.638 -1.755 0.28999999
-5.8709998 -3.6589999 -1.756 0.28999999
-5.8610001 -3.678 -1.757 0.31999999
-5.855 -3.688 -1.757 0.28
-5.8400002 -3.704 -1.756 0.34
-5.8140001 -3.7130001 -1.751 0.22
-5.8169999 -3.74 -1.756 0.44
-5.8049998 -3.7590001 -1.756 0.34
-5.7839999 -3.7709999 -1.753 0.28
-5.77 -3.7880001 -1.752 0.27000001
-5.7639999 -3.7969999 -1.752 0.36000001
-5.744 -3.809 -1.75 0.28999999
-5.7290001 -3.825 -1.749 0.23
-5.7249999 -3.849 -1.751 0.43000001
-5.6999998 -3.858 -1.747 0.28999999
-5.6849999 -3.8740001 -1.7460001 0.28999999
-5.6750002 -3.8800001 -1.745 0.28999999
-5.6599998 -3.8959999 -1.744 0.28999999
-5.6459999 -3.9130001 -1.743 0.28999999
-5.6459999 -3.9389999 -1.748 0.28999999
-5.6259999 -3.951 -1.745 0.30000001
-5.6199999 -3.974 -1.747 0.31999999
-5.6030002 -3.9879999 -1.745 0.28999999
-5.5999999 -3.9990001 -1.747 0.30000001
-5.5809999 -4.0120001 -1.744 0.28
-5.5669999 -4.0279999 -1.744 0.31
-5.5380001 -4.0339999 -1.739 0.20999999
-5.5469999 -4.0679998 -1.7460001 0.38
-5.5110002 -4.0679998 -1.738 0.20999999
-5.506 -4.0910001 -1.7410001 0.44999999
-5.5079999 -4.105 -1.743 0.30000001
-5.4920001 -4.1199999 -1.742 0.28999999
-5.48 -4.1389999 -1.743 0.33000001
-5.4699998 -4.158 -1.744 0.27000001
-5.454 -4.1729999 -1.743 0.33000001
-5.427 -4.1799998 -1.738 0.22
-5.4289999 -4.2080002 -1.743 0.38
-5.421 -4.2160001 -1.743 0.33000001
-5.4060001 -4.2319999 -1.742 0.28999999
-5.3720002 -4.2319999 -1.735 0.25
-5.362 -4.2509999 -1.7359999 0.28999999
-5.3649998 -4.2810001 -1.742 0.40000001
-5.3499999 -4.2969999 -1.7410001 0.30000001
-5.3150001 -4.2969999 -1.734 0.20999999
-5.2950001 -4.2940001 -1.729 0.07
-5.2729998 -4.303 -1.726 0
-4.4130001 -3.619 -1.428 0
-4.3779998 -3.6129999 -1.42 0
-4.3410001 -3.6059999 -1.411 0
-4.309 -3.602 -1.403 0
-4.2800002 -3.6010001 -1.397 0
-4.256 -3.5910001 -1.39 0
-4.2280002 -3.5910001 -1.3839999 0
-4.1960001 -3.586 -1.377 0
-4.171 -3.5869999 -1.372 0
-4.1430001 -3.586 -1.3660001 0
-4.0999999 -3.5710001 -1.355 0
-4.0739999 -3.5599999 -1.347 0
-4.0409999 -3.553 -1.339 0
-4.0170002 -3.5539999 -1.335 0
-3.974 -3.5380001 -1.323 0
-3.9489999 -3.5380001 -1.318 0
-3.9219999 -3.536 -1.312 0
-3.885 -3.5250001 -1.303 0
-3.8670001 -3.5190001 -1.298 0
-3.845 -3.5209999 -1.294 0
-3.8150001 -3.516 -1.2869999 0
-3.793 -3.517 -1.283 0
-3.7720001 -3.52 -1.279 0
-3.733 -3.5050001 -1.2690001 0
-3.691 -3.487 -1.257 0
-3.615 -3.4690001 -1.239 0
-3.6040001 -3.4809999 -1.239 0
-3.5910001 -3.4890001 -1.238 0
-3.566 -3.487 -1.232 0
-3.549 -3.493 -1.23 0
-3.5120001 -3.467 -1.2180001 0
-3.5250001 -3.5009999 -1.227 0
-3.5220001 -3.5209999 -1.23 0
-3.5079999 -3.529 -1.229 0
-3.497 -3.54 -1.229 0
-3.4860001 -3.5510001 -1.229 0
-3.4649999 -3.552 -1.226 0
-3.4489999 -3.546 -1.221 0
-3.4300001 -3.549 -1.2180001 0
-3.415 -3.5550001 -1.217 0
-3.4130001 -3.576 -1.22 0
-3.402 -3.5869999 -1.22 0
-3.3900001 -3.5969999 -1.22 0
-3.3789999 -3.608 -1.22 0
-3.368 -3.6070001 -1.2180001 0
-3.355 -3.6170001 -1.2180001 0.029999999
-3.3499999 -3.6340001 -1.22 0.13
-3.3429999 -3.6489999 -1.222 0.18000001
-3.342 -3.671 -1.226 0.18000001
-3.3239999 -3.674 -1.224 0.25999999
-3.3080001 -3.6800001 -1.222 0.25999999
-3.2909999 -3.6730001 -1.217 0.039999999
-3.29 -3.6949999 -1.221 0
-3.283 -3.711 -1.224 0
-3.2739999 -3.724 -1.225 0
-3.2690001 -3.7409999 -1.227 0
-3.266 -3.7620001 -1.2309999 0
-3.2460001 -3.7509999 -1.225 0
-3.2320001 -3.7579999 -1.224 0
-3.2309999 -3.7820001 -1.229 0
-3.224 -3.7980001 -1.2309999 0
-3.2249999 -3.823 -1.2359999 0
-3.2219999 -3.845 -1.24 0
-3.2130001 -3.858 -1.2410001 0
-3.214 -3.872 -1.245 0
-3.2060001 -3.8859999 -1.2460001 0
-3.1960001 -3.8989999 -1.247 0
-3.2279999 -3.9649999 -1.267 0
-3.2149999 -3.973 -1.266 0
-3.1949999 -3.974 -1.263 0
-3.1819999 -3.984 -1.263 0
-3.184 -4 -1.267 0
-3.177 -4.0159998 -1.2690001 0
-3.197 -4.0689998 -1.283 0
-3.191 -4.0879998 -1.286 0.050000001
-3.188 -4.1100001 -1.291 0.14
-3.188 -4.1370001 -1.296 0.16
-3.1760001 -4.1490002 -1.2970001 0.090000004
-3.1889999 -4.1799998 -1.306 0
-3.177 -4.191 -1.306 0.050000001
-3.175 -4.2150002 -1.311 0.039999999
-3.171 -4.2379999 -1.3150001 0.15000001
-3.1570001 -4.2480001 -1.3150001 0
-3.152 -4.2680001 -1.319 0
-3.1659999 -4.316 -1.332 0
-3.178 -4.3470001 -1.34 0.050000001
-3.191 -4.395 -1.353 0.14
-3.1819999 -4.4109998 -1.355 0.12
-3.1630001 -4.4130001 -1.352 0
-3.1630001 -4.4439998 -1.359 0
-3.1600001 -4.4689999 -1.365 0
-3.1589999 -4.4980001 -1.3710001 0
-3.1670001 -4.5240002 -1.378 0
-3.2349999 -4.6529999 -1.4170001 0.1
-3.1989999 -4.6329999 -1.4069999 0
-3.197 -4.6609998 -1.413 0
-3.2079999 -4.7090001 -1.425 0
-3.7160001 -5.5370002 -1.689 0.28999999
-3.7090001 -5.546 -1.6900001 0.31999999
-3.6900001 -5.5549998 -1.689 0.31999999
-3.6659999 -5.5570002 -1.686 0.25999999
-3.641 -5.5570002 -1.682 0.27000001
-3.6229999 -5.5669999 -1.682 0.38
-3.6059999 -5.5799999 -1.682 0.28999999
-3.5910001 -5.5749998 -1.679 0.51999998
-3.5769999 -5.592 -1.6799999 0.47999999
-3.5699999 -5.619 -1.686 0.33000001
-3.5550001 -5.6350002 -1.687 0.31
-3.5380001 -5.6479998 -1.688 0.34
-3.5239999 -5.664 -1.689 0.36000001
-3.4990001 -5.6630001 -1.686 0.27000001
-3.494 -5.6760001 -1.688 0.34
-3.477 -5.6880002 -1.688 0.31
-3.4560001 -5.6939998 -1.687 0.31999999
-3.444 -5.7150002 -1.6900001 0.31
-3.4200001 -5.7160001 -1.687 0.30000001
-3.402 -5.7259998 -1.687 0.28
-3.382 -5.7340002 -1.686 0.31
-3.3759999 -5.744 -1.687 0.25
-3.359 -5.756 -1.688 0.40000001
-3.346 -5.7750001 -1.6900001 0.36000001
-3.3310001 -5.7919998 -1.693 0.30000001
-3.3110001 -5.7989998 -1.692 0.31
-3.29 -5.8049998 -1.6900001 0.28
-3.266 -5.8049998 -1.687 0.31
-3.253 -5.802 -1.684 0.30000001
-3.2420001 -5.8249998 -1.688 0.38999999
-3.2219999 -5.8319998 -1.687 0.31
-3.2060001 -5.8470001 -1.689 0.30000001
-3.1900001 -5.862 -1.6900001 0.44
-3.175 -5.8779998 -1.692 0.31999999
-3.1489999 -5.8740001 -1.688 0.31
-3.142 -5.882 -1.689 0.34
-3.128 -5.901 -1.692 0.28999999
-3.105 -5.9039998 -1.689 0.31999999
-3.0810001 -5.901 -1.686 0.28
-3.063 -5.9130001 -1.686 0.25
-3.0350001 -5.9029999 -1.6799999 0.27000001
-3.0209999 -5.9229999 -1.684 0.52999997
-3.0090001 -5.9229999 -1.682 0.38
-2.9849999 -5.9200001 -1.678 0.38
-2.9679999 -5.9330001 -1.679 0.40000001
-2.9489999 -5.9419999 -1.679 0.31999999
-2.9430001 -5.9770002 -1.687 0.34999999
-2.921 -5.98 -1.6849999 0.30000001
-2.905 -5.994 -1.687 0.31999999
-2.8900001 -5.9879999 -1.684 0.28999999
-2.8729999 -6.0009999 -1.6849999 0.34
-2.8510001 -6.0029998 -1.683 0.28
-2.8239999 -5.994 -1.677 0.28
-2.7839999 -5.9569998 -1.664 0.57999998
-2.71 -5.8449998 -1.628 0.31
-2.6889999 -5.823 -1.62 0.31999999
-2.6689999 -5.8280001 -1.619 0.34999999
-2.654 -5.8429999 -1.6210001 0.31999999
-2.6289999 -5.8379998 -1.617 0.23
-2.622 -5.8720002 -1.624 0.19
-2.608 -5.8889999 -1.627 0.52999997
-2.605 -5.9349999 -1.638 0.31999999
-2.596 -5.9390001 -1.638 0.28
-2.5799999 -5.9520001 -1.64 0.44999999
-2.549 -5.9320002 -1.631 0.44
-2.5120001 -5.8969998 -1.619 0.38999999
-2.5090001 -5.9419999 -1.63 0.20999999
-2.48 -5.9250002 -1.622 0.54000002
-2.4760001 -5.9689999 -1.633 0.30000001
-2.4649999 -5.967 -1.631 0.43000001
-2.437 -5.954 -1.625 0.38
-2.4159999 -5.954 -1.623 0.38999999
-2.3870001 -5.9359999 -1.6160001 0.30000001
-2.348 -5.8920002 -1.6 0.40000001
-2.3269999 -5.8920002 -1.598 0.31999999
-2.316 -5.921 -1.605 0.47
-2.299 -5.9029999 -1.598 0.27000001
-2.266 -5.8720002 -1.587 0.44
-2.247 -5.8769999 -1.587 0.30000001
-2.2090001 -5.8319998 -1.572 0.40000001
-2.1760001 -5.8010001 -1.561 0.31999999
-2.161 -5.8150001 -1.563 0.30000001
-2.1530001 -5.822 -1.564 0.50999999
-2.1199999 -5.789 -1.552 0.28
-2.089 -5.7610002 -1.5420001 0.44999999
-2.053 -5.717 -1.527 0.31999999
-2.063 -5.8010001 -1.55 0.37
-2.027 -5.757 -1.535 0.38999999
-2.01 -5.7670002 -1.536 0.34999999
-2.0150001 -5.8119998 -1.548 0.47
-1.959 -5.7049999 -1.516 0.28999999
-1.925 -5.665 -1.503 0.34
-1.92 -5.71 -1.5140001 0.19
-1.92 -5.7690001 -1.529 0.56999999
-1.904 -5.7820001 -1.531 0.34
-1.865 -5.724 -1.513 0.43000001
-1.849 -5.7049999 -1.507 0.31999999
-1.841 -5.7399998 -1.515 0.28999999
-1.836 -5.7880001 -1.527 0.41999999
-1.8049999 -5.7529998 -1.515 0.43000001
-1.786 -5.757 -1.515 0.23999999
-1.776 -5.7870002 -1.522 0.5
-1.757 -5.79 -1.521 0.40000001
-1.745 -5.7839999 -1.5190001 0.41999999
-1.726 -5.7870002 -1.518 0.37
-1.7079999 -5.7909999 -1.518 0.38
-1.699 -5.8299999 -1.527 0.31
-1.6849999 -5.8499999 -1.531 0.44999999
-1.666 -5.8530002 -1.531 0.2
-1.64 -5.8319998 -1.523 0.51999998
-1.623 -5.8070002 -1.515 0.38
-1.597 -5.7820001 -1.507 0.34999999
-1.605 -5.8860002 -1.535 0.44
-1.587 -5.8909998 -1.535 0.34
-1.546 -5.8119998 -1.511 0.40000001
-1.528 -5.8150001 -1.511 0.38999999
-1.529 -5.8590002 -1.522 0.34999999
-1.4960001 -5.803 -1.505 0.25
-1.4809999 -5.8210001 -1.5089999 0.49000001
-1.4630001 -5.8299999 -1.51 0.40000001
-1.443 -5.8270001 -1.508 0.38
-1.426 -5.8369999 -1.51 0.30000001
-1.428 -5.928 -1.534 0.47
-1.395 -5.8280001 -1.505 0.37
-1.374 -5.8210001 -1.502 0.37
-1.37 -5.8899999 -1.52 0.38999999
-1.325 -5.7740002 -1.487 0.25999999
-1.325 -5.862 -1.51 0.28999999
-1.325 -5.9499998 -1.533 0.43000001
-1.2970001 -5.908 -1.521 0.43000001
-1.281 -5.882 -1.513 0.37
-1.26 -5.8709998 -1.5089999 0.28999999
-1.24 -5.869 -1.507 0.41
-1.219 -5.862 -1.5039999 0.38999999
-1.2029999 -5.875 -1.507 0.44999999
-1.1900001 -5.9070001 -1.5140001 0.44
-1.165 -5.8790002 -1.505 0.31999999
-1.168 -5.941 -1.522 0.38
-1.153 -5.9660001 -1.528 0.36000001
-1.133 -5.9650002 -1.527 0.49000001
-1.126 -6.0300002 -1.544 0.31
-1.107 -6.033 -1.544 0.44999999
-1.081 -6.0009999 -1.534 0.40000001
-1.0599999 -5.9889998 -1.53 0.37
-1.057 -6.0300002 -1.541 0.30000001
-1.041 -6.0469999 -1.544 0.38
-1.027 -6.0809999 -1.553 0.41999999
-1.0089999 -6.0929999 -1.5549999 0.34999999
-0.98699999 -6.079 -1.551 0.27000001
-0.98199999 -6.1719999 -1.575 0.51999998
-0.95200002 -6.0440001 -1.54 0.38
-0.92799997 -6.013 -1.53 0.33000001
-0.91399997 -6.046 -1.538 0.38999999
-0.90899998 -6.1479998 -1.566 0.25
-0.88800001 -6.138 -1.562 0.46000001
-0.85299999 -6.0240002 -1.53 0.22
-0.85299999 -6.1680002 -1.569 0.61000001
-0.82300001 -6.0159998 -1.527 0.33000001
-0.80599999 -6.0320001 -1.531 0.25999999
-0.81400001 -6.2550001 -1.591 0.44999999
-0.79799998 -6.2839999 -1.598 0.34
-0.78299999 -6.329 -1.61 0.31999999
-0.76300001 -6.3239999 -1.608 0.41999999
-0.741 -6.309 -1.603 0.33000001
-0.73000002 -6.3000002 -1.6 0.47999999
-0.713 -6.335 -1.609 0.28999999
-0.69300002 -6.3280001 -1.607 0.49000001
-0.67699999 -6.368 -1.617 0.34
-0.66399997 -6.447 -1.638 0.2
-0.63999999 -6.4109998 -1.628 0.51999998
-0.62199998 -6.4320002 -1.633 0.27000001
-0.61299998 -6.4429998 -1.635 0.56999999
-0.59299999 -6.4520001 -1.638 0.28999999
-0.57200003 -6.4439998 -1.635 0.52999997
-0.55299997 -6.46 -1.6390001 0.30000001
-0.53299999 -6.4650002 -1.64 0.34
-0.51300001 -6.473 -1.641 0.27000001
-0.50199997 -6.4619999 -1.638 0.44999999
-0.48100001 -6.46 -1.637 0.43000001
-0.46000001 -6.4439998 -1.632 0.37
-0.44 -6.4510002 -1.6339999 0.38
-0.419 -6.4429998 -1.631 0.34
-0.40000001 -6.4629998 -1.636 0.38999999
-0.38 -6.4679999 -1.638 0.25999999
-0.36899999 -6.4460001 -1.631 0.52999997
-0.34799999 -6.4390001 -1.6289999 0.37
-0.32800001 -6.4499998 -1.632 0.44999999
-0.29800001 -6.2210002 -1.569 0.28999999
-0.278 -6.2220001 -1.569 0.31
-0.259 -6.237 -1.573 0.31
-0.23999999 -6.2350001 -1.573 0.36000001
-0.23 -6.2470002 -1.576 0.34999999
-0.211 -6.2649999 -1.58 0.2
-0.19599999 -6.428 -1.624 0.22
-0.175 -6.415 -1.6210001 0.40000001
-0.154 -6.368 -1.608 0.25999999
-0.134 -6.3449998 -1.601 0.61000001
-0.077 -4.1339998 -1.001 0
-0.113 -6.2639999 -1.579 0
-0.048999999 -3.8139999 -0.91399997 0
-0.037 -3.7939999 -0.90899998 0
-0.025 -3.783 -0.90600002 0
-0.013 -3.779 -0.90399998 0.02
-0.0070000002 -3.8099999 -0.91299999 0
0.0049999999 -3.7679999 -0.90100002 0
0.017000001 -3.7679999 -0.90100002 0.029999999
0.028999999 -3.7750001 -0.903 0.029999999
0.039999999 -3.767 -0.90100002 0.039999999
0.052000001 -3.7539999 -0.898 0.07
0.063000001 -3.7460001 -0.89600003 0.039999999
0.068999998 -3.7479999 -0.89600003 0.17
0.081 -3.744 -0.89499998 0.2
0.093000002 -3.7490001 -0.89700001 0.25
0.105 -3.747 -0.89600003 0.11
0.116 -3.743 -0.89499998 0.090000004
0.12800001 -3.7290001 -0.89099997 0.14
0.138 -3.701 -0.884 0.16
0.14300001 -3.6860001 -0.88 0.23
0.155 -3.681 -0.87900001 0.30000001
0.16599999 -3.6849999 -0.88 0.36000001
0.17900001 -3.7030001 -0.88499999 0.34999999
0.19 -3.6949999 -0.88300002 0.43000001
0.20200001 -3.7019999 -0.88499999 0.51999998
0.213 -3.688 -0.88099998 0.54000002
0.219 -3.688 -0.88099998 0.52999997
0.23 -3.687 -0.88099998 0.67000002
0.241 -3.677 -0.87900001 0.81999999
0.271 -3.9130001 -0.94300002 0.38999999
0.26499999 -3.6830001 -0.88099998 0.2
0.27599999 -3.678 -0.88 0.12
0.28099999 -3.664 -0.87599999 0.19
0.29300001 -3.6689999 -0.87800002 0.11
0.30399999 -3.668 -0.87800002 0.16
0.31400001 -3.642 -0.87099999 0.050000001
0.32600001 -3.6530001 -0.87400001 0.16
0.33700001 -3.6459999 -0.87199998 0.2
0.34900001 -3.654 -0.875 0.1
0.35600001 -3.665 -0.87800002 0.15000001
0.366 -3.6429999 -0.87199998 0.050000001
0.37900001 -3.655 -0.87599999 0.15000001
0.38999999 -3.652 -0.87599999 0.19
0.40200001 -3.661 -0.87800002 0.18000001
0.41800001 -3.6900001 -0.88700002 0.090000004
0.428 -3.675 -0.88300002 0.16
0.43000001 -3.648 -0.87599999 0.15000001
0.43700001 -3.6140001 -0.86699998 0.25
0.449 -3.618 -0.86799997 0.28
0.46200001 -3.628 -0.87099999 0.28999999
0.47600001 -3.642 -0.87599999 0.55000001
0.48899999 -3.6500001 -0.87800002 0.86000001
0.49399999 -3.6070001 -0.86699998 0.88999999
0.50099999 -3.6170001 -0.87 0.88999999
0.51099998 -3.6059999 -0.86699998 0.88999999
0.52399999 -3.6159999 -0.87 0.88
0.53399998 -3.605 -0.86799997 0.88999999
0.54400003 -3.592 -0.86500001 0.89999998
0.55699998 -3.599 -0.86699998 0.88999999
0.57099998 -3.6170001 -0.87199998 0.88
0.57599998 -3.6099999 -0.87099999 0.88999999
0.583 -3.5869999 -0.86500001 0.88999999
0.59500003 -3.5869999 -0.866 0.89999998
0.60799998 -3.5929999 -0.86799997 0.88999999
0.62099999 -3.6010001 -0.87 0.88999999
0.63200003 -3.6010001 -0.87099999 0.88
0.63800001 -3.6010001 -0.87099999 0.88999999
0.64899999 -3.596 -0.87 0.88999999
0.66100001 -3.5969999 -0.87099999 0.88999999
0.67299998 -3.6010001 -0.87300003 0.88
0.68699998 -3.612 -0.87699997 0.88
0.70099998 -3.6229999 -0.88 0.88999999
0.713 -3.6229999 -0.88099998 0.88
0.71700001 -3.612 -0.87800002 0.88999999
0.73199999 -3.6270001 -0.88300002 0.88
0.741 -3.6170001 -0.88099998 0.88
0.75599998 -3.628 -0.88499999 0.88
0.76899999 -3.6329999 -0.88700002 0.88
0.77899998 -3.6270001 -0.88599998 0.88
0.79100001 -3.6259999 -0.88599998 0.87
0.79400003 -3.6140001 -0.88300002 0.83999997
0.80500001 -3.609 -0.88200003 0.81999999
0.81800002 -3.612 -0.884 0.81
0.82800001 -3.6040001 -0.88200003 0.80000001
0.83899999 -3.5999999 -0.88200003 0.79000002
0.85100001 -3.6010001 -0.88300002 0.75999999
0.86199999 -3.6199999 -0.889 0.72000003
0.87099999 -3.608 -0.88599998 0.63999999
0.88200003 -3.6070001 -0.88700002 0.61000001
0.89600003 -3.6140001 -0.889 0.63
0.90899998 -3.618 -0.89099997 0.69999999
0.91799998 -3.6040001 -0.88800001 0.67000002
0.93000001 -3.605 -0.889 0.52999997
0.935 -3.5999999 -0.88800001 0.44
0.94599998 -3.5969999 -0.88800001 0.61000001
0.96200001 -3.6110001 -0.89300001 0.34
0.97299999 -3.6059999 -0.89200002 0.54000002
0.98000002 -3.5880001 -0.88800001 0.40000001
1 -3.615 -0.89700001 0.47999999
1.01 -3.608 -0.89600003 0.31
1.01 -3.5880001 -0.88999999 0.19
1.018 -3.573 -0.88700002 0.12
1.034 -3.585 -0.89099997 0.28999999
1.0470001 -3.5869999 -0.89300001 0.1
1.064 -3.602 -0.898 0.079999998
1.0700001 -3.5840001 -0.89399999 0.039999999
1.087 -3.5969999 -0.89899999 0.07
1.1 -3.6199999 -0.90600002 0.14
1.103 -3.5899999 -0.898 0
1.115 -3.589 -0.89899999 0
1.138 -3.6199999 -0.90899998 0
1.141 -3.5910001 -0.90100002 0
1.1619999 -3.6170001 -0.91000003 0
1.175 -3.6199999 -0.912 0
1.184 -3.6270001 -0.91399997 0
1.1900001 -3.6070001 -0.91000003 0
1.212 -3.635 -0.91900003 0.059999999
1.225 -3.6359999 -0.92000002 0.15000001
1.237 -3.6340001 -0.921 0.13
1.2589999 -3.6429999 -0.92500001 0.56
1.27 -3.6370001 -0.92400002 0.28
1.278 -3.6240001 -0.92199999 0.38999999
1.302 -3.6530001 -0.93099999 0.34
1.307 -3.632 -0.926 0.56999999
1.332 -3.664 -0.93699998 0.31999999
1.342 -3.6559999 -0.93599999 0.19
1.342 -3.638 -0.93099999 0
1.355 -3.6370001 -0.93199998 0
1.368 -3.6389999 -0.93400002 0
1.38 -3.6359999 -0.93400002 0
1.396 -3.6429999 -0.93699998 0
1.4069999 -3.638 -0.93699998 0
1.424 -3.6459999 -0.94099998 0
1.438 -3.665 -0.94700003 0
1.454 -3.6719999 -0.95099998 0
1.465 -3.665 -0.94999999 0
1.485 -3.6819999 -0.95599997 0
1.499 -3.6849999 -0.958 0
1.518 -3.6960001 -0.963 0
2.4860001 -5.9330001 -1.625 0.27000001
2.5020001 -5.9180002 -1.623 0.28
2.517 -5.9029999 -1.6210001 0.31
2.54 -5.9039998 -1.623 0.28999999
2.5580001 -5.8940001 -1.623 0.28
2.575 -5.8850002 -1.622 0.28
2.586 -5.8839998 -1.623 0.28999999
2.608 -5.8829999 -1.625 0.28999999
2.625 -5.8709998 -1.624 0.30000001
2.641 -5.8590002 -1.623 0.25
2.6630001 -5.8579998 -1.625 0.28
2.6800001 -5.8460002 -1.624 0.31999999
2.701 -5.8449998 -1.627 0.25999999
2.7060001 -5.8299999 -1.623 0.19
2.7260001 -5.8249998 -1.624 0.30000001
2.7420001 -5.8130002 -1.623 0.23999999
2.7609999 -5.8039999 -1.623 0.28
2.78 -5.7969999 -1.624 0.27000001
2.7969999 -5.7870002 -1.623 0.19
2.8199999 -5.7880001 -1.627 0.25999999
2.8280001 -5.7800002 -1.625 0.23999999
2.848 -5.7750001 -1.627 0.18000001
2.865 -5.7639999 -1.626 0.27000001
2.885 -5.7589998 -1.627 0.23
2.8970001 -5.7379999 -1.623 0.18000001
2.9230001 -5.7459998 -1.6289999 0.25999999
2.9400001 -5.7329998 -1.628 0.18000001
2.9519999 -5.7350001 -1.63 0.25
2.9719999 -5.7290001 -1.631 0.2
2.983 -5.7059999 -1.627 0
2.9820001 -5.6609998 -1.6160001 0
2.7049999 -5.1020002 -1.446 0
2.6159999 -4.6690001 -1.332 0
2.632 -4.6799998 -1.336 0
2.652 -4.6820002 -1.339 0
2.6099999 -4.5749998 -1.308 0
2.573 -4.4780002 -1.281 0
2.5910001 -4.4770002 -1.283 0
2.618 -4.4899998 -1.29 0
2.605 -4.4369998 -1.275 0.079999998
2.6070001 -4.4250002 -1.273 0.090000004
2.6159999 -4.4089999 -1.27 0.079999998
2.625 -4.3610001 -1.26 0.28999999
2.7550001 -4.5419998 -1.321 0
2.6370001 -4.3189998 -1.252 0
2.598 -4.2259998 -1.225 0
2.5940001 -4.2049999 -1.22 0
2.5969999 -4.1810002 -1.215 0
2.585 -4.1339998 -1.202 0
2.5769999 -4.0929999 -1.192 0
2.586 -4.0780001 -1.1900001 0
2.5969999 -4.0669999 -1.188 0
2.598 -4.0549998 -1.186 0
2.592 -4.0170002 -1.176 0
2.579 -3.9430001 -1.158 0
2.5929999 -3.938 -1.159 0
2.598 -3.9189999 -1.155 0
2.6059999 -3.904 -1.153 0
2.6070001 -3.892 -1.15 0
2.612 -3.8740001 -1.147 0
2.6210001 -3.8610001 -1.145 0
2.619 -3.8329999 -1.1390001 0
2.6340001 -3.829 -1.14 0
2.645 -3.819 -1.14 0
2.6530001 -3.7920001 -1.135 0
2.6589999 -3.776 -1.132 0
2.661 -3.7539999 -1.128 0
2.681 -3.756 -1.131 0
2.678 -3.7279999 -1.125 0
2.701 -3.7349999 -1.13 0
2.7079999 -3.72 -1.128 0
2.7060001 -3.7049999 -1.124 0
2.7179999 -3.6960001 -1.124 0
2.721 -3.677 -1.12 0
2.737 -3.675 -1.122 0
2.7460001 -3.6630001 -1.1210001 0
2.7650001 -3.664 -1.125 0
2.7690001 -3.6459999 -1.1210001 0
2.78 -3.6470001 -1.123 0
2.7950001 -3.6429999 -1.125 0
2.8039999 -3.631 -1.124 0
2.8150001 -3.6229999 -1.124 0
2.8369999 -3.6270001 -1.1289999 0
2.8440001 -3.612 -1.127 0
2.8529999 -3.612 -1.128 0
2.8659999 -3.605 -1.1289999 0
2.8870001 -3.608 -1.133 0
2.904 -3.6059999 -1.136 0
2.921 -3.6029999 -1.138 0
2.9330001 -3.595 -1.138 0
2.937 -3.589 -1.138 0
2.9619999 -3.596 -1.143 0
2.97 -3.5829999 -1.142 0
2.9909999 -3.585 -1.146 0
3.0050001 -3.579 -1.147 0
3.0250001 -3.579 -1.151 0
3.039 -3.573 -1.152 0
3.056 -3.5810001 -1.156 0
3.062 -3.566 -1.154 0
3.105 -3.592 -1.168 0
3.118 -3.586 -1.169 0.079999998
3.132 -3.579 -1.17 0.14
3.151 -3.5769999 -1.173 0.20999999
3.1819999 -3.589 -1.181 0.23
3.1719999 -3.5669999 -1.174 0.86000001
3.181 -3.5539999 -1.173 0.74000001
3.194 -3.5469999 -1.174 0.88
3.1900001 -3.52 -1.168 0.89999998
3.2219999 -3.5320001 -1.176 0.80000001
3.2119999 -3.5 -1.168 0.94999999
3.2490001 -3.5179999 -1.179 0.88999999
3.253 -3.5109999 -1.178 0.93000001
3.3050001 -3.5439999 -1.194 0.73000002
3.332 -3.5510001 -1.201 0.88
3.329 -3.5250001 -1.1950001 0.94999999
3.3510001 -3.526 -1.199 0.94999999
3.3759999 -3.53 -1.205 0.80000001
3.4119999 -3.5450001 -1.214 0.86000001
3.3940001 -3.516 -1.205 0.89999998
3.404 -3.5039999 -1.205 0.91000003
3.421 -3.4990001 -1.207 0.88
3.474 -3.53 -1.223 0.88
3.4890001 -3.523 -1.225 0.72000003
3.4990001 -3.5109999 -1.224 0.55000001
3.5209999 -3.5220001 -1.23 0.52999997
3.5339999 -3.5139999 -1.2309999 0.27000001
3.5409999 -3.4979999 -1.23 0.07
3.572 -3.506 -1.237 0
3.5780001 -3.4909999 -1.2359999 0
3.5999999 -3.49 -1.24 0
3.6099999 -3.4779999 -1.239 0
3.6289999 -3.4849999 -1.245 0
3.6500001 -3.483 -1.248 0
3.664 -3.474 -1.249 0
3.6789999 -3.467 -1.251 0
3.698 -3.4630001 -1.2539999 0
4.9619999 -4.4200001 -1.683 0.28999999
4.9699998 -4.414 -1.683 0.28
4.9920001 -4.4050002 -1.686 0.43000001
5.0159998 -4.3979998 -1.689 0.43000001
5.0370002 -4.388 -1.692 0.33000001
5.0500002 -4.3720002 -1.692 0.31999999
5.0640001 -4.3569999 -1.692 0.30000001
5.0780001 -4.3410001 -1.692 0.30000001
5.0900002 -4.3379998 -1.694 0.30000001
5.0949998 -4.3140001 -1.691 0.30000001
5.1040001 -4.2940001 -1.689 0.28999999
5.1339998 -4.2919998 -1.6950001 0.34999999
5.1360002 -4.2659998 -1.691 0.28999999
5.1399999 -4.2420001 -1.688 0.34
5.1680002 -4.2379999 -1.693 0.34
5.1729999 -4.2290001 -1.693 0.30000001
5.184 -4.21 -1.692 0.28
5.21 -4.2049999 -1.696 0.34999999
5.2150002 -4.1810002 -1.693 0.27000001
5.2280002 -4.165 -1.693 0.33000001
5.257 -4.1620002 -1.699 0.41
5.2589998 -4.1500001 -1.697 0.33000001
5.2690001 -4.131 -1.696 0.28
5.29 -4.1199999 -1.699 0.28999999
5.2880001 -4.092 -1.694 0.23999999
5.2969999 -4.073 -1.693 0.33000001
5.316 -4.0609999 -1.6950001 0.31999999
5.348 -4.0580001 -1.701 0.16
5.3060002 -4.0139999 -1.6849999 0.47999999
5.3429999 -4.0159998 -1.693 0.28999999
5.3509998 -3.9949999 -1.692 0.51999998
5.3610001 -3.9760001 -1.6900001 0.47999999
5.4060001 -3.983 -1.701 0.30000001
5.4219999 -3.9679999 -1.7029999 0.47999999
5.4289999 -3.948 -1.701 0.28999999
5.4510002 -3.951 -1.706 0.31999999
5.46 -3.931 -1.705 0.37
5.454 -3.901 -1.699 0.34999999
5.447 -3.8699999 -1.693 0.27000001
5.4499998 -3.8469999 -1.689 0.27000001
5.4400001 -3.8139999 -1.682 0.30000001
5.4450002 -3.7920001 -1.6799999 0.25
5.4590001 -3.789 -1.683 0.23
5.4949999 -3.789 -1.6900001 0.22
5.5339999 -3.79 -1.699 0.25
5.5630002 -3.7839999 -1.705 0.27000001
5.5689998 -3.7620001 -1.7029999 0.47999999
5.5999999 -3.7579999 -1.709 0.37
5.6040001 -3.7349999 -1.707 0.31999999
5.5949998 -3.7160001 -1.702 0.30000001
5.632 -3.7160001 -1.71 0.28999999
5.6409998 -3.6960001 -1.709 0.41
5.651 -3.677 -1.709 0.38
5.6659999 -3.661 -1.71 0.31
5.6750002 -3.6429999 -1.709 0.44
5.6700001 -3.6259999 -1.706 0.38
5.6960001 -3.618 -1.71 0.38999999
5.704 -3.598 -1.709 0.38
5.717 -3.5810001 -1.71 0.38999999
5.7309999 -3.5650001 -1.711 0.37
5.7519999 -3.553 -1.714 0.38
5.7620001 -3.5339999 -1.714 0.30000001
5.7670002 -3.5250001 -1.714 0.41
5.7779999 -3.507 -1.714 0.46000001
5.796 -3.493 -1.716 0.34999999
5.7989998 -3.4690001 -1.7130001 0.36000001
5.8099999 -3.451 -1.7130001 0.36000001
5.8070002 -3.425 -1.709 0.33000001
5.7930002 -3.392 -1.701 0.47
5.8179998 -3.395 -1.707 0.40000001
5.8520002 -3.3900001 -1.715 0.37
5.8629999 -3.372 -1.715 0.31
5.8730001 -3.3529999 -1.715 0.37
5.8839998 -3.335 -1.715 0.38999999
5.901 -3.3199999 -1.717 0.34999999
5.8979998 -3.2939999 -1.712 0.34999999
5.901 -3.2839999 -1.712 0.31999999
5.9099998 -3.2639999 -1.711 0.54000002
5.9289999 -3.25 -1.714 0.34999999
5.9460001 -3.2349999 -1.716 0.38
5.9390001 -3.207 -1.711 0.34
5.9450002 -3.187 -1.71 0.38
5.9569998 -3.181 -1.712 0.5
5.96 -3.1589999 -1.71 0.34
5.9650002 -3.138 -1.7079999 0.34
5.9679999 -3.115 -1.706 0.43000001
5.9689999 -3.092 -1.704 0.41
5.9689999 -3.0680001 -1.7 0.23999999
5.9580002 -3.039 -1.694 0.52999997
5.9559999 -3.026 -1.692 0.27000001
5.9699998 -3.01 -1.694 0.5
6.0209999 -3.0120001 -1.706 0.37
6.0079999 -2.9820001 -1.699 0.43000001
6.0240002 -2.9660001 -1.701 0.27000001
6.0250001 -2.9430001 -1.699 0.49000001
6.0500002 -2.9319999 -1.704 0.31999999
6.053 -2.921 -1.7029999 0.55000001
6.0949998 -2.918 -1.7130001 0.28
6.039 -2.868 -1.694 0.56999999
6.0710001 -2.8599999 -1.7 0.27000001
6.0539999 -2.829 -1.693 0.5
6.1069999 -2.8299999 -1.706 0.38
6.1279998 -2.816 -1.709 0.40000001
6.1360002 -2.8080001 -1.71 0.38
6.1529999 -2.793 -1.7130001 0.40000001
6.165 -2.7750001 -1.714 0.38
6.1719999 -2.7550001 -1.714 0.44
6.2340002 -2.7590001 -1.729 0.31999999
6.244 -2.74 -1.73 0.56
6.243 -2.7279999 -1.728 0.28
6.257 -2.71 -1.73 0.51999998
6.2659998 -2.691 -1.73 0.27000001
6.303 -2.6830001 -1.738 0.47999999
6.3429999 -2.677 -1.748 0.28999999
6.3930001 -2.674 -1.76 0.50999999
6.3740001 -2.6429999 -1.752 0.44
6.4180002 -2.6489999 -1.763 0.30000001
6.3920002 -2.615 -1.753 0.57999998
6.4109998 -2.599 -1.756 0.31
6.4330001 -2.5840001 -1.761 0.49000001
6.441 -2.5639999 -1.761 0.28999999
6.4530001 -2.5450001 -1.762 0.44999999
6.4970002 -2.539 -1.772 0.50999999
6.5100002 -2.5320001 -1.775 0.31999999
6.507 -2.5079999 -1.772 0.28999999
6.5040002 -2.483 -1.7690001 0.31
6.4990001 -2.4579999 -1.765 0.28999999
6.5100002 -2.4389999 -1.766 0.28
6.527 -2.4219999 -1.7690001 0.28
6.527 -2.4100001 -1.767 0.25999999
6.5219998 -2.385 -1.7640001 0.20999999
6.5349998 -2.3659999 -1.765 0.27000001
6.5349998 -2.3429999 -1.763 0.25
6.5240002 -2.316 -1.758 0.2
6.5479999 -2.302 -1.763 0.28
6.5500002 -2.279 -1.761 0.23999999
6.5300002 -2.2609999 -1.7539999 0.17
6.5710001 -2.2520001 -1.7640001 0.28
6.5780001 -2.2309999 -1.7640001 0.25
6.5689998 -2.2049999 -1.76 0.2
6.585 -2.188 -1.762 0.25
6.5879998 -2.1659999 -1.761 0.2
6.586 -2.142 -1.7589999 0.12
6.5869999 -2.131 -1.758 0.2
6.5939999 -2.1099999 -1.758 0.11
6.5890002 -2.086 -1.755 0.18000001
6.6090002 -2.069 -1.7589999 0.23
6.5929999 -2.0420001 -1.752 0.17
6.6090002 -2.0239999 -1.755 0.23
6.6100001 -2.0020001 -1.753 0.18000001
6.6110001 -1.9910001 -1.753 0.23
6.6170001 -1.97 -1.753 0.19
6.6209998 -1.949 -1.752 0.22
6.6269999 -1.928 -1.752 0.1
6.6129999 -1.901 -1.747 0.18000001
6.6389999 -1.886 -1.752 0.2
6.6469998 -1.8660001 -1.753 0.1
6.645 -1.854 -1.751 0.17
6.645 -1.831 -1.75 0.050000001
6.632 -1.8049999 -1.744 0.17
6.6560001 -1.789 -1.75 0.2
6.658 -1.768 -1.749 0.1
6.671 -1.749 -1.751 0.19
6.6680002 -1.737 -1.749 0.11
6.6719999 -1.715 -1.749 0.17
6.6680002 -1.692 -1.7460001 0.050000001
6.664 -1.669 -1.743 0.17
6.6820002 -1.651 -1.747 0.18000001
6.6719999 -1.626 -1.743 0.1
6.6659999 -1.603 -1.74 0.18000001
6.6760001 -1.594 -1.742 0.050000001
6.6700001 -1.5700001 -1.739 0.16
6.6900001 -1.553 -1.743 0.18000001
6.691 -1.531 -1.742 0.17
6.6859999 -1.508 -1.739 0.17
6.6810002 -1.485 -1.737 0.039999999
6.697 -1.466 -1.74 0.07
6.6960001 -1.455 -1.739 0.16
6.7080002 -1.4349999 -1.7410001 0.16
6.7199998 -1.416 -1.743 0.18000001
6.7090001 -1.392 -1.739 0.17
6.7080002 -1.37 -1.737 0.16
6.7160001 -1.349 -1.738 0.16
6.7199998 -1.339 -1.739 0.16
6.7220001 -1.318 -1.738 0.17
6.7220001 -1.296 -1.737 0.039999999
6.7259998 -1.275 -1.737 0.16
6.7290001 -1.253 -1.737 0.19
6.7270002 -1.2309999 -1.735 0.039999999
6.7270002 -1.209 -1.734 0.15000001
6.744 -1.201 -1.738 0.18000001
6.75 -1.1799999 -1.739 0.18000001
6.7379999 -1.1569999 -1.734 0.18000001
6.7420001 -1.135 -1.734 0.17
6.7509999 -1.115 -1.7359999 0.16
6.7470002 -1.0930001 -1.734 0.039999999
6.7420001 -1.0700001 -1.732 0.16
6.7480001 -1.0599999 -1.733 0.050000001
6.7399998 -1.0369999 -1.73 0.17
6.7470002 -1.017 -1.7309999 0.19
6.756 -0.99599999 -1.732 0.18000001
6.757 -0.97500002 -1.732 0.18000001
6.7600002 -0.954 -1.732 0.090000004
6.763 -0.93199998 -1.732 0.090000004
6.757 -0.921 -1.73 0.079999998
6.7579999 -0.89899999 -1.729 0.090000004
6.7680001 -0.87900001 -1.7309999 0.079999998
6.777 -0.85799998 -1.733 0.079999998
6.7639999 -0.83499998 -1.729 0.079999998
6.7800002 -0.81599998 -1.732 0.090000004
6.7789998 -0.80500001 -1.732 0.090000004
6.7740002 -0.78299999 -1.73 0.090000004
6.79 -0.76300001 -1.733 0.079999998
6.7849998 -0.741 -1.7309999 0.090000004
6.7870002 -0.71899998 -1.7309999 0.090000004
6.789 -0.69800001 -1.7309999 0.090000004
6.7909999 -0.67699999 -1.7309999 0.079999998
6.7919998 -0.66600001 -1.7309999 0.090000004
6.796 -0.64499998 -1.732 0.079999998
6.7909999 -0.62300003 -1.73 0.079999998
6.7870002 -0.60100001 -1.728 0.039999999
6.7940001 -0.57999998 -1.73 0.079999998
6.7789998 -0.55699998 -1.725 0.039999999
6.7919998 -0.537 -1.728 0.07
6.7810001 -0.52600002 -1.725 0.039999999
6.7870002 -0.50400001 -1.726 0.07
6.7789998 -0.48199999 -1.723 0.039999999
6.803 -0.463 -1.73 0.07
6.7909999 -0.44 -1.726 0.079999998
6.7969999 -0.419 -1.727 0.16
6.7820001 -0.39700001 -1.723 0.039999999
6.7930002 -0.38699999 -1.726 0.07
6.7979999 -0.366 -1.727 0.079999998
6.803 -0.345 -1.728 0.079999998
6.8080001 -0.32300001 -1.729 0.079999998
6.7950001 -0.30199999 -1.725 0.079999998
6.802 -0.28 -1.727 0.079999998
6.7810001 -0.26899999 -1.721 0.039999999
6.7989998 -0.248 -1.726 0.079999998
6.796 -0.227 -1.725 0.079999998
6.7849998 -0.205 -1.721 0.039999999
6.7859998 -0.184 -1.721 0.07
6.79 -0.163 -1.722 0.039999999
6.7979999 -0.141 -1.725 0.07
6.7909999 -0.131 -1.722 0.039999999
6.8010001 -0.109 -1.725 0.07
6.7859998 -0.088 -1.721 0.039999999
6.79 -0.067000002 -1.722 0.07
6.8000002 -0.045000002 -1.725 0.079999998
6.7940001 -0.024 -1.723 0.16
6.8039999 -0.0020000001 -1.726 0.16
6.5380001 0.017999999 -1.711 0.039999999
6.552 0.039000001 -1.715 0.07
6.54 0.048999999 -1.712 0.039999999
6.5549998 0.07 -1.716 0.07
6.54 0.090000004 -1.712 0.039999999
6.5489998 0.111 -1.715 0.079999998
6.5310001 0.131 -1.71 0.039999999
6.5479999 0.152 -1.715 0.079999998
6.5380001 0.17200001 -1.712 0.039999999
6.5510001 0.183 -1.716 0.07
6.5430002 0.20299999 -1.7130001 0.15000001
6.5419998 0.22400001 -1.7130001 0.039999999
6.5380001 0.244 -1.712 0.07
6.533 0.26499999 -1.711 0.039999999
6.5359998 0.285 -1.712 0
6.5349998 0.30599999 -1.712 0
6.527 0.31600001 -1.71 0
6.5320001 0.33700001 -1.712 0
6.5289998 0.35699999 -1.711 0
6.5310001 0.37799999 -1.712 0.059999999
6.5339999 0.39899999 -1.7130001 0.039999999
6.5250001 0.419 -1.711 0.039999999
6.5419998 0.43000001 -1.716 0.07
6.5229998 0.449 -1.711 0.039999999
6.5409999 0.47099999 -1.717 0.07
6.5240002 0.491 -1.712 0.039999999
6.5380001 0.51200002 -1.717 0.07
6.5300002 0.53200001 -1.715 0.039999999
6.527 0.55299997 -1.715 0.079999998
6.5180001 0.56199998 -1.712 0.039999999
6.5320001 0.58399999 -1.717 0.07
6.526 0.60399997 -1.716 0.039999999
6.5159998 0.62400001 -1.7130001 0.039999999
6.5310001 0.64600003 -1.7180001 0.07
6.5100002 0.66500002 -1.7130001 0.039999999
6.5159998 0.68599999 -1.715 0.039999999
6.5170002 0.69599998 -1.716 0.039999999
6.5089998 0.71600002 -1.714 0.039999999
6.506 0.73699999 -1.714 0.039999999
6.5120001 0.75800002 -1.716 0.039999999
6.5040002 0.778 -1.715 0.039999999
6.5159998 0.80000001 -1.719 0.07
6.5100002 0.81999999 -1.7180001 0.039999999
6.526 0.83200002 -1.723 0.07
6.5019999 0.85000002 -1.717 0.039999999
6.4920001 0.87 -1.715 0.039999999
6.493 0.89099997 -1.716 0.029999999
6.4920001 0.91100001 -1.716 0.039999999
6.4949999 0.93199998 -1.7180001 0.039999999
6.5050001 0.95499998 -1.722 0.07
6.5040002 0.96499997 -1.722 0.079999998
6.4970002 0.98500001 -1.72 0.079999998
6.4840002 1.0039999 -1.7180001 0.039999999
6.4790001 1.024 -1.717 0
6.4829998 1.045 -1.719 0.059999999
6.4819999 1.066 -1.72 0.079999998
6.4749999 1.075 -1.7180001 0.039999999
6.4749999 1.096 -1.719 0.07
6.4720001 1.117 -1.719 0.079999998
6.4590001 1.135 -1.717 0.039999999
6.4640002 1.1569999 -1.719 0.07
6.4460001 1.175 -1.715 0.039999999
6.4629998 1.199 -1.721 0.07
6.4419999 1.206 -1.716 0.039999999
6.4489999 1.228 -1.719 0.07
6.4439998 1.248 -1.7180001 0.039999999
6.447 1.27 -1.72 0.07
6.4359999 1.288 -1.7180001 0.039999999
6.4369998 1.3099999 -1.72 0.07
6.4200001 1.327 -1.716 0.039999999
6.4289999 1.34 -1.719 0.07
6.421 1.359 -1.7180001 0.039999999
6.4239998 1.381 -1.72 0.07
6.4029999 1.397 -1.716 0.039999999
6.4190001 1.4220001 -1.722 0.079999998
6.4050002 1.4400001 -1.719 0.15000001
6.4050002 1.461 -1.72 0.16
6.4060001 1.472 -1.721 0.16
6.3860002 1.489 -1.717 0.039999999
6.3850002 1.5089999 -1.7180001 0.079999998
6.3790002 1.529 -1.717 0.039999999
6.3829999 1.551 -1.72 0.079999998
6.3709998 1.5700001 -1.7180001 0.079999998
6.3769999 1.592 -1.721 0.079999998
6.3779998 1.603 -1.722 0.079999998
6.3709998 1.623 -1.722 0.079999998
6.3720002 1.6440001 -1.723 0.090000004
6.3649998 1.664 -1.723 0.079999998
6.3600001 1.684 -1.723 0.079999998
6.3559999 1.704 -1.723 0.090000004
6.3530002 1.714 -1.723 0.079999998
6.3540001 1.7359999 -1.725 0.079999998
6.3410001 1.7539999 -1.723 0.079999998
6.3439999 1.776 -1.725 0.079999998
6.3309999 1.794 -1.723 0.079999998
6.3369999 1.817 -1.726 0.079999998
6.3309999 1.837 -1.726 0.079999998
6.3189998 1.844 -1.724 0.079999998
6.3210001 1.8660001 -1.726 0.079999998
6.3130002 1.885 -1.725 0.079999998
6.3119998 1.9069999 -1.727 0.079999998
6.3010001 1.925 -1.725 0.079999998
6.2979999 1.946 -1.726 0.079999998
6.296 1.967 -1.727 0.079999998
6.2800002 1.973 -1.724 0.039999999
6.289 1.997 -1.728 0.079999998
6.2859998 2.0179999 -1.729 0.079999998
6.27 2.0350001 -1.726 0.079999998
6.2709999 2.0569999 -1.729 0.090000004
6.2649999 2.0769999 -1.729 0.079999998
6.2670002 2.099 -1.7309999 0.079999998
6.2620001 2.109 -1.7309999 0.079999998
6.25 2.1259999 -1.729 0.039999999
6.2509999 2.148 -1.7309999 0.16
6.244 2.168 -1.7309999 0.18000001
6.244 2.1900001 -1.733 0.17
6.237 2.21 -1.733 0.18000001
6.2340002 2.22 -1.733 0.18000001
6.2249999 2.2390001 -1.733 0.18000001
6.2160001 2.257 -1.732 0.17
6.2160001 2.28 -1.734 0.17
6.1960001 2.2939999 -1.7309999 0.039999999
6.2069998 2.3210001 -1.7359999 0.18000001
6.1869998 2.335 -1.732 0.050000001
6.1890001 2.3469999 -1.734 0.17
6.1820002 2.3670001 -1.734 0.19
6.1890001 2.391 -1.738 0.16
6.1830001 2.4119999 -1.739 0.17
6.1680002 2.428 -1.737 0.17
6.164 2.4489999 -1.738 0.17
6.158 2.4579999 -1.737 0.18000001
6.151 2.477 -1.737 0.17
6.1479998 2.4990001 -1.739 0.17
6.1399999 2.5179999 -1.739 0.17
6.1290002 2.536 -1.738 0.17
6.1259999 2.5569999 -1.739 0.18000001
6.118 2.5769999 -1.739 0.17
6.1160002 2.5869999 -1.74 0.17
6.1170001 2.6099999 -1.743 0.17
6.1009998 2.6259999 -1.74 0.17
6.0929999 2.645 -1.74 0.17
6.0900002 2.6670001 -1.742 0.16
6.0760002 2.6830001 -1.74 0.16
6.073 2.7049999 -1.742 0.17
6.0739999 2.717 -1.744 0.16
6.0599999 2.733 -1.742 0.17
6.059 2.756 -1.744 0.16
6.046 2.773 -1.743 0.16
6.0450001 2.7950001 -1.745 0.17
6.0359998 2.8139999 -1.745 0.16
6.0229998 2.8310001 -1.744 0.17
6.0190001 2.8410001 -1.744 0.17
6.0139999 2.8610001 -1.745 0.17
6.0029998 2.8800001 -1.745 0.18000001
6.006 2.904 -1.749 0.16
5.9850001 2.9170001 -1.745 0.039999999
5.9840002 2.9400001 -1.747 0.16
5.9749999 2.9590001 -1.747 0.18000001
5.9720001 2.9690001 -1.748 0.17
5.9629998 2.9879999 -1.748 0.18000001
5.9569998 3.0079999 -1.749 0.090000004
5.9499998 3.029 -1.75 0.090000004
5.9390001 3.0469999 -1.75 0.090000004
5.928 3.0639999 -1.749 0.2
5.9299998 3.0769999 -1.751 0.19
5.9169998 3.0940001 -1.75 0.039999999
5.9099998 3.1140001 -1.751 0.17
5.9039998 3.135 -1.752 0.18000001
5.8930001 3.152 -1.752 0.090000004
5.881 3.1700001 -1.751 0.18000001
5.8759999 3.191 -1.753 0.2
5.8779998 3.204 -1.755 0.090000004
5.8639998 3.221 -1.7539999 0.18000001
5.8610001 3.243 -1.756 0.2
5.8439999 3.257 -1.7539999 0.1
5.8499999 3.2850001 -1.7589999 0.18000001
5.8400002 3.3039999 -1.7589999 0.12
5.8299999 3.322 -1.7589999 0.18000001
5.8189998 3.3280001 -1.758 0.22
5.816 3.3499999 -1.76 0.18000001
5.7969999 3.3640001 -1.757 0.23
5.8039999 3.3929999 -1.763 0.2
5.7789998 3.402 -1.758 0.23
5.7859998 3.431 -1.7640001 0.18000001
5.7690001 3.4449999 -1.762 0.23
5.7649999 3.4549999 -1.763 0.18000001
5.744 3.467 -1.7589999 0.23
5.7529998 3.497 -1.766 0.19
5.7319999 3.5090001 -1.763 0.23
5.723 3.5280001 -1.763 0.18000001
5.7199998 3.5510001 -1.766 0.23999999
5.7090001 3.569 -1.766 0.22
5.7020001 3.5769999 -1.765 0.18000001
5.6999998 3.6010001 -1.768 0.25999999
5.6939998 3.622 -1.77 0.22
5.6739998 3.635 -1.767 0.18000001
5.664 3.654 -1.768 0.25999999
5.651 3.671 -1.767 0.23999999
5.6479998 3.6930001 -1.77 0.18000001
5.652 3.7090001 -1.773 0.25999999
5.638 3.7249999 -1.773 0.23
5.638 3.75 -1.777 0.16
5.6240001 3.767 -1.776 0.28999999
5.6129999 3.7850001 -1.776 0.23
5.612 3.8099999 -1.78 0.27000001
5.612 3.823 -1.7819999 0.25
5.6069999 3.845 -1.784 0.1
5.598 3.865 -1.785 0.2
5.5929999 3.888 -1.788 0.27000001
5.5890002 3.911 -1.791 0.25
5.5830002 3.9330001 -1.793 0.28
5.5749998 3.954 -1.794 0.28999999
5.5739999 3.9660001 -1.796 0.30000001
5.5580001 3.9809999 -1.795 0.28
5.5500002 4.0019999 -1.7970001 0.28999999
5.5440001 4.0240002 -1.799 0.30000001
5.5300002 4.04 -1.798 0.30000001
5.5279999 4.0650001 -1.802 0.34
5.5139999 4.0679998 -1.799 0.27000001
5.5120001 4.0939999 -1.803 0.34999999
5.5019999 4.1129999 -1.804 0.31
5.4920001 4.1329999 -1.8049999 0.31
5.4780002 4.1490002 -1.8049999 0.25
5.4660001 4.1669998 -1.8049999 0.25
5.401 4.145 -1.7869999 0.44999999
5.4390001 4.1869998 -1.802 0.41
5.4260001 4.204 -1.802 0.41
5.4029999 4.2140002 -1.799 0.34999999
5.3699999 4.2160001 -1.7920001 0.23
5.3520002 4.2290001 -1.791 0.38
5.329 4.237 -1.7869999 0.31999999
5.3049998 4.2459998 -1.783 0.30000001
5.29 4.2480001 -1.78 0.28999999
5.277 4.2649999 -1.78 0.30000001
5.2670002 4.2839999 -1.781 0.28999999
5.2550001 4.3010001 -1.7819999 0.31
5.2350001 4.3130002 -1.78 0.31999999
5.2259998 4.3330002 -1.781 0.28999999
5.2049999 4.3429999 -1.779 0.30000001
5.204 4.3559999 -1.781 0.31999999
5.1869998 4.3699999 -1.78 0.30000001
5.1799998 4.3909998 -1.7819999 0.30000001
5.158 4.401 -1.779 0.27000001
5.145 4.4180002 -1.779 0.27000001
5.1409998 4.4429998 -1.783 0.34999999
5.1240001 4.4559999 -1.7819999 0.31999999
5.1199999 4.467 -1.783 0.31
5.1009998 4.4790001 -1.781 0.30000001
5.0840001 4.4920001 -1.78 0.28999999
5.0749998 4.5120001 -1.7819999 0.31
5.066 4.533 -1.784 0.30000001
5.052 4.5489998 -1.784 0.30000001
5.0380001 4.5650001 -1.784 0.28
5.0419998 4.5830002 -1.788 0.36000001
5.02 4.5929999 -1.786 0.28999999
4.9990001 4.6020002 -1.783 0.23
4.9899998 4.6230001 -1.785 0.38999999
4.9749999 4.638 -1.785 0.31999999
4.9619999 4.6550002 -1.786 0.28999999
4.954 4.6620002 -1.785 0.31
4.9390001 4.677 -1.785 0.30000001
4.927 4.6950002 -1.786 0.31999999
4.9109998 4.71 -1.786 0.30000001
4.8930001 4.7220001 -1.785 0.28999999
4.8709998 4.7309999 -1.7819999 0.31
4.8699999 4.7600002 -1.7869999 0.34999999
4.8530002 4.7579999 -1.784 0.28999999
4.8340001 4.7690001 -1.7819999 0.25999999
4.8249998 4.79 -1.784 0.31999999
4.8109999 4.8060002 -1.785 0.31999999
4.7919998 4.8169999 -1.783 0.34
4.783 4.8390002 -1.786 0.34
4.7600002 4.8460002 -1.783 0.30000001
4.7579999 4.8590002 -1.785 0.31
4.7490001 4.881 -1.7869999 0.28999999
4.7270002 4.8889999 -1.785 0.30000001
4.7129998 4.9050002 -1.785 0.27000001
4.6989999 4.921 -1.786 0.31
4.6859999 4.9380002 -1.7869999 0.33000001
4.665 4.948 -1.785 0.28
4.671 4.9689999 -1.79 0.36000001
4.6420002 4.9689999 -1.785 0.30000001
4.6329999 4.9910002 -1.7869999 0.34
4.605 4.993 -1.783 0.30000001
4.6009998 5.02 -1.7869999 0.37
4.5760002 5.0250001 -1.784 0.25999999
4.533 5.0089998 -1.772 0.33000001
4.5349998 5.026 -1.776 0.38
4.5409999 5.0650001 -1.785 0.23
4.5240002 5.0770001 -1.785 0.44
4.5040002 5.0869999 -1.783 0.25
4.493 5.1069999 -1.785 0.34999999
4.4790001 5.1240001 -1.786 0.34999999
4.454 5.1279998 -1.783 0.33000001
4.4580002 5.1479998 -1.7869999 0.36000001
4.4349999 5.1550002 -1.785 0.31999999
4.4239998 5.1750002 -1.7869999 0.30000001
4.4039998 5.184 -1.785 0.34999999
4.3850002 5.1950002 -1.784 0.28999999
4.3629999 5.2010002 -1.781 0.28
4.362 5.217 -1.785 0.31
4.3470001 5.2319999 -1.785 0.31
4.3239999 5.2379999 -1.783 0.37
4.3039999 5.2480001 -1.781 0.36000001
4.2909999 5.2659998 -1.783 0.28999999
4.2719998 5.276 -1.781 0.56999999
4.2639999 5.3000002 -1.785 0.30000001
4.256 5.3070002 -1.785 0.33000001
4.244 5.3260002 -1.7869999 0.36000001
4.2259998 5.3379998 -1.7869999 0.33000001
4.2080002 5.349 -1.786 0.31999999
4.1950002 5.3670001 -1.788 0.33000001
4.1729999 5.3740001 -1.786 0.23
4.1550002 5.3860002 -1.785 0.38999999
4.1490002 5.395 -1.786 0.33000001
4.1329999 5.4099998 -1.7869999 0.36000001
4.1149998 5.421 -1.786 0.34
4.105 5.4429998 -1.79 0.31999999
4.086 5.4549999 -1.789 0.37
4.0749998 5.4749999 -1.7920001 0.34999999
3.573 4.8379998 -1.564 0.20999999
3.5510001 4.823 -1.557 0.28
3.5469999 4.8499999 -1.563 0.43000001
3.6070001 4.9640002 -1.598 0.14
3.911 5.414 -1.751 0.47999999
