# .PCD v0.7 - Point Cloud Data file format
VERSION 0.7
FIELDS x y z intensity
SIZE 4 4 4 4
TYPE F F F F
COUNT 1 1 1 1
WIDTH 1353
HEIGHT 1
VIEWPOINT 0 0 0 1 0 0 0
POINTS 1353
DATA ascii
5.5949998 5.5890002 -0.148 0.28999999
5.6030002 5.632 -0.15000001 0.25999999
5.5970001 5.6609998 -0.15000001 0.18000001
5.5929999 5.6919999 -0.15099999 0.44
5.599 5.7340002 -0.153 0.18000001
10.805 11.136 -0.48699999 0.36000001
10.774 11.175 -0.48699999 0.47999999
10.757 11.227 -0.48800001 0.38
10.709 11.248 -0.48699999 0.60000002
10.692 11.3 -0.48800001 0.34
10.681 11.36 -0.49000001 0.52999997
10.715 11.468 -0.49399999 0.56
10.659 11.444 -0.49200001 0.28
10.598 11.451 -0.49000001 0.27000001
10.526 11.444 -0.48800001 0.27000001
10.449 11.433 -0.48500001 0.23
10.396 11.447 -0.484 0.37
10.334 11.451 -0.48199999 0.27000001
10.271 11.454 -0.48100001 0.27000001
10.221 11.434 -0.479 0.28
10.156 11.434 -0.477 0.27000001
10.1 11.443 -0.47499999 0.25
10.027 11.433 -0.47299999 0.23999999
9.9569998 11.425 -0.47 0.14
9.4650002 10.931 -0.44 0.33000001
9.3990002 10.925 -0.43700001 0.44999999
9.3690004 10.924 -0.43700001 0.34
9.2919998 10.904 -0.43399999 0.47999999
9.2329998 10.904 -0.43200001 0.37
9.1879997 10.921 -0.43099999 0.56999999
9.1440001 10.937 -0.43000001 0.34999999
9.0620003 10.909 -0.42699999 0.44999999
9.0039997 10.908 -0.426 0.44
8.9530001 10.882 -0.42300001 0.49000001
8.8920002 10.878 -0.421 0.40000001
8.835 10.878 -0.41999999 0.54000002
8.7910004 10.893 -0.419 0.36000001
8.7410002 10.901 -0.41800001 0.46000001
8.6929998 10.911 -0.417 0.51999998
8.6420002 10.918 -0.41600001 0.41
8.6079998 10.909 -0.414 0.36000001
8.5410004 10.896 -0.412 0.5
8.493 10.905 -0.41100001 0.36000001
8.4350004 10.9 -0.40900001 0.5
8.3839998 10.906 -0.40799999 0.40000001
8.3260002 10.901 -0.40599999 0.47999999
8.2989998 10.901 -0.40599999 0.36000001
8.243 10.898 -0.40400001 0.46000001
8.1870003 10.895 -0.403 0.34999999
8.1230001 10.881 -0.40000001 0.5
8.0740004 10.887 -0.39899999 0.36000001
8.0200005 10.885 -0.398 0.52999997
7.973 10.893 -0.39700001 0.36000001
7.9460001 10.892 -0.396 0.41
7.8920002 10.89 -0.39500001 0.51999998
7.8330002 10.881 -0.39300001 0.37
7.777 10.874 -0.391 0.41999999
7.7210002 10.869 -0.389 0.51999998
7.6680002 10.866 -0.38800001 0.46000001
7.6139998 10.862 -0.38600001 0.31
7.5830002 10.855 -0.38499999 0.41999999
7.5240002 10.842 -0.38299999 0.57999998
7.493 10.871 -0.384 0.38999999
7.4510002 10.883 -0.38299999 0.66000003
7.4089999 10.895 -0.382 0.33000001
7.349 10.88 -0.38 0.57999998
7.3080001 10.893 -0.38 0.38
7.27 10.873 -0.37799999 0.5
7.2249999 10.881 -0.377 0.38999999
7.1810002 10.888 -0.377 0.47
7.138 10.897 -0.37599999 0.37
7.079 10.881 -0.37400001 0.52999997
7.026 10.875 -0.37200001 0.37
6.98 10.879 -0.37099999 0.41
6.9489999 10.868 -0.37 0.41
6.902 10.869 -0.36899999 0.61000001
6.855 10.871 -0.368 0.34
6.8010001 10.862 -0.366 0.52999997
6.7610002 10.873 -0.366 0.37
6.7140002 10.874 -0.36500001 0.52999997
6.6719999 10.881 -0.36399999 0.37
6.6370001 10.863 -0.36300001 0.44999999
6.592 10.866 -0.36199999 0.37
6.5450001 10.865 -0.361 0.46000001
6.5040002 10.875 -0.36000001 0.36000001
6.4499998 10.861 -0.35800001 0.47
6.4109998 10.874 -0.35800001 0.40000001
6.3649998 10.874 -0.35699999 0.41
6.3400002 10.87 -0.35600001 0.44999999
6.2940001 10.869 -0.35499999 0.44999999
6.2480001 10.87 -0.354 0.41
6.197 10.86 -0.35299999 0.51999998
6.1550002 10.865 -0.352 0.38
6.105 10.857 -0.34999999 0.47999999
6.0700002 10.874 -0.34999999 0.38999999
6.0409999 10.863 -0.34900001 0.43000001
5.9980001 10.864 -0.34799999 0.44
5.9580002 10.873 -0.34799999 0.41
5.9380002 10.918 -0.34900001 0.55000001
5.9320002 10.989 -0.352 0.34
5.901 11.014 -0.352 0.46000001
5.8600001 11.021 -0.352 0.41999999
5.8330002 11.012 -0.35100001 0.46000001
5.7919998 11.018 -0.34999999 0.44
5.7490001 11.02 -0.34900001 0.41999999
5.704 11.019 -0.34799999 0.5
5.6560001 11.01 -0.347 0.44999999
5.6069999 10.999 -0.34599999 0.49000001
5.5570002 10.987 -0.34400001 0.41
5.539 10.993 -0.34400001 0.38
5.494 10.991 -0.34299999 0.41999999
5.4510002 10.99 -0.34200001 0.55000001
5.4130001 11 -0.34200001 0.36000001
5.3670001 10.994 -0.34099999 0.46000001
5.3249998 10.996 -0.34 0.38
5.296 10.98 -0.33899999 0.52999997
5.263 11 -0.33899999 0.38
5.217 10.993 -0.338 0.54000002
5.1719999 10.988 -0.33700001 0.33000001
5.1279998 10.984 -0.336 0.44999999
5.086 10.984 -0.33500001 0.43000001
5.0479999 10.99 -0.33399999 0.38
5.0190001 10.975 -0.333 0.50999999
4.9840002 10.989 -0.333 0.38
4.9450002 10.993 -0.333 0.56
4.908 11.005 -0.33199999 0.34999999
4.8610001 10.991 -0.331 0.47999999
4.8210001 10.996 -0.33000001 0.38999999
4.783 11.002 -0.33000001 0.49000001
4.757 10.989 -0.329 0.49000001
4.7160001 10.989 -0.32800001 0.52999997
4.6750002 10.989 -0.32800001 0.50999999
4.6300001 10.98 -0.32600001 0.44
4.5929999 10.987 -0.32600001 0.5
4.5500002 10.981 -0.32499999 0.41
4.5040002 10.968 -0.324 0.47999999
4.487 10.975 -0.324 0.38999999
4.441 10.961 -0.322 0.54000002
4.4039998 10.969 -0.322 0.34999999
4.3670001 10.978 -0.322 0.41
4.3280001 10.978 -0.32100001 0.43000001
4.2880001 10.979 -0.32100001 0.57999998
4.2509999 10.987 -0.31999999 0.38999999
4.223 10.963 -0.31900001 0.46000001
4.1869998 10.973 -0.31900001 0.36000001
4.1479998 10.975 -0.31799999 0.41
4.1079998 10.975 -0.31799999 0.50999999
4.0689998 10.974 -0.317 0.41
4.0310001 10.978 -0.317 0.34999999
3.9890001 10.97 -0.31600001 0.47999999
3.9719999 10.976 -0.31600001 0.38999999
3.928 10.962 -0.31400001 0.51999998
3.8940001 10.976 -0.31400001 0.36000001
3.8499999 10.96 -0.31299999 0.47
3.806 10.948 -0.31200001 0.36000001
3.7690001 10.95 -0.31099999 0.43000001
3.7320001 10.956 -0.31099999 0.41
3.7119999 10.953 -0.31099999 0.47999999
3.675 10.957 -0.31 0.34
3.6329999 10.946 -0.30899999 0.51999998
3.602 10.966 -0.31 0.31999999
3.5610001 10.959 -0.30899999 0.49000001
3.52 10.949 -0.308 0.38
3.4809999 10.947 -0.30700001 0.52999997
3.461 10.942 -0.30700001 0.38999999
3.4200001 10.932 -0.30599999 0.57999998
3.381 10.93 -0.30500001 0.38999999
3.3410001 10.921 -0.30399999 0.47
3.309 10.939 -0.30500001 0.40000001
3.27 10.932 -0.30399999 0.49000001
3.2309999 10.929 -0.303 0.36000001
3.2160001 10.94 -0.30399999 0.44999999
3.1819999 10.954 -0.30399999 0.43000001
3.1459999 10.956 -0.303 0.51999998
3.105 10.945 -0.30199999 0.41999999
3.0610001 10.918 -0.301 0.5
2.973 10.737 -0.292 0.18000001
2.9430001 10.76 -0.29300001 0.70999998
2.9389999 10.945 -0.30000001 0.44999999
2.8959999 10.923 -0.29899999 0.44999999
2.8610001 10.931 -0.29899999 0.38999999
2.823 10.926 -0.29800001 0.51999998
2.7909999 10.941 -0.29899999 0.34999999
2.7490001 10.92 -0.29699999 0.51999998
2.7349999 10.936 -0.29800001 0.33000001
2.6919999 10.914 -0.296 0.47
2.661 10.934 -0.29699999 0.34999999
2.6259999 10.94 -0.29699999 0.44999999
2.5940001 10.956 -0.29699999 0.36000001
2.553 10.939 -0.296 0.55000001
2.5179999 10.941 -0.296 0.34
2.494 10.916 -0.294 0.5
2.4619999 10.933 -0.29499999 0.31999999
2.4230001 10.922 -0.294 0.55000001
2.388 10.929 -0.294 0.34
2.352 10.925 -0.29300001 0.47999999
2.3139999 10.917 -0.29300001 0.41
2.28 10.924 -0.29300001 0.41999999
2.2620001 10.927 -0.29300001 0.36000001
2.2249999 10.919 -0.292 0.51999998
2.191 10.926 -0.292 0.34
2.152 10.913 -0.29100001 0.61000001
2.1159999 10.91 -0.29100001 0.34999999
2.0840001 10.926 -0.29100001 0.31999999
2.046 10.913 -0.28999999 0.51999998
2.0309999 10.932 -0.29100001 0.30000001
1.993 10.919 -0.28999999 0.55000001
1.9579999 10.921 -0.28999999 0.31999999
1.921 10.907 -0.289 0.61000001
1.887 10.915 -0.289 0.34
1.849 10.901 -0.28799999 0.55000001
1.816 10.913 -0.28799999 0.31999999
1.796 10.902 -0.28799999 0.46000001
1.762 10.908 -0.28799999 0.43000001
1.728 10.915 -0.28799999 0.34999999
1.691 10.905 -0.287 0.50999999
1.66 10.928 -0.28799999 0.38999999
1.622 10.913 -0.287 0.44999999
1.5880001 10.914 -0.287 0.41
1.567 10.895 -0.28600001 0.41999999
1.533 10.9 -0.28600001 0.40000001
1.499 10.905 -0.28600001 0.41
1.465 10.911 -0.28600001 0.34
1.428 10.898 -0.285 0.54000002
1.396 10.918 -0.28600001 0.34
1.358 10.895 -0.285 0.58999997
1.342 10.905 -0.285 0.31999999
1.3049999 10.887 -0.28400001 0.51999998
1.271 10.897 -0.28400001 0.31999999
1.237 10.897 -0.28400001 0.50999999
1.202 10.899 -0.28400001 0.31
1.1670001 10.895 -0.28400001 0.51999998
1.133 10.9 -0.28400001 0.31
1.117 10.91 -0.28400001 0.41
1.08 10.886 -0.28299999 0.51999998
1.046 10.897 -0.28299999 0.30000001
1.011 10.888 -0.28299999 0.51999998
0.977 10.894 -0.28299999 0.30000001
0.94199997 10.887 -0.28200001 0.44999999
0.90700001 10.888 -0.28200001 0.5
0.88999999 10.879 -0.28200001 0.46000001
0.85600001 10.884 -0.28200001 0.38999999
0.82099998 10.884 -0.28200001 0.41
0.787 10.885 -0.28200001 0.38999999
0.75300002 10.893 -0.28200001 0.41999999
0.71899998 10.902 -0.28200001 0.38999999
0.68400002 10.884 -0.28099999 0.54000002
0.667 10.895 -0.28200001 0.34
0.63200003 10.883 -0.28099999 0.56
0.59799999 10.889 -0.28099999 0.31999999
0.56400001 10.889 -0.28099999 0.41
0.52899998 10.884 -0.28099999 0.44999999
0.495 10.892 -0.28099999 0.38
0.461 10.892 -0.28099999 0.47
0.44400001 10.886 -0.28099999 0.41999999
0.41 10.902 -0.28200001 0.38999999
0.375 10.889 -0.28099999 0.5
0.34099999 10.898 -0.28099999 0.34
0.30700001 10.879 -0.28 0.52999997
0.273 10.89 -0.28099999 0.33000001
0.23800001 10.881 -0.28 0.44999999
0.221 10.875 -0.28 0.41
0.18700001 10.884 -0.28099999 0.40000001
0.153 10.874 -0.28 0.41
0.119 10.887 -0.28099999 0.34
0.083999999 10.857 -0.27900001 0.49000001
0.050000001 10.883 -0.28 0.31999999
0.016000001 10.865 -0.28 0.54000002
-0.001 10.835 -0.278 0.30000001
-0.035 10.723 -0.273 0.62
-0.068999998 10.725 -0.273 0.30000001
-0.102 10.697 -0.27200001 0.54000002
-0.13600001 10.703 -0.27200001 0.33000001
-0.17 10.694 -0.27200001 0.5
-0.20299999 10.71 -0.273 0.30000001
-0.22 10.691 -0.27200001 0.55000001
-0.25400001 10.702 -0.273 0.37
-0.287 10.7 -0.27200001 0.43000001
-0.32100001 10.701 -0.273 0.38999999
-0.35499999 10.708 -0.273 0.43000001
-0.389 10.72 -0.27399999 0.41999999
-0.42300001 10.731 -0.27399999 0.34999999
-0.44 10.728 -0.27399999 0.46000001
-0.47299999 10.721 -0.27399999 0.49000001
-0.50700003 10.715 -0.27399999 0.55000001
-0.54100001 10.726 -0.27399999 0.40000001
-0.57499999 10.72 -0.27399999 0.41
-0.60699999 10.698 -0.273 0.67000002
-0.625 10.717 -0.27399999 0.31999999
-0.65799999 10.711 -0.27399999 0.49000001
-0.69199997 10.699 -0.273 0.51999998
-0.72600001 10.709 -0.27399999 0.40000001
-0.759 10.699 -0.273 0.56999999
-0.79400003 10.712 -0.27399999 0.31999999
-0.82800001 10.714 -0.27399999 0.49000001
-0.86199999 10.717 -0.27500001 0.34
-0.87800002 10.704 -0.27399999 0.56999999
-0.912 10.713 -0.27500001 0.31999999
-0.94499999 10.698 -0.27399999 0.47999999
-0.97899997 10.699 -0.27399999 0.38
-1.012 10.694 -0.27399999 0.55000001
-1.0470001 10.7 -0.27500001 0.34
-1.081 10.701 -0.27500001 0.51999998
-1.099 10.715 -0.27500001 0.33000001
-1.1339999 10.722 -0.27599999 0.43000001
-1.1670001 10.71 -0.27599999 0.55000001
-1.202 10.716 -0.27599999 0.30000001
-1.234 10.704 -0.27599999 0.44999999
-1.2690001 10.71 -0.27599999 0.38999999
-1.303 10.708 -0.27599999 0.38999999
-1.3200001 10.708 -0.27599999 0.41
-1.354 10.71 -0.27700001 0.40000001
-1.388 10.706 -0.27700001 0.38999999
-1.4220001 10.703 -0.27700001 0.41
-1.457 10.711 -0.27700001 0.41
-1.492 10.716 -0.278 0.36000001
-1.508 10.706 -0.27700001 0.66000003
-1.5420001 10.703 -0.27700001 0.31999999
-1.574 10.686 -0.27700001 0.55000001
-1.61 10.697 -0.278 0.31999999
-1.643 10.692 -0.278 0.55000001
-1.678 10.695 -0.278 0.31999999
-1.711 10.685 -0.278 0.52999997
-1.749 10.707 -0.27900001 0.31999999
-1.7640001 10.695 -0.27900001 0.44
-1.8 10.705 -0.27900001 0.34999999
-1.836 10.713 -0.28 0.47999999
-1.87 10.705 -0.28 0.37
-1.903 10.699 -0.28 0.56999999
-1.9400001 10.709 -0.28 0.34
-1.971 10.693 -0.28 0.55000001
-1.99 10.7 -0.28 0.30000001
-2.0239999 10.697 -0.28099999 0.56
-2.062 10.715 -0.28200001 0.36000001
-2.096 10.706 -0.28200001 0.46000001
-2.131 10.709 -0.28200001 0.44999999
-2.1619999 10.689 -0.28099999 0.54000002
-2.1830001 10.703 -0.28200001 0.37
-2.217 10.702 -0.28299999 0.52999997
-2.2550001 10.715 -0.28299999 0.38999999
-2.286 10.694 -0.28299999 0.50999999
-2.3210001 10.692 -0.28299999 0.34999999
-2.355 10.689 -0.28299999 0.54000002
-2.392 10.699 -0.28400001 0.38999999
-2.411 10.703 -0.28400001 0.46000001
-2.4430001 10.69 -0.28400001 0.52999997
-2.4779999 10.686 -0.28400001 0.38999999
-2.5150001 10.693 -0.285 0.44999999
-2.546 10.674 -0.28400001 0.64999998
-2.5829999 10.681 -0.285 0.30000001
-2.6199999 10.687 -0.28600001 0.43000001
-2.651 10.667 -0.285 0.5
-2.6719999 10.68 -0.28600001 0.31999999
-2.7060001 10.676 -0.28600001 0.46000001
-2.7390001 10.663 -0.28600001 0.44
-2.7809999 10.687 -0.28799999 0.31
-2.8110001 10.667 -0.287 0.55000001
-2.8510001 10.681 -0.28799999 0.34
-2.8789999 10.653 -0.287 0.49000001
-2.9030001 10.673 -0.28799999 0.33000001
-2.937 10.666 -0.28799999 0.5
-2.974 10.672 -0.289 0.30000001
-3.007 10.661 -0.289 0.52999997
-3.046 10.671 -0.28999999 0.31999999
-3.075 10.646 -0.289 0.55000001
-3.099 10.666 -0.28999999 0.31
-3.1340001 10.66 -0.29100001 0.47
-3.171 10.662 -0.29100001 0.40000001
-3.207 10.661 -0.292 0.40000001
-3.2409999 10.653 -0.292 0.47999999
-3.276 10.648 -0.292 0.41999999
-3.3139999 10.651 -0.29300001 0.36000001
-3.3299999 10.642 -0.292 0.44
-3.3670001 10.645 -0.29300001 0.44
-3.405 10.65 -0.294 0.41
-3.4449999 10.658 -0.29499999 0.41
-3.4749999 10.638 -0.294 0.36000001
-3.5090001 10.629 -0.294 0.50999999
-3.5480001 10.635 -0.29499999 0.40000001
-3.668 10.881 -0.30700001 0.61000001
-3.747 11.059 -0.31600001 0.41
-3.8069999 11.123 -0.31900001 0.31
-3.8440001 11.117 -0.31999999 0.30000001
-3.888 11.131 -0.32100001 0.28999999
-3.924 11.12 -0.32100001 0.34
-3.9549999 11.097 -0.31999999 0.34
-3.9990001 11.111 -0.322 0.30000001
-4.0229998 11.123 -0.32300001 0.30000001
-4.0650001 11.129 -0.32300001 0.28999999
-4.1040001 11.128 -0.324 0.30000001
-4.138 11.113 -0.324 0.28999999
-4.1810002 11.12 -0.32499999 0.30000001
-4.2189999 11.115 -0.32499999 0.28999999
-4.2449999 11.132 -0.32600001 0.31999999
-4.277 11.11 -0.32600001 0.28999999
-4.3179998 11.113 -0.32699999 0.28999999
-4.3590002 11.114 -0.32699999 0.28999999
-4.3990002 11.115 -0.32800001 0.30000001
-4.4369998 11.109 -0.32800001 0.20999999
-4.4699998 11.089 -0.32800001 0.38
-4.4970002 11.106 -0.329 0.41
-4.5339999 11.098 -0.33000001 0.25
-4.5799999 11.109 -0.331 0.28999999
-4.6220002 11.113 -0.33199999 0.28999999
-4.664 11.115 -0.333 0.31999999
-4.6929998 11.088 -0.33199999 0.22
-4.7329998 11.084 -0.33199999 0.19
-4.7610002 11.054 -0.33199999 0.44999999
-4.744 10.966 -0.32800001 0.38
-4.7670002 10.924 -0.32699999 0.40000001
-4.8249998 10.964 -0.329 0.67000002
-4.8340001 10.798 -0.32300001 0.62
-4.8540001 10.752 -0.32100001 0.25999999
-4.8740001 10.707 -0.31999999 0.43000001
-4.8639998 10.641 -0.317 0.40000001
-4.8899999 10.61 -0.31600001 0.37
-4.9239998 10.594 -0.31600001 0.50999999
-4.9679999 10.602 -0.317 0.37
-5.0170002 10.621 -0.31900001 0.41
-5.053 10.611 -0.31900001 0.52999997
-5.0960002 10.615 -0.31999999 0.36000001
-5.1160002 10.614 -0.31999999 0.47999999
-5.1570001 10.614 -0.32100001 0.37
-5.1989999 10.615 -0.322 0.47999999
-5.244 10.622 -0.32300001 0.34
-5.2849998 10.62 -0.324 0.41
-5.3179998 10.604 -0.324 0.44999999
-5.3509998 10.627 -0.32600001 0.38
-5.3860002 10.614 -0.32600001 0.41
-5.4239998 10.606 -0.32600001 0.5
-5.4720001 10.617 -0.32800001 0.36000001
-5.5120001 10.614 -0.32800001 0.41
-5.5500002 10.606 -0.329 0.56999999
-5.5970001 10.615 -0.33000001 0.38999999
-5.618 10.613 -0.331 0.51999998
-5.6620002 10.617 -0.33199999 0.37
-5.7020001 10.611 -0.33199999 0.52999997
-5.7449999 10.611 -0.333 0.38
-5.7779999 10.593 -0.333 0.43000001
-5.816 10.583 -0.33399999 0.57999998
-5.8670001 10.596 -0.33500001 0.40000001
-5.9099998 10.595 -0.336 0.41999999
-5.9699998 10.665 -0.34 0.69
-6.0359998 10.703 -0.34299999 0
-3.1240001 5.473 -0.077 0
-3.095 5.3829999 -0.072999999 0
-3.095 5.3439999 -0.071000002 0
-3.0969999 5.309 -0.07 0
-3.0999999 5.2750001 -0.068999998 0
-3.109 5.2709999 -0.068999998 0.12
-3.1199999 5.2509999 -0.068000004 0.20999999
-3.119 5.2119999 -0.067000002 0.1
-3.132 5.197 -0.066 0.13
-3.1440001 5.1810002 -0.066 0
-3.1570001 5.1659999 -0.066 0.12
-3.1760001 5.178 -0.067000002 0.28999999
-3.184 5.1539998 -0.066 0.23999999
-3.1960001 5.1370001 -0.066 0.11
-3.2 5.1079998 -0.064999998 0
-3.214 5.0949998 -0.064000003 0
-3.2390001 5.098 -0.064999998 0.13
-3.2609999 5.098 -0.066 0.16
-3.267 5.0900002 -0.064999998 0.22
-3.2780001 5.0710001 -0.064999998 0.11
-3.2909999 5.0570002 -0.064999998 0.079999998
-3.3080001 5.0489998 -0.064999998 0.079999998
-3.346 5.072 -0.067000002 0
-3.345 5.0359998 -0.064999998 0
-3.3670001 5.0339999 -0.066 0
-3.3989999 5.0650001 -0.068000004 0
-3.4070001 5.0430002 -0.067000002 0
-3.4330001 5.0469999 -0.068000004 0.07
-3.4760001 5.0760002 -0.07 0
-3.4920001 5.0650001 -0.07 0
-3.5090001 5.0560002 -0.07 0
-3.553 5.086 -0.071999997 0
-3.675 5.2270002 -0.081 0.090000004
-7.4689999 10.563 -0.37200001 0.34999999
-7.5139999 10.556 -0.373 0.41999999
-7.5760002 10.573 -0.375 0.43000001
-7.6170001 10.561 -0.37599999 0.43000001
-7.6680002 10.561 -0.377 0.40000001
-7.7189999 10.561 -0.37799999 0.51999998
-7.757 10.578 -0.38 0.40000001
-7.796 10.561 -0.38 0.41999999
-7.8400002 10.551 -0.38100001 0.52999997
-7.8920002 10.552 -0.382 0.40000001
-7.947 10.556 -0.384 0.36000001
-7.9790001 10.53 -0.384 0.50999999
-8.0190001 10.549 -0.38600001 0.36000001
-8.0679998 10.544 -0.38699999 0.5
-8.1230001 10.548 -0.389 0.38999999
-8.1700001 10.539 -0.38999999 0.47
-8.2340002 10.555 -0.39199999 0.40000001
-8.2749996 10.538 -0.39199999 0.57999998
-8.3240004 10.533 -0.39399999 0.40000001
-8.3620005 10.546 -0.39500001 0.41999999
-8.415 10.545 -0.396 0.5
-8.5810003 10.685 -0.40599999 0.36000001
-8.6289997 10.675 -0.40700001 0.54000002
-8.6780005 10.668 -0.40799999 0.40000001
-8.7259998 10.658 -0.40900001 0.46000001
-8.79 10.668 -0.41100001 0.36000001
-8.8269997 10.679 -0.41299999 0.47
-8.8859997 10.682 -0.414 0.38
-8.9280005 10.664 -0.41499999 0.44999999
-8.9899998 10.67 -0.417 0.38
-9.0410004 10.663 -0.41800001 0.51999998
-9.1009998 10.665 -0.41999999 0.37
-9.1520004 10.658 -0.421 0.55000001
-9.1929998 10.67 -0.42300001 0.38999999
-9.2469997 10.666 -0.42399999 0.44999999
-9.2969999 10.656 -0.42500001 0.36000001
-9.3400002 10.637 -0.426 0.49000001
-9.4139996 10.655 -0.42899999 0.36000001
-9.4639997 10.643 -0.43000001 0.47999999
-9.5209999 10.64 -0.43099999 0.38999999
-9.5699997 10.628 -0.433 0.63
-9.6350002 10.666 -0.43599999 0.33000001
-9.6829996 10.652 -0.43700001 0.41
-9.7340002 10.641 -0.43799999 0.41
-9.7679996 10.61 -0.43799999 0.56999999
-9.8549995 10.638 -0.44100001 0.40000001
-9.9119997 10.632 -0.44299999 0.47999999
-9.9630003 10.653 -0.44499999 0.34999999
-10.007 10.633 -0.44600001 0.47999999
-10.073 10.637 -0.44800001 0.40000001
-10.152 10.653 -0.45100001 0.36000001
-10.188 10.624 -0.45100001 0.46000001
-10.256 10.628 -0.45300001 0.36000001
-10.306 10.613 -0.454 0.56999999
-10.36 10.635 -0.45699999 0.33000001
-10.415 10.624 -0.458 0.47
-10.48 10.624 -0.46000001 0.34999999
-10.535 10.612 -0.461 0.55000001
-10.614 10.626 -0.46399999 0.28999999
-10.675 10.619 -0.46599999 0.44999999
-10.739 10.617 -0.46799999 0.38999999
-10.784 10.628 -0.47 0.38
-10.853 10.629 -0.472 0.40000001
-10.928 10.635 -0.47499999 0.37
-10.966 10.605 -0.47499999 0.49000001
-11.03 10.601 -0.477 0.31999999
-11.091 10.593 -0.479 0.55000001
-11.163 10.595 -0.48100001 0.31999999
-11.219 10.615 -0.48300001 0.50999999
-11.305 10.629 -0.48699999 0.31999999
-11.345 10.6 -0.48699999 0.50999999
-11.434 10.616 -0.49000001 0.34
-11.547 10.653 -0.495 0.63999999
-11.398 10.449 -0.484 0.18000001
-11.43 10.414 -0.484 0.34999999
-11.639 10.571 -0.49599999 0.38
-11.773 10.625 -0.50199997 0.28
-11.827 10.607 -0.50300002 0.51999998
-11.906 10.611 -0.50599998 0.28999999
-11.969 10.6 -0.50800002 0.5
-12.054 10.607 -0.51099998 0.31
-12.135 10.611 -0.51300001 0.63999999
-12.197 10.632 -0.51599997 0.28
-12.257 10.617 -0.51800001 0.51999998
-12.336 10.618 -0.51999998 0.31
-12.398 10.604 -0.52200001 0.47999999
-12.497 10.62 -0.52600002 0.31
-12.574 10.619 -0.528 0.50999999
-12.639 10.606 -0.52999997 0.30000001
-12.705 10.627 -0.53299999 0.55000001
-12.789 10.629 -0.53600001 0.31
-12.879 10.636 -0.53899997 0.56
-12.974 10.647 -0.54299998 0.31
-13.053 10.643 -0.54500002 0.51999998
-13.134 10.641 -0.54799998 0.33000001
-13.202 10.627 -0.55000001 0.57999998
-13.267 10.645 -0.55299997 0.33000001
-13.334 10.631 -0.55500001 0.51999998
-13.425 10.635 -0.55800003 0.30000001
-13.528 10.647 -0.56199998 0.52999997
-13.605 10.639 -0.565 0.37
-13.686 10.633 -0.56699997 0.41
-13.789 10.644 -0.57099998 0.38
-13.875 10.676 -0.57499999 0.34
-13.927 10.647 -0.57599998 0.5
-14.05 10.671 -0.58099997 0.37
-14.133 10.664 -0.58399999 0.38999999
-14.203 10.647 -0.58600003 0.44999999
-14.308 10.656 -0.58999997 0.28999999
-14.382 10.641 -0.59200001 0.47999999
-14.485 10.683 -0.597 0.34
-14.544 10.656 -0.59799999 0.5
-14.657 10.668 -0.60299999 0.37
-14.76 10.672 -0.60699999 0.43000001
-14.858 10.673 -0.61000001 0.36000001
-14.95 10.668 -0.61299998 0.44
-15.029 10.688 -0.61699998 0.34999999
-15.127 10.687 -0.62 0.43000001
-15.241 10.696 -0.625 0.34
-15.342 10.695 -0.62800002 0.38
-15.431 10.686 -0.63099998 0.41999999
-15.525 10.679 -0.63499999 0.38999999
-15.635 10.682 -0.639 0.38999999
-15.722 10.706 -0.64200002 0.38
-15.83 10.707 -0.64600003 0.41999999
-15.942 10.71 -0.65100002 0.38999999
-16.045 10.706 -0.65399998 0.34999999
-16.143 10.699 -0.65799999 0.38999999
-16.25 10.697 -0.662 0.41
-16.364 10.698 -0.66600001 0.34999999
-16.448 10.716 -0.67000002 0.38
-16.556999 10.713 -0.67400002 0.38999999
-16.664 10.709 -0.67699999 0.41
-16.789 10.715 -0.68199998 0.23
-16.886 10.703 -0.68599999 0.74000001
-17.016001 10.71 -0.69099998 0.28999999
-17.136 10.711 -0.69499999 0.38
-17.212 10.721 -0.69800001 0.41
-17.315001 10.71 -0.70200002 0.36000001
-17.469999 10.73 -0.708 0.36000001
-17.59 10.728 -0.713 0.41
-17.865 10.819 -0.72500002 0.31999999
-17.974001 10.808 -0.72899997 0.34
-17.966999 10.727 -0.727 0.43000001
-18.263 10.866 -0.74199998 0.38999999
-19.141001 11.227 -0.78299999 0.25
-19.222 11.194 -0.78600001 0.36000001
-19.245001 11.126 -0.78500003 0.36000001
-19.266001 11.058 -0.78399998 0.37
-19.301001 10.997 -0.78399998 0.38999999
-19.32 10.968 -0.78500003 0.40000001
-19.349001 10.904 -0.78399998 0.38999999
-19.368999 10.836 -0.78399998 0.38
-19.389 10.767 -0.78299999 0.5
-19.584 10.795 -0.79100001 0.28999999
-19.819 10.844 -0.801 0.28999999
-19.841 10.775 -0.801 0.49000001
-19.947001 10.792 -0.80500001 0.34
-20.104 10.796 -0.81099999 0.38999999
-20.242001 10.788 -0.81699997 0.38
-20.382999 10.782 -0.82200003 0.34
-20.545 10.785 -0.82800001 0.41
-20.693001 10.78 -0.83399999 0.34999999
-20.847 10.819 -0.84100002 0.36000001
-20.989 10.809 -0.84600002 0.38999999
-21.136999 10.801 -0.852 0.34999999
-21.302 10.802 -0.85900003 0.38999999
-21.465 10.8 -0.86500001 0.34999999
-21.638 10.802 -0.87199998 0.36000001
-21.813 10.804 -0.87900001 0.40000001
-21.931 10.777 -0.88300002 0.34
-22.106001 10.82 -0.89099997 0.33000001
-22.302999 10.83 -0.89899999 0.36000001
-22.454 10.817 -0.90499997 0.34999999
-22.652 10.825 -0.91299999 0.36000001
-22.806999 10.811 -0.91900003 0.31999999
-22.985001 10.807 -0.926 0.34999999
-23.195999 10.818 -0.935 0.38
-23.333 10.837 -0.94099998 0.34
-23.524 10.837 -0.94800001 0.33000001
-23.736 10.844 -0.95700002 0.33000001
-23.924999 10.84 -0.96499997 0.31999999
-24.121 10.838 -0.97299999 0.31999999
-24.316999 10.834 -0.98000002 0.31999999
-24.511999 10.829 -0.98799998 0.33000001
-24.705999 10.869 -0.99699998 0.37
-24.916 10.868 -1.005 0.33000001
-25.124001 10.865 -1.0140001 0.34
-13.017 5.5669999 -0.426 0.18000001
-12.936 5.4840002 -0.421 0.34
-12.883 5.414 -0.41800001 0.41
-12.867 5.3600001 -0.41600001 0.38
-12.849 5.329 -0.41499999 0.47
-12.851 5.2820001 -0.414 0.55000001
-12.87 5.2420001 -0.414 0.36000001
-12.893 5.2049999 -0.41499999 0.43000001
-12.919 5.1680002 -0.41499999 0.50999999
-12.98 5.145 -0.417 0.34
-13.034 5.1430001 -0.41999999 0.41
-13.078 5.1129999 -0.421 0.38999999
-13.165 5.0999999 -0.42399999 0.57999998
-29.176001 11.231 -1.187 0.18000001
-29.198 11.134 -1.186 0.34
-29.214001 11.035 -1.1849999 0.34
-29.403999 11.002 -1.193 0.38
-29.702 11.06 -1.206 0.23
-30.421 11.22 -1.239 0.28999999
-30.540001 11.155 -1.243 0.34
-31.103001 11.25 -1.267 0.2
-31.402 11.247 -1.28 0.15000001
-31.683001 11.236 -1.2920001 0.19
-33.314999 11.698 -1.367 0.14
-33.453999 11.688 -1.373 0.41
-33.560001 11.607 -1.376 0.22
-33.743999 11.553 -1.383 0.16
-33.803001 11.454 -1.3839999 0.33000001
-35.176998 11.675 -1.4450001 0.44999999
-35.514999 11.664 -1.459 0
-35.622002 11.637 -1.4630001 0
-35.708 11.541 -1.465 0
-36.237 11.587 -1.489 0
-36.41 11.516 -1.495 0
-37.768002 11.816 -1.556 0
-38.476002 11.906 -1.5880001 0
-16.944 5.1690001 -0.58399999 0
-40.074001 12.195 -1.659 0
-40.890999 12.304 -1.696 0
-41.749001 12.419 -1.734 0
-43.173 12.697 -1.798 0
-25.039 7.2670002 -0.95599997 0
-24.896999 7.1409998 -0.94800001 0
-24.902 7.0570002 -0.94800001 0
-25.969 7.1409998 -0.99400002 0
-26.017 7.066 -0.995 0
-26.042999 6.9860001 -0.99599999 0
-22.844999 5.9330001 -0.84600002 0
-22.656 5.8080001 -0.83700001 0
-22.700001 5.5910001 -0.83600003 0.14
-22.947001 5.5760002 -0.847 0.38999999
-22.371 5.3239999 -0.81900001 0.38
-22.391001 5.2540002 -0.81900001 0.23999999
-22.827999 5.2820001 -0.83899999 0.38
-22.959 5.2360001 -0.84399998 0
-26.054001 5.7740002 -0.98299998 0
-24.903 4.9860001 -0.926 0
-32.226002 5.9879999 -1.2539999 0.2
-32.192001 5.8769999 -1.252 0.28999999
-32.137001 5.7620001 -1.249 0.25999999
-32.095001 5.7030001 -1.2460001 0.37
-32.137001 5.6059999 -1.247 0.31999999
-32.230999 5.5180001 -1.251 0.28999999
-32.242001 5.4159999 -1.251 0
-35.085999 5.5560002 -1.376 0.31
-35.091999 5.5009999 -1.376 0.28999999
-35.074001 5.3850002 -1.375 0.18000001
-35.250999 5.2989998 -1.382 0
-35.640999 5.244 -1.399 0
-68.755997 4.0240002 -2.8599999 0
-68.227997 3.7780001 -2.836 0
-67.581001 3.635 -2.8069999 0
-66.945999 3.3900001 -2.7780001 0
-41.869999 1.122 -1.659 0
-41.879002 0.991 -1.66 0
-41.872002 0.85900003 -1.659 0
-41.882 0.72799999 -1.659 0
-42.206001 0.60100001 -1.674 0
-42.223999 0.46799999 -1.674 0
-60.547001 -0.93400002 -2.49 0
-60.243999 -1.119 -2.4760001 0
-59.971001 -1.2079999 -2.464 0
-59.780998 -1.392 -2.4560001 0
-59.506001 -1.573 -2.444 0
-59.276001 -1.753 -2.434 0
-59.056 -1.933 -2.424 0
-58.821999 -2.1099999 -2.414 0
-58.521999 -2.2839999 -2.401 0
-58.073002 -2.358 -2.381 0
-57.717999 -2.5250001 -2.3659999 0
-57.307999 -2.688 -2.348 0
-56.867001 -2.846 -2.329 0
-56.604 -3.0109999 -2.3180001 0
-56.196999 -3.1670001 -2.3 0
-56.025002 -3.2460001 -2.2920001 0
-30.906 -2.632 -1.176 0
-30.323999 -2.6789999 -1.15 0
-29.132 -2.8510001 -1.098 0
-28.839001 -3.2349999 -1.087 0
-18.625999 -2.247 -0.63099998 0
-18.077999 -2.2390001 -0.60699999 0
-17.629 -2.24 -0.58700001 0
-17.393999 -2.266 -0.57700002 0
-17.382999 -2.3210001 -0.57599998 0
-17.349001 -2.372 -0.57499999 0
-17.306 -2.421 -0.574 0
-17.287001 -2.4460001 -0.57300001 0
-17.233 -2.494 -0.57099998 0
-17.208 -2.546 -0.56999999 0
-17.18 -2.5969999 -0.56900001 0
-17.17 -2.6500001 -0.56900001 0
-17.160999 -2.704 -0.56900001 0
-17.132999 -2.7550001 -0.56800002 0
-17.136 -2.783 -0.56900001 0
-17.120001 -2.836 -0.56800002 0
-17.105 -2.888 -0.56800002 0
-17.143 -2.95 -0.56999999 0
-17.174999 -3.0109999 -0.57200003 0
-17.195 -3.0699999 -0.57300001 0
-17.198999 -3.1270001 -0.574 0
-17.194 -3.154 -0.574 0
-17.184 -3.2079999 -0.574 0
-17.48 -3.3199999 -0.588 0
-17.627001 -3.405 -0.59500003 0
-13.415 -2.641 -0.405 0
-17.118999 -3.4189999 -0.57300001 0
-31.254999 -6.3740001 -1.215 0.27000001
-30.615 -6.3439999 -1.187 0.23999999
-30.448 -6.4089999 -1.1799999 0.33000001
-29.988001 -6.4109998 -1.16 0.34
-29.323 -6.3660002 -1.131 0.16
-29.040001 -6.4000001 -1.119 0.15000001
-28.672001 -6.414 -1.103 0.5
-28.188 -6.3530002 -1.082 0.22
-27.948 -6.3909998 -1.072 0.31
-28.113001 -6.5219998 -1.08 0.11
-27.007 -6.3559999 -1.03 0.16
-26.615 -6.3520002 -1.013 0.23
-26.233999 -6.349 -0.99699998 0.11
-25.822001 -6.335 -0.97899997 0.14
-25.569 -6.316 -0.96799999 0.31
-25.334 -6.3429999 -0.958 0.30000001
-24.879999 -6.3130002 -0.93800002 0.11
-24.541 -6.309 -0.92299998 0.15000001
-23.417 -6.0999999 -0.87300003 0.15000001
-23.216 -6.1259999 -0.86400002 0.28999999
-23.143999 -6.1849999 -0.86199999 0.37
-23.184999 -6.2350001 -0.86400002 0.27000001
-22.978001 -6.257 -0.85600001 0.47999999
-22.798 -6.2849998 -0.84799999 0.30000001
-22.507 -6.2810001 -0.83600003 0.31999999
-22.309999 -6.302 -0.82800001 0.33000001
-22.165001 -6.336 -0.82200003 0.25999999
-21.704 -6.2420001 -0.801 0.23
-21.389 -6.2249999 -0.787 0.30000001
-21.252001 -6.257 -0.78200001 0.41
-20.775999 -6.1890001 -0.76099998 0.25
-20.365999 -6.1370001 -0.74199998 0.25999999
-20.399 -6.217 -0.745 0.44999999
-20.299 -6.256 -0.741 0.33000001
-20.014 -6.2030001 -0.72799999 0.20999999
-19.716 -6.1789999 -0.71499997 0.18000001
-19.479 -6.1719999 -0.70499998 0.12
-19.239 -6.1630001 -0.69499999 0.31999999
-19.107 -6.1869998 -0.69 0.41999999
-18.943001 -6.1999998 -0.68300003 0.31999999
-18.774 -6.211 -0.676 0.14
-17.674999 -5.8800001 -0.625 0.49000001
-18.051001 -6.0669999 -0.64300001 0.13
-17.788 -6.0409999 -0.63200003 0.2
-17.684999 -6.0679998 -0.62800002 0.67000002
-17.613001 -6.1059999 -0.62599999 0.31
-17.57 -6.152 -0.62400001 0.47
-17.362 -6.1409998 -0.61500001 0.27000001
-17.231001 -6.1259999 -0.61000001 0.23999999
-17.280001 -6.204 -0.61299998 0.40000001
-17.368999 -6.2979999 -0.61799997 0.38999999
-17.697001 -6.4790001 -0.63499999 0.28
-16.462999 -6.0879998 -0.57700002 0.17
-16.306999 -6.0890002 -0.57099998 0.41
-16.232 -6.119 -0.56800002 0.37
-15.873 -6.013 -0.551 0.41
-15.882 -6.073 -0.55299997 0.28
-15.57 -6.0100002 -0.53899997 0.31999999
-16.035 -6.2470002 -0.56199998 0.17
-15.489 -6.0910001 -0.537 0.34999999
-15.388 -6.1079998 -0.53299999 0.46000001
-15.306 -6.131 -0.52999997 0.23999999
-15.261 -6.1409998 -0.528 0.5
-15.167 -6.1589999 -0.52399999 0.47
-14.9 -6.105 -0.51300001 0.31
-14.775 -6.1090002 -0.50800002 0.28
-14.601 -6.0910001 -0.5 0.43000001
-14.37 -6.0479999 -0.49000001 0.27000001
-14.239 -6.0190001 -0.484 0.55000001
-12.068 -5.151 -0.38 0.19
-12.035 -5.1810002 -0.37900001 0.25999999
-12.026 -5.2220001 -0.38 0.57999998
-14.164 -6.198 -0.484 0.23
-14.067 -6.2090001 -0.47999999 0.34999999
-13.9 -6.1880002 -0.47299999 0.30000001
-14.823 -6.625 -0.51899999 0.25
-13.951 -6.289 -0.477 0.51999998
-14.639 -6.6529999 -0.51200002 0.34999999
-14.305 -6.5570002 -0.49599999 0.25
-13.428 -6.2069998 -0.454 0.38
-13.003 -6.0609999 -0.43399999 0.30000001
-13.034 -6.1259999 -0.43700001 0.34
-12.803 -6.0669999 -0.42699999 0.43000001
-13.045 -6.2059999 -0.43900001 0.37
-12.641 -6.0640001 -0.41999999 0.43000001
-12.519 -6.0539999 -0.41499999 0.38
-12.518 -6.1020002 -0.41600001 0.55000001
-10.922 -5.4130001 -0.33899999 0.49000001
-10.948 -5.4679999 -0.34099999 0.31999999
-10.84 -5.4359999 -0.336 0.36000001
-10.855 -5.4860001 -0.33700001 0.23
-10.511 -5.355 -0.32100001 0.52999997
-10.557 -5.4190001 -0.324 0.56999999
-10.785 -5.579 -0.336 0.16
-10.992 -5.7290001 -0.34799999 0.62
-15.936 -8.3570004 -0.597 0.20999999
-12.851 -6.77 -0.442 0.28
-10.774 -5.724 -0.33899999 0.14
-10.775 -5.7680001 -0.34 0.56
-10.334 -5.5749998 -0.31900001 0.28
-10.408 -5.6570001 -0.32300001 0.57999998
-15.33 -8.4119997 -0.574 0.51999998
-15.325 -8.4720001 -0.57499999 0.23
-15.473 -8.6169996 -0.58399999 0.18000001
-10.285 -5.7800002 -0.32100001 0.52999997
-10.346 -5.8569999 -0.32499999 0.31999999
-10.464 -5.967 -0.33199999 0.33000001
-10.38 -5.9619999 -0.329 0.27000001
-10.866 -6.263 -0.354 0.57999998
-10.448 -6.0669999 -0.33399999 0.31
-10.208 -5.9710002 -0.322 0.33000001
-10.183 -5.9990001 -0.322 0.61000001
-13.269 -7.8649998 -0.48199999 0.47
-13.373 -7.9829998 -0.48899999 0.37
-13.312 -8.0030003 -0.48699999 0.27000001
-9.8330002 -5.941 -0.30700001 0.19
-13.054 -7.9330001 -0.47600001 0.58999997
-13.008 -7.961 -0.47499999 0.18000001
-9.5679998 -5.9050002 -0.296 0.55000001
-13.475 -8.3620005 -0.50199997 0.13
-9.4829998 -5.9349999 -0.294 0.36000001
-9.3830004 -5.914 -0.28999999 0.25999999
-13.156 -8.309 -0.48899999 0.55000001
-8.901 -5.671 -0.266 0.20999999
-9.1739998 -5.8839998 -0.28099999 0.28999999
-12.777 -8.2390003 -0.47299999 0.30000001
-12.721 -8.2600002 -0.47099999 0.50999999
-12.705 -8.3059998 -0.472 0.20999999
-8.9090004 -5.8740001 -0.271 0.20999999
-9.092 -6.0149999 -0.28099999 0.25999999
-9.526 -6.3429999 -0.30500001 0.28
-9.526 -6.3860002 -0.30700001 0.44999999
-9.493 -6.4070001 -0.30599999 0.55000001
-9.4720001 -6.4369998 -0.30599999 0.49000001
-9.4490004 -6.4650002 -0.30599999 0.51999998
-9.368 -6.4310002 -0.30199999 0.5
-8.4680004 -5.8559999 -0.25400001 0.43000001
-8.4200001 -5.862 -0.25299999 0.38
-8.3610001 -5.8600001 -0.25099999 0
-8.3210001 -5.8709998 -0.249 0
-34.432999 -24.357 -1.6720001 0
-9.5559998 -6.8959999 -0.32100001 0.38999999
-9.4949999 -6.8979998 -0.31799999 0.61000001
-7.9679999 -5.8319998 -0.236 0.40000001
-7.9629998 -5.8660002 -0.236 0.28999999
-8.2030001 -6.0819998 -0.25099999 0.19
-25.756001 -19.153 -1.224 0.14
-7.8010001 -5.8429999 -0.23 0.20999999
-20.374001 -15.307 -0.93000001 0.14
-9.04 -6.8540001 -0.301 0.15000001
-9.0530005 -6.9089999 -0.303 0.68000001
-8.9239998 -6.9000001 -0.29800001 0.72000003
-8.8950005 -6.9219999 -0.29800001 0.41
-9.0649996 -7.0770001 -0.308 0.38999999
-19.625999 -15.382 -0.90499997 0.16
-19.469999 -15.36 -0.89899999 0.28999999
-19.344999 -15.36 -0.89499998 0.25
-19.142 -15.297 -0.88599998 0.31999999
-18.99 -15.274 -0.88 0.31999999
-19.007999 -15.387 -0.884 0.28999999
-18.997999 -15.428 -0.88499999 0.25
-18.851 -15.407 -0.87900001 0.36000001
-18.711 -15.392 -0.87400001 0.23
-6.9949999 -5.8119998 -0.20100001 0.28999999
-6.9569998 -5.8179998 -0.2 0.18000001
-6.9250002 -5.8280001 -0.199 0.37
-6.8720002 -5.8200002 -0.197 0.25
-6.8299999 -5.8039999 -0.19499999 0.18000001
-6.8010001 -5.816 -0.19400001 0.41
-6.7470002 -5.8060002 -0.192 0.19
-6.7090001 -5.8109999 -0.191 0.14
-6.7729998 -5.9039998 -0.19599999 0.19
-6.6360002 -5.8210001 -0.189 0.17
-18.045 -15.921 -0.86699998 0.18000001
-6.5970001 -5.8239999 -0.18799999 0.20999999
-17.973 -15.957 -0.86500001 0.23
-17.888 -15.983 -0.86299998 0.18000001
-17.812 -16.017 -0.86199999 0.49000001
-17.746 -16.058001 -0.861 0.22
-17.646 -16.069 -0.85799998 0.27000001
-17.615 -16.142 -0.85900003 0.28
-15.59 -14.336 -0.73799998 0.25
-15.472 -14.317 -0.73400003 0.34
-15.387 -14.328 -0.73199999 0.31999999
-15.301 -14.339 -0.72899997 0.30000001
-15.247 -14.378 -0.72899997 0.44999999
-15.198 -14.422 -0.72799999 0.31
-15.178 -14.449 -0.72799999 0.23
-15.115 -14.48 -0.727 0.51999998
-15.078 -14.535 -0.72799999 0.31999999
-15.048 -14.598 -0.72899997 0.28999999
-15.002 -14.645 -0.72899997 0.46000001
-14.963 -14.699 -0.72899997 0.30000001
-14.948 -14.777 -0.73100001 0.28
-14.995 -14.869 -0.736 0.54000002
-15.053 -15.021 -0.74199998 0.28
-16.294001 -16.358999 -0.82300001 0.34999999
-16.24 -16.407 -0.82300001 0.37
-16.155001 -16.424 -0.82099998 0.28999999
-16.023001 -16.393 -0.81599998 0.34
-15.951 -16.422001 -0.815 0.38999999
-15.878 -16.398001 -0.81199998 0.31999999
-15.746 -16.365 -0.80599999 0.38
-15.689 -16.408001 -0.80599999 0.47
-5.4790001 -5.7909999 -0.15099999 0.18000001
-5.4510002 -5.7979999 -0.15000001 0.25999999
-5.448 -5.8309999 -0.15099999 0.15000001
-11.966 -12.842 -0.57700002 0.17
-11.887 -12.798 -0.57300001 0.38999999
-11.913 -12.907 -0.57800001 0.34999999
-11.806 -12.873 -0.57300001 0.25
-11.69 -12.827 -0.56800002 0.28999999
-11.622 -12.833 -0.56599998 0.38
-11.5 -12.779 -0.56099999 0.28999999
-11.367 -12.712 -0.55500001 0.38999999
-11.359 -12.743 -0.55599999 0.25999999
-11.248 -12.698 -0.551 0.54000002
-11.16 -12.68 -0.54799998 0.27000001
-11.075 -12.664 -0.54500002 0.47999999
-5.6149998 -6.5209999 -0.17900001 0.51999998
-5.493 -6.421 -0.17200001 0.2
-5.6869998 -6.6680002 -0.186 0.16
-5.5799999 -6.585 -0.18000001 0.34999999
-4.8260002 -5.737 -0.13 0.11
-5.4829998 -6.5539999 -0.177 0.38
-5.5229998 -6.6440001 -0.18099999 0.16
-10.485 -12.657 -0.52700001 0.20999999
-10.461 -12.708 -0.528 0.5
-10.441 -12.724 -0.528 0.12
-5.5 -6.7659998 -0.184 0
-10.302 -12.799 -0.52700001 0.2
-10.193 -12.746 -0.52200001 0.36000001
-10.191 -12.826 -0.52499998 0.28
-10.161 -12.87 -0.52600002 0.55000001
-5.1810002 -6.6040001 -0.17 0.30000001
-5.151 -6.6090002 -0.169 0.23
-5.1240001 -6.618 -0.169 0.18000001
-4.7010002 -6.1139998 -0.139 0.41
-5.0250001 -6.618 -0.16599999 0.18000001
-4.3779998 -5.79 -0.119 0.079999998
-10.055 -13.328 -0.53899997 0.16
-4.7719998 -6.3889999 -0.15099999 0.22
-4.7519999 -6.4039998 -0.15099999 0.15000001
-4.546 -6.1690001 -0.13699999 0.13
-4.6090002 -6.2950001 -0.14300001 0.17
-4.855 -6.6729999 -0.163 0.30000001
-4.8520002 -6.6900001 -0.164 0.20999999
-9.927 -13.733 -0.55000001 0.16
-4.6989999 -6.566 -0.156 0.18000001
-4.671 -6.5710001 -0.155 0.11
-4.5110002 -6.3899999 -0.14399999 0.31999999
-4.4970002 -6.4130001 -0.145 0.23
-4.5300002 -6.5019999 -0.149 0.25
-4.5409999 -6.54 -0.15099999 0.25
-4.513 -6.5430002 -0.15000001 0.16
-4.6290002 -6.756 -0.161 0.11
-9.6140003 -14.075 -0.55500001 0.14
-4.5079999 -6.6690001 -0.154 0.47999999
-4.5780001 -6.8179998 -0.162 0.2
-4.5650001 -6.8449998 -0.162 0.15000001
-4.5170002 -6.796 -0.15899999 0.14
-9.4499998 -14.265 -0.55699998 0.31999999
-4.5170002 -6.8889999 -0.163 0.17
-9.3369999 -14.289 -0.55599999 0.2
-9.3120003 -14.348 -0.55699998 0.25999999
-9.2729998 -14.387 -0.55800003 0.44
-9.257 -14.412 -0.55800003 0.28999999
-9.1940002 -14.413 -0.55699998 0.44999999
-9.1540003 -14.45 -0.55699998 0.31999999
-9.1020002 -14.468 -0.55699998 0.38
-9.0270004 -14.449 -0.55400002 0.37
-8.9820004 -14.479 -0.55400002 0.40000001
-8.9230003 -14.485 -0.55299997 0.41
-8.901 -14.501 -0.55299997 0.23999999
-8.8199997 -14.471 -0.55000001 0.56999999
-8.7880001 -14.521 -0.551 0.25
-8.7419996 -14.547 -0.551 0.5
-8.6920004 -14.567 -0.551 0.28999999
-8.6569996 -14.613 -0.55199999 0.41
-8.6429996 -14.694 -0.55500001 0.34
-8.6379995 -14.738 -0.55599999 0.5
-8.6000004 -14.779 -0.55699998 0.18000001
-8.5679998 -14.832 -0.55800003 0.34
-8.5469999 -14.904 -0.56099999 0.31
-8.559 -15.033 -0.56599998 0.27000001
-8.4799995 -15.004 -0.56300002 0.56
-8.5530005 -15.243 -0.574 0.20999999
-4.2210002 -7.5770001 -0.182 0.22
-4.2049999 -7.6040001 -0.183 0.37
-4.1999998 -7.6529999 -0.185 0.16
-8.6719999 -15.86 -0.60000002 0
-3.8080001 -7.099 -0.155 0.14
-4.1079998 -7.7410002 -0.186 0.33000001
-8.4989996 -16.08 -0.60500002 0
-2.9579999 -5.6750002 -0.081 0
-2.9389999 -5.6830001 -0.081 0
-2.9189999 -5.6880002 -0.081 0
-2.9219999 -5.737 -0.082999997 0.059999999
-8.3640003 -16.443001 -0.61699998 0.11
-8.3719997 -16.524 -0.62 0.40000001
-8.3970003 -16.702 -0.62800002 0.20999999
-3.744 -7.5370002 -0.171 0.33000001
-3.7030001 -7.5149999 -0.169 0.19
-8.3109999 -16.924999 -0.63499999 0.16
-8.2860003 -17.01 -0.63800001 0.30000001
-8.2639999 -17.101 -0.64099997 0.56
-8.243 -17.125 -0.64200002 0.28999999
-3.7750001 -7.9390001 -0.18700001 0.16
-3.6340001 -7.7059999 -0.175 0.14
-3.6099999 -7.7189999 -0.175 0.54000002
-3.615 -7.7919998 -0.178 0.12
-8.1210003 -17.646 -0.66000003 0.1
-3.5469999 -7.7090001 -0.17399999 0
-3.4719999 -7.7059999 -0.17200001 0.55000001
-3.4860001 -7.802 -0.177 0.14
-3.464 -7.8189998 -0.177 0.22
-3.408 -7.7579999 -0.17299999 0.51999998
-3.392 -7.789 -0.17399999 0.13
-3.425 -7.8969998 -0.17900001 0.36000001
-3.3970001 -7.9000001 -0.17900001 0.27000001
-3.3469999 -7.8520002 -0.176 0
-3.3069999 -7.8280001 -0.17399999 0
-3.3570001 -8.0129995 -0.183 0
-2.6270001 -6.3410001 -0.102 0.11
-2.598 -6.3270001 -0.101 0
-2.572 -6.3499999 -0.101 0.18000001
-2.5309999 -6.3039999 -0.098999999 0.16
-2.5039999 -6.296 -0.097999997 0.15000001
-2.5 -6.342 -0.1 0.2
-2.477 -6.3429999 -0.098999999 0.41999999
-2.474 -6.3629999 -0.1 0.19
-2.45 -6.362 -0.1 0.27000001
-2.437 -6.3860002 -0.1 0.18000001
-2.4119999 -6.3829999 -0.1 0.18000001
-2.382 -6.3639998 -0.098999999 0
-2.355 -6.3530002 -0.097999997 0.11
-2.349 -6.3979998 -0.1 0.2
-2.3199999 -6.349 -0.097000003 0
-2.302 -6.3639998 -0.097000003 0.12
-2.313 -6.4549999 -0.101 0.20999999
-2.283 -6.4359999 -0.1 0.25999999
-2.2620001 -6.4400001 -0.1 0.1
-2.283 -6.5650001 -0.106 0.11
-6.9060001 -19.997999 -0.73699999 0.55000001
-6.8860002 -20.146999 -0.74299997 0.23
-6.8449998 -20.233999 -0.74599999 0.27000001
-6.7969999 -20.299 -0.74900001 0.22
-2.5710001 -7.8099999 -0.162 0.28999999
-2.572 -7.8959999 -0.16599999 0.14
-6.6490002 -20.497 -0.755 0.23
-6.6329999 -20.559 -0.75700003 0.33000001
-6.585 -20.631001 -0.75999999 0.50999999
-2.4560001 -7.8319998 -0.161 0.28999999
-2.4170001 -7.796 -0.15899999 0.2
-6.4029999 -20.733999 -0.76200002 0.25
-6.3410001 -20.761999 -0.76200002 0.54000002
-6.316 -20.916 -0.76800001 0.20999999
-6.3000002 -20.981001 -0.77100003 0.23999999
-6.2490001 -21.051001 -0.773 0.28
-6.204 -21.143 -0.77600002 0.41
-6.1490002 -21.201 -0.778 0.31999999
-2.152 -7.5700002 -0.146 0.2
-2.1289999 -7.579 -0.147 0
-6.0409999 -21.587 -0.79299998 0.11
-2.0899999 -7.5770001 -0.146 0.23
-2.283 -8.368 -0.182 0.12
-5.9619999 -21.966999 -0.80900002 0.28999999
-5.902 -22.016001 -0.81 0.41
-5.8369999 -22.054001 -0.81099999 0.31999999
-5.7820001 -22.125999 -0.81400001 0.23
-2.2780001 -8.8940001 -0.205 0.37
-5.6329999 -22.268 -0.81800002 0.38
-5.5700002 -22.315001 -0.81900001 0.22
-2.2509999 -9.2030001 -0.21799999 0.44999999
-2.253 -9.3369999 -0.22400001 0.12
-2.286 -9.6040001 -0.236 0
-5.3499999 -22.798 -0.838 0.1
-1.461 -6.2639999 -0.082000002 0
-2.1849999 -9.6499996 -0.236 0.38999999
-2.079 -9.3199997 -0.221 0
-5.112 -23.080999 -0.84799999 0.07
-1.39 -6.46 -0.090000004 0
-1.224 -5.7449999 -0.057999998 0
-1.194 -5.6939998 -0.055 0.13
-1.171 -5.671 -0.054000001 0
-1.151 -5.6669998 -0.054000001 0
-1.1799999 -5.8969998 -0.064000003 0
-1.653 -8.3450003 -0.175 0
-1.105 -5.7119999 -0.055 0.059999999
-1.091 -5.6929998 -0.054000001 0.14
-1.072 -5.6900001 -0.054000001 0.23
-1.052 -5.6820002 -0.052999999 0.27000001
-1.035 -5.6869998 -0.054000001 0.13
-1.0140001 -5.6760001 -0.052999999 0.14
-0.99800003 -5.6849999 -0.052999999 0.079999998
-1.301 -7.5050001 -0.13500001 0.13
-1.285 -7.4829998 -0.134 0
-0.95300001 -5.691 -0.052999999 0
-1.222 -7.5419998 -0.13600001 0
-0.89399999 -5.6719999 -0.052000001 0.1
-0.87900001 -5.6929998 -0.052999999 0.16
-0.861 -5.6939998 -0.052999999 0.44
-0.85399997 -5.7030001 -0.052999999 0.2
-0.838 -5.723 -0.054000001 0.16
-0.82099998 -5.7280002 -0.054000001 0.20999999
-0.80299997 -5.7319999 -0.054000001 0.11
-0.77899998 -5.6929998 -0.052000001 0.090000004
-0.75400001 -5.6440001 -0.050000001 0.17
-0.93800002 -7.059 -0.113 0
-0.73299998 -5.6869998 -0.050999999 0.090000004
-0.91000003 -7.191 -0.119 0.15000001
-0.89099997 -7.2179999 -0.12 0
-0.86699998 -7.211 -0.119 0.059999999
-0.91900003 -7.835 -0.147 0
-0.64099997 -5.6799998 -0.050999999 0.11
-0.63200003 -5.677 -0.050000001 0.28
-0.61500001 -5.6890001 -0.050999999 0
-0.61400002 -5.8439999 -0.057999998 0
-0.99599999 -9.6090002 -0.226 0
-0.81199998 -8.125 -0.16 0
-0.59899998 -6.2470002 -0.075999998 0.12
-0.57599998 -6.223 -0.074000001 0
-0.75400001 -8.4680004 -0.175 0.31999999
-0.69800001 -8.1440001 -0.16 0
-0.61699998 -7.7820001 -0.14399999 0
-0.42300001 -5.651 -0.048 0
-0.403 -5.6259999 -0.046999998 0
-0.39399999 -5.6209998 -0.046999998 0
-0.37900001 -5.6620002 -0.048999999 0
-0.37 -5.7930002 -0.055 0.12
-0.34999999 -5.7659998 -0.052999999 0.090000004
-0.33199999 -5.7670002 -0.052999999 0.079999998
-0.308 -5.6739998 -0.048999999 0
-0.28799999 -5.6269999 -0.046999998 0.13
-0.38 -7.9530001 -0.15099999 0.17
-0.38299999 -8.5410004 -0.177 0.18000001
-0.36500001 -8.7379999 -0.185 0
-0.235 -6.2810001 -0.075999998 0
-0.208 -6.0939999 -0.068000004 0.050000001
-0.2 -6.1290002 -0.068999998 0.090000004
-0.18099999 -6.131 -0.068999998 0
-0.161 -6.1199999 -0.068999998 0
-0.141 -6.1040001 -0.068000004 0
-0.123 -6.1430001 -0.07 0
-0.104 -6.1490002 -0.07 0
-0.085000001 -6.1469998 -0.07 0
-0.075999998 -6.211 -0.072999999 0
-0.057 -6.2779999 -0.075999998 0
-0.030999999 -5.6459999 -0.048 0
-0.013 -5.6360002 -0.046999998 0
0.0040000002 -5.7220001 -0.050999999 0
0.022 -5.6300001 -0.046999998 0
0.048 -5.6020002 -0.046 0.31999999
0.066 -5.612 -0.046 0.2
0.083999999 -5.658 -0.048 0
0.102 -5.6360002 -0.046999998 0
0.12 -5.665 -0.048 0
0.14 -5.7950001 -0.054000001 0.1
0.15800001 -5.7800002 -0.054000001 0
0.16599999 -5.7519999 -0.052000001 0
0.184 -5.7210002 -0.050999999 0
0.2 -5.6630001 -0.048 0
0.22 -5.7179999 -0.050999999 0
0.236 -5.6820002 -0.048999999 0.090000004
0.36700001 -8.4960003 -0.175 0.25
0.34799999 -7.441 -0.12800001 0
0.35699999 -7.3720002 -0.125 0
0.31999999 -6.1300001 -0.068999998 0
0.33399999 -6.0149999 -0.064000003 0.059999999
0.35100001 -5.9840002 -0.063000001 0
0.37 -5.9850001 -0.063000001 0.090000004
0.5 -7.8200002 -0.145 0.17
0.52100003 -7.7550001 -0.142 0
0.39899999 -5.7020001 -0.050999999 0
0.41600001 -5.691 -0.050000001 0.059999999
0.56599998 -7.5349998 -0.133 0
0.66000003 -8.1269999 -0.15899999 0
0.66799998 -7.908 -0.149 0
0.69199997 -7.902 -0.149 0.039999999
0.63599998 -7.105 -0.114 0.11
0.755 -8.1789999 -0.162 0
0.67299998 -7.0089998 -0.11 0.07
0.73900002 -7.4759998 -0.131 0.1
0.80900002 -7.9390001 -0.15099999 0.11
0.77600002 -7.3720002 -0.126 0
0.76599997 -7.1620002 -0.117 0.090000004
0.78899997 -7.164 -0.117 0
0.838 -7.4029999 -0.12800001 0
0.83099997 -7.1329999 -0.116 0.12
0.85399997 -7.1300001 -0.116 0.19
1.005 -8.2110004 -0.164 0
1.029 -8.1920004 -0.164 0
0.70300001 -5.4619999 -0.041000001 0.07
0.72600001 -5.5009999 -0.043000001 0.14
0.74800003 -5.5320001 -0.045000002 0
0.76300001 -5.5120001 -0.044 0
1.105 -7.8889999 -0.15099999 0
1.127 -7.8600001 -0.15000001 0.07
0.82999998 -5.6110001 -0.048999999 0.14
0.83200002 -5.5650001 -0.046999998 0.1
0.84600002 -5.54 -0.046 0.13
0.86400002 -5.54 -0.046 0.33000001
0.87900001 -5.5190001 -0.045000002 0.2
0.89700001 -5.52 -0.045000002 0.16
0.91399997 -5.5149999 -0.045000002 0.31999999
0.93699998 -5.552 -0.046999998 0.2
0.94599998 -5.5479999 -0.046999998 0
0.96799999 -5.573 -0.048 0.13
0.97600001 -5.513 -0.045000002 0.1
0.98900002 -5.4860001 -0.044 0.16
1.005 -5.4770002 -0.044 0.18000001
1.018 -5.4499998 -0.043000001 0.34
1.029 -5.461 -0.044 0.2
1.04 -5.428 -0.041999999 0.1
1.0650001 -5.4679999 -0.044 0.14
1.082 -5.4619999 -0.044 0.16
1.097 -5.4450002 -0.043000001 0
1.123 -5.4889998 -0.046 0.12
1.146 -5.5149999 -0.046999998 0.28
1.1569999 -5.5250001 -0.046999998 0
1.178 -5.5370002 -0.048 0
6.7210002 -31.202999 -1.216 0
1.198 -5.5450001 -0.048999999 0
6.8109999 -31.143999 -1.214 0
6.9109998 -31.132999 -1.215 0
1.267 -5.527 -0.048999999 0
1.267 -5.4840002 -0.046999998 0
1.273 -5.4330001 -0.045000002 0
1.29 -5.4289999 -0.045000002 0
1.35 -5.6079998 -0.052999999 0
7.46 -30.636 -1.199 0
1.383 -5.6659999 -0.056000002 0
1.416 -5.6479998 -0.055 0
7.77 -30.851 -1.211 0.059999999
1.421 -5.6300001 -0.055 0
7.9130001 -31.007 -1.22 0.090000004
7.9689999 -30.823 -1.212 0.13
8.1070004 -30.955999 -1.22 0.13
2.2920001 -8.5139999 -0.189 0.20999999
2.312 -8.4799995 -0.18700001 0.51999998
2.3629999 -8.5629997 -0.192 0.25999999
2.3640001 -8.3579998 -0.183 0.49000001
2.391 -8.3559999 -0.183 0.18000001
2.395 -8.2679996 -0.17900001 0.16
2.3870001 -8.191 -0.176 0.50999999
2.4749999 -8.3999996 -0.186 0.18000001
2.4579999 -8.243 -0.17900001 0.33000001
2.201 -7.289 -0.13500001 0.12
2.5339999 -8.2159996 -0.17900001 0.18000001
2.533 -8.1219997 -0.175 0.55000001
2.585 -8.1520004 -0.177 0.31
2.6819999 -8.368 -0.18700001 0.19
2.658 -8.1149998 -0.176 0.22
2.7690001 -8.3669996 -0.18799999 0.19
2.7379999 -8.1879997 -0.18000001 0.16
2.8870001 -8.5909996 -0.2 0.25
3.2090001 -9.4610004 -0.241 0.22
3.03 -8.8360004 -0.212 0.19
3.4070001 -9.8430004 -0.25999999 0.27000001
3.3399999 -9.5509996 -0.24600001 0.58999997
3.415 -9.6680002 -0.252 0.20999999
2.7420001 -7.671 -0.15899999 0.27000001
