# .PCD v0.7 - Point Cloud Data file format
VERSION 0.7
FIELDS x y z intensity
SIZE 4 4 4 4
TYPE F F F F
COUNT 1 1 1 1
WIDTH 1466
HEIGHT 1
VIEWPOINT 0 0 0 1 0 0 0
POINTS 1466
DATA ascii
-4.8779998 -2.526 -1.852 0.27000001
-4.8720002 -2.5420001 -1.853 0.28999999
-4.8670001 -2.559 -1.854 0.30000001
-4.8559999 -2.573 -1.853 0.31
-4.8309999 -2.579 -1.846 0.31999999
-4.8280001 -2.5969999 -1.848 0.28999999
-4.829 -2.6170001 -1.852 0.28999999
-4.8119998 -2.618 -1.847 0.27000001
-4.8200002 -2.642 -1.853 0.23999999
-4.7989998 -2.6500001 -1.848 0.16
-4.7820001 -2.6600001 -1.845 0.30000001
-4.7849998 -2.6819999 -1.849 0.25
-4.7750001 -2.6960001 -1.849 0.25999999
-4.7589998 -2.7060001 -1.845 0.27000001
-4.7480001 -2.71 -1.842 0.27000001
-4.7490001 -2.7309999 -1.847 0.25999999
-4.7389998 -2.7449999 -1.846 0.25
-4.737 -2.763 -1.849 0.16
-4.7199998 -2.773 -1.845 0.28999999
-4.7160001 -2.7909999 -1.847 0.23999999
-4.704 -2.8039999 -1.846 0.28
-4.7010002 -2.812 -1.847 0.27000001
-4.7069998 -2.836 -1.853 0.25999999
-4.6880002 -2.845 -1.849 0.25999999
-4.6729999 -2.855 -1.846 0.27000001
-4.6900001 -2.8859999 -1.857 0.25
-4.6560001 -2.8859999 -1.847 0.16
-4.6409998 -2.8959999 -1.844 0.31
-4.6479998 -2.911 -1.849 0.25
-4.6370001 -2.924 -1.848 0.27000001
-4.6290002 -2.9400001 -1.849 0.27000001
-4.6220002 -2.9549999 -1.849 0.27000001
-4.6059999 -2.9660001 -1.847 0.25999999
-4.6030002 -2.984 -1.849 0.27000001
-4.612 -3.0109999 -1.857 0.25
-4.5840001 -3.003 -1.847 0.15000001
-4.573 -3.016 -1.847 0.30000001
-4.5710001 -3.036 -1.85 0.25
-4.5560002 -3.046 -1.847 0.16
-4.5409999 -3.0569999 -1.845 0.30000001
-4.5430002 -3.079 -1.85 0.23999999
-4.527 -3.089 -1.847 0.25999999
-4.5190001 -3.0940001 -1.846 0.25999999
-4.506 -3.1059999 -1.845 0
-4.4819999 -3.1099999 -1.8380001 0
-3.178 -2.2290001 -1.274 0
-3.1619999 -2.233 -1.27 0
-3.141 -2.233 -1.2640001 0
-3.1259999 -2.237 -1.26 0
-3.115 -2.237 -1.257 0
-3.092 -2.2360001 -1.25 0
-3.0940001 -2.2520001 -1.2539999 0
-3.1070001 -2.276 -1.263 0
-3.1240001 -2.303 -1.274 0
-3.0369999 -2.2539999 -1.238 0
-2.6459999 -2.2030001 -1.1160001 0
-2.628 -2.2019999 -1.1109999 0
-2.602 -2.194 -1.102 0
-2.595 -2.2019999 -1.102 0
-2.5780001 -2.1960001 -1.096 0
-2.553 -2.188 -1.087 0
-2.539 -2.1900001 -1.084 0
-2.536 -2.2019999 -1.086 0
-2.5320001 -2.2119999 -1.087 0
-2.5020001 -2.2 -1.077 0
-2.4879999 -2.2019999 -1.073 0
-2.4760001 -2.198 -1.069 0
-2.4749999 -2.211 -1.072 0
-2.45 -2.2030001 -1.063 0
-2.4289999 -2.198 -1.056 0
-2.4089999 -2.194 -1.05 0
-2.4070001 -2.2049999 -1.052 0
-2.3800001 -2.1949999 -1.043 0
-2.381 -2.2030001 -1.045 0
-2.3629999 -2.2 -1.039 0
-2.3529999 -2.2049999 -1.038 0
-2.3280001 -2.1960001 -1.029 0
-2.312 -2.194 -1.025 0
-2.3080001 -2.204 -1.026 0
-2.29 -2.201 -1.021 0
-2.2750001 -2.194 -1.015 0
-2.27 -2.2019999 -1.016 0
-2.2509999 -2.198 -1.01 0
-2.233 -2.194 -1.0039999 0
-2.233 -2.2079999 -1.008 0
-2.211 -2.2 -1 0
-2.2030001 -2.2 -0.99800003 0
-2.191 -2.2019999 -0.99599999 0
-2.171 -2.1949999 -0.98900002 0
-2.148 -2.1860001 -0.98100001 0
-2.1459999 -2.198 -0.98299998 0
-2.1300001 -2.1949999 -0.97899997 0
-2.1099999 -2.1889999 -0.972 0
-2.1129999 -2.1989999 -0.97500002 0
-2.0869999 -2.1849999 -0.96499997 0
-2.092 -2.204 -0.97100002 0
-2.0650001 -2.1900001 -0.96100003 0
-2.056 -2.194 -0.95999998 0
-2.053 -2.204 -0.96200001 0
-2.0339999 -2.198 -0.95599997 0
-2.026 -2.1960001 -0.95300001 0
-2.0150001 -2.198 -0.95099998 0
-2.0050001 -2.2019999 -0.94999999 0
-1.988 -2.197 -0.94400001 0
-1.974 -2.1949999 -0.94 0
-1.964 -2.198 -0.93900001 0
-1.956 -2.2030001 -0.93800002 0
-1.954 -2.2079999 -0.93900001 0
-1.927 -2.191 -0.92799997 0
-1.915 -2.1919999 -0.92500001 0
-1.905 -2.1949999 -0.92400002 0
-1.9 -2.2019999 -0.92500001 0
-1.876 -2.188 -0.91500002 0
-1.885 -2.2130001 -0.92400002 0
-1.873 -2.2060001 -0.91900003 0
-1.852 -2.1960001 -0.912 0
-1.842 -2.197 -0.91000003 0
-1.841 -2.21 -0.91299999 0
-1.818 -2.197 -0.90399998 0
-1.8099999 -2.2019999 -0.90399998 0
-1.799 -2.2030001 -0.90200001 0
-1.803 -2.2149999 -0.90600002 0
-1.77 -2.188 -0.89099997 0
-1.78 -2.214 -0.89999998 0
-1.773 -2.22 -0.89999998 0
-1.756 -2.214 -0.89499998 0
-1.7410001 -2.2090001 -0.88999999 0
-1.7410001 -2.223 -0.89399999 0
-1.7359999 -2.224 -0.89399999 0
-1.728 -2.2279999 -0.89300001 0
-1.724 -2.237 -0.89399999 0
-1.7079999 -2.2320001 -0.88999999 0
-1.699 -2.234 -0.88800001 0
-1.689 -2.2349999 -0.88599998 0
-1.67 -2.2249999 -0.87900001 0
-1.658 -2.2160001 -0.87400001 0
-1.66 -2.233 -0.87900001 0
-1.6390001 -2.22 -0.87099999 0
-1.638 -2.233 -0.875 0
-1.633 -2.2409999 -0.87599999 0
-1.626 -2.2460001 -0.87599999 0
-1.603 -2.23 -0.86699998 0
-2.1689999 -3.052 -1.225 0
-2.1730001 -3.0769999 -1.233 0.059999999
-2.171 -3.095 -1.237 0.13
-2.1389999 -3.0710001 -1.224 0.050000001
-2.1159999 -3.0569999 -1.215 0
-1.655 -2.4100001 -0.93000001 0
-1.6339999 -2.395 -0.921 0.050000001
-1.637 -2.4159999 -0.92799997 0.039999999
-1.622 -2.4100001 -0.92299998 0.07
-1.604 -2.3989999 -0.917 0.039999999
-1.6 -2.411 -0.91900003 0.07
-1.597 -2.4130001 -0.91900003 0.15000001
-1.5779999 -2.402 -0.912 0.17
-1.574 -2.4119999 -0.91500002 0.1
-1.559 -2.4059999 -0.91000003 0.14
-1.553 -2.4119999 -0.91000003 0.059999999
-1.561 -2.441 -0.921 0.14
-1.544 -2.4319999 -0.91500002 0.050000001
-1.55 -2.45 -0.921 0.12
-1.553 -2.4719999 -0.92900002 0.050000001
-1.5549999 -2.4909999 -0.935 0.16
-1.5599999 -2.517 -0.94400001 0.11
-1.559 -2.533 -0.94800001 0.14
-1.552 -2.539 -0.949 0.059999999
-1.557 -2.5650001 -0.958 0.16
-1.5650001 -2.5869999 -0.96600002 0.11
-1.546 -2.5739999 -0.958 0.14
-1.552 -2.6010001 -0.96799999 0.059999999
-1.549 -2.6159999 -0.972 0.16
-1.545 -2.6270001 -0.97500002 0.11
-1.551 -2.6559999 -0.98500001 0.16
-1.546 -2.6659999 -0.98699999 0.12
-1.554 -2.6900001 -0.99599999 0.14
-1.5420001 -2.6900001 -0.99400002 0.25
-1.533 -2.6930001 -0.99299997 0.16
-1.5319999 -2.711 -0.99800003 0.13
-1.534 -2.733 -1.006 0.17
-1.524 -2.737 -1.005 0.12
-1.522 -2.753 -1.01 0.15000001
-1.518 -2.7550001 -1.01 0.13
-1.518 -2.776 -1.016 0.2
-1.508 -2.7780001 -1.015 0.12
-1.505 -2.7939999 -1.02 0.28
-1.512 -2.8269999 -1.031 0.20999999
-1.4910001 -2.8099999 -1.023 0.23
-1.494 -2.836 -1.031 0.34999999
-1.498 -2.8540001 -1.0369999 0.31999999
-1.4809999 -2.8429999 -1.031 0.30000001
-1.473 -2.8499999 -1.0319999 0.27000001
-1.465 -2.8559999 -1.033 0.23
-1.444 -2.8369999 -1.023 0.13
-1.443 -2.858 -1.03 0.31
-1.442 -2.878 -1.036 0.23
-1.434 -2.8740001 -1.033 0.13
-1.425 -2.878 -1.033 0.30000001
-1.427 -2.904 -1.0420001 0.18000001
-1.413 -2.8989999 -1.038 0.14
-1.42 -2.937 -1.052 0.15000001
-1.413 -2.9449999 -1.053 0.22
-1.431 -3.0050001 -1.075 0.17
-1.451 -3.0599999 -1.096 0.18000001
-1.446 -3.073 -1.1 0.1
-1.425 -3.079 -1.098 0.28999999
-1.425 -3.1029999 -1.1059999 0.16
-1.409 -3.0940001 -1.101 0.13
-1.434 -3.161 -1.127 0.14
-1.443 -3.207 -1.143 0.25
-1.462 -3.277 -1.168 0.15000001
-1.45 -3.276 -1.166 0.28
-1.457 -3.3199999 -1.182 0.12
-1.447 -3.325 -1.182 0.28
-1.454 -3.3710001 -1.198 0.16
-1.437 -3.345 -1.187 0
-1.427 -3.3510001 -1.188 0
-1.4170001 -3.4760001 -1.228 0.090000004
-1.431 -3.5250001 -1.2460001 0.18000001
-1.418 -3.526 -1.245 0.2
-1.4220001 -3.566 -1.258 0.17
-1.4119999 -3.573 -1.26 0.090000004
-1.402 -3.5810001 -1.261 0.14
-1.3839999 -3.5699999 -1.255 0.23999999
-1.378 -3.5869999 -1.26 0.16
-1.3609999 -3.5610001 -1.249 0.14
-1.349 -3.5610001 -1.247 0.20999999
-1.3380001 -3.5669999 -1.248 0.13
-1.316 -3.5420001 -1.237 0.30000001
-1.317 -3.5780001 -1.249 0.19
-1.314 -3.6059999 -1.258 0
-1.281 -3.55 -1.235 0
-0.87400001 -2.4579999 -0.81699997 0
-0.86400002 -2.4560001 -0.815 0
-0.73500001 -2.2869999 -0.74299997 0
-0.73000002 -2.296 -0.74599999 0.059999999
-0.72600001 -2.3080001 -0.74900001 0.16
-0.71100003 -2.2869999 -0.74000001 0.20999999
-0.708 -2.289 -0.741 0.18000001
-0.704 -2.3010001 -0.74400002 0.25
-0.69 -2.283 -0.73699999 0
-0.68199998 -2.283 -0.736 0
-0.68199998 -2.3069999 -0.74400002 0
-0.66299999 -2.27 -0.72899997 0
-0.66100001 -2.2920001 -0.73699999 0
-0.64099997 -2.2880001 -0.73400003 0
-0.639 -2.3080001 -0.74000001 0
-0.62699997 -2.293 -0.73400003 0
-0.62699997 -2.3210001 -0.74400002 0
-0.62300003 -2.322 -0.74400002 0
-0.51899999 -2.4449999 -0.778 0
-0.23899999 -2.638 -0.83099997 0
-0.235 -2.6819999 -0.847 0
-0.228 -2.694 -0.85100001 0.050000001
-0.223 -2.688 -0.84899998 0.039999999
-0.214 -2.687 -0.84799999 0.07
-0.208 -2.707 -0.85500002 0.079999998
-0.198 -2.7 -0.852 0.090000004
-0.192 -2.7290001 -0.86299998 0
-0.18000001 -2.684 -0.84600002 0
-0.17200001 -2.688 -0.84799999 0
-0.167 -2.674 -0.84200001 0
-0.43000001 -8.0950003 -2.789 0
-0.40400001 -8.0810003 -2.7839999 0
-0.134 -6.4419999 -2.1930001 0
-0.114 -6.4650002 -2.201 0
-0.093999997 -6.4790001 -2.2060001 0
2.342 -4.3319998 -1.648 0
2.346 -4.3060002 -1.641 0.02
2.3629999 -4.3060002 -1.643 0.12
2.378 -4.302 -1.645 0.16
2.3900001 -4.2909999 -1.643 0.090000004
2.4070001 -4.3049998 -1.651 0.14
2.414 -4.2859998 -1.646 0.25
2.4319999 -4.2870002 -1.649 0.19
2.4449999 -4.2789998 -1.649 0.12
2.457 -4.2680001 -1.648 0.18000001
2.4679999 -4.2550001 -1.646 0.11
2.487 -4.2589998 -1.651 0.19
2.4890001 -4.2449999 -1.647 0.11
2.4949999 -4.2259998 -1.642 0.2
2.51 -4.2210002 -1.643 0.14
2.527 -4.2199998 -1.646 0.28999999
2.5550001 -4.2360001 -1.656 0.22
2.5599999 -4.2140002 -1.65 0.14
2.5710001 -4.2020001 -1.649 0.31
2.582 -4.2049999 -1.651 0.25
2.5940001 -4.1950002 -1.651 0.27000001
2.6040001 -4.1820002 -1.649 0.16
2.612 -4.1659999 -1.645 0.30000001
2.631 -4.1669998 -1.649 0.25
2.641 -4.1539998 -1.647 0.25999999
2.654 -4.1459999 -1.647 0.25999999
2.664 -4.1469998 -1.649 0.27000001
2.6730001 -4.132 -1.647 0.25999999
2.6900001 -4.1300001 -1.649 0.16
2.6889999 -4.1009998 -1.641 0.30000001
2.7160001 -4.1129999 -1.649 0.25
2.73 -4.1059999 -1.65 0.28
2.7309999 -4.0939999 -1.647 0.27000001
2.744 -4.085 -1.647 0.28
2.7620001 -4.0840001 -1.65 0.27000001
2.77 -4.0689998 -1.647 0.25999999
2.7809999 -4.0570002 -1.646 0.27000001
2.7950001 -4.0500002 -1.647 0.28
2.8050001 -4.0380001 -1.645 0.27000001
2.8139999 -4.0370002 -1.647 0.28
2.8239999 -4.0250001 -1.645 0.27000001
2.839 -4.0190001 -1.647 0.28
2.8510001 -4.0089998 -1.646 0.28999999
2.8729999 -4.0139999 -1.652 0.23999999
2.8399999 -3.9400001 -1.624 0.23999999
2.437 -3.3529999 -1.368 0.2
2.4349999 -3.3380001 -1.364 0.28
2.4360001 -3.3169999 -1.358 0.28999999
2.4389999 -3.3 -1.354 0.36000001
2.4449999 -3.2869999 -1.351 0.30000001
2.4519999 -3.2739999 -1.349 0.36000001
2.4519999 -3.253 -1.3430001 0.30000001
2.4579999 -3.2390001 -1.34 0.36000001
2.4560001 -3.2260001 -1.336 0.30000001
2.46 -3.21 -1.332 0.33000001
2.464 -3.194 -1.329 0.34
2.461 -3.1700001 -1.321 0.31999999
2.4579999 -3.145 -1.313 0.28999999
2.454 -3.119 -1.3049999 0.27000001
2.4530001 -3.098 -1.299 0.27000001
2.448 -3.082 -1.293 0.28999999
2.448 -3.0610001 -1.2869999 0.28
2.457 -3.053 -1.2869999 0.27000001
2.461 -3.0380001 -1.284 0.28
2.461 -3.0190001 -1.279 0.28999999
2.467 -3.007 -1.277 0.30000001
2.46 -2.9879999 -1.27 0.30000001
2.4579999 -2.967 -1.2640001 0.27000001
2.464 -2.9549999 -1.262 0.33000001
2.464 -2.9360001 -1.256 0.28
2.4619999 -2.915 -1.25 0.28999999
2.4649999 -2.9000001 -1.247 0.28999999
2.4679999 -2.885 -1.243 0.28999999
2.47 -2.878 -1.242 0.31
2.48 -2.8710001 -1.242 0.30000001
2.4679999 -2.839 -1.2309999 0.28999999
2.474 -2.8280001 -1.229 0.31999999
2.4990001 -2.839 -1.238 0.31999999
2.4790001 -2.7980001 -1.222 0.15000001
2.4619999 -2.7609999 -1.2079999 0.34
2.516 -2.813 -1.235 0.23
2.474 -2.7479999 -1.2079999 0
2.4849999 -2.743 -1.209 0
2.4860001 -2.7260001 -1.205 0
2.4909999 -2.714 -1.2029999 0
2.494 -2.701 -1.2 0
2.5 -2.6900001 -1.199 0
2.5009999 -2.6819999 -1.197 0
2.5039999 -2.6689999 -1.194 0
2.5150001 -2.664 -1.1950001 0
2.5209999 -2.6530001 -1.194 0
2.5250001 -2.641 -1.192 0
2.523 -2.622 -1.187 0
2.5339999 -2.6170001 -1.188 0
2.5420001 -2.6170001 -1.1900001 0
2.566 -2.625 -1.198 0
2.5699999 -2.6129999 -1.196 0
2.573 -2.5999999 -1.193 0
2.589 -2.5999999 -1.197 0
2.592 -2.586 -1.1950001 0
2.612 -2.598 -1.2029999 0
2.6199999 -2.5899999 -1.2029999 0
2.615 -2.5680001 -1.196 0
2.6389999 -2.576 -1.204 0
2.651 -2.572 -1.206 0
2.6500001 -2.5539999 -1.202 0
2.674 -2.562 -1.21 0
2.6889999 -2.5680001 -1.215 0
2.723 -2.5840001 -1.228 0
2.7539999 -2.598 -1.239 0
2.773 -2.5999999 -1.245 0.050000001
2.7809999 -2.5910001 -1.245 0.14
2.8010001 -2.5940001 -1.251 0.18000001
2.8 -2.576 -1.2460001 0.039999999
2.822 -2.5880001 -1.255 0.07
2.836 -2.5840001 -1.258 0
2.835 -2.5680001 -1.2539999 0
2.8380001 -2.5539999 -1.251 0
2.8629999 -2.5599999 -1.2589999 0
2.8900001 -2.569 -1.268 0
2.8970001 -2.5580001 -1.268 0
2.9159999 -2.5680001 -1.275 0
2.937 -2.5699999 -1.281 0
2.9549999 -2.569 -1.286 0
2.9719999 -2.5669999 -1.29 0
2.984 -2.562 -1.2920001 0
2.9990001 -2.5580001 -1.295 0
3.0139999 -2.5550001 -1.299 0
3.0309999 -2.5610001 -1.3049999 0
3.0420001 -2.5539999 -1.306 0
3.069 -2.5599999 -1.3150001 0
3.0710001 -2.546 -1.312 0
3.085 -2.5409999 -1.3150001 0
3.1010001 -2.539 -1.319 0.029999999
3.118 -2.536 -1.323 0.029999999
3.155 -2.559 -1.339 0.14
3.184 -2.5650001 -1.348 0.050000001
3.303 -2.6459999 -1.399 0
3.3380001 -2.6559999 -1.4119999 0.059999999
3.346 -2.6459999 -1.4119999 0.039999999
3.313 -2.6029999 -1.393 0.14
3.289 -2.575 -1.38 0.16
3.2939999 -2.562 -1.378 0.14
3.325 -2.5699999 -1.3890001 0.2
3.362 -2.582 -1.402 0.25
3.3989999 -2.5929999 -1.415 0.28
3.4189999 -2.592 -1.42 0.30000001
3.4330001 -2.586 -1.423 0.28999999
3.4590001 -2.5969999 -1.433 0.28999999
3.4779999 -2.595 -1.438 0.30000001
3.507 -2.599 -1.447 0.31999999
3.5309999 -2.5999999 -1.454 0.30000001
3.5599999 -2.6040001 -1.464 0.30000001
3.5739999 -2.5969999 -1.466 0.31
3.6040001 -2.602 -1.476 0.23
3.678 -2.6470001 -1.507 0.25
4.177 -2.9909999 -1.724 0.16
4.1890001 -2.98 -1.726 0.28
4.2020001 -2.9690001 -1.727 0.23999999
4.2280002 -2.9679999 -1.734 0.17
4.2160001 -2.9389999 -1.725 0.27000001
4.2309999 -2.9300001 -1.728 0.25
4.23 -2.9189999 -1.725 0.16
4.237 -2.905 -1.724 0.28
4.2540002 -2.8970001 -1.728 0.25
4.2480001 -2.8729999 -1.721 0.17
4.2610002 -2.8629999 -1.723 0.28
4.2810001 -2.8570001 -1.728 0.23999999
4.2979999 -2.849 -1.7309999 0.25
4.2930002 -2.836 -1.727 0.15000001
4.2969999 -2.819 -1.725 0.28999999
4.3039999 -2.8039999 -1.724 0.25
4.3130002 -2.7909999 -1.724 0.15000001
4.3200002 -2.776 -1.724 0.28999999
4.3210001 -2.7579999 -1.72 0.23
4.336 -2.7479999 -1.723 0.18000001
4.342 -2.7420001 -1.724 0.28
4.3460002 -2.7260001 -1.722 0.23
4.3579998 -2.714 -1.723 0.15000001
4.3629999 -2.698 -1.722 0.28999999
4.3699999 -2.6830001 -1.721 0.23
4.381 -2.6719999 -1.722 0.17
4.3759999 -2.6589999 -1.7180001 0.27000001
4.3860002 -2.6459999 -1.719 0.22
4.4120002 -2.6429999 -1.726 0.16
4.402 -2.619 -1.719 0.28
4.4169998 -2.609 -1.722 0.22
4.427 -2.596 -1.722 0.17
4.4159999 -2.5699999 -1.714 0.27000001
4.428 -2.5680001 -1.7180001 0.22
4.4520001 -2.5639999 -1.724 0.16
4.4419999 -2.539 -1.717 0.28
4.4619999 -2.5320001 -1.722 0.23
4.4679999 -2.517 -1.721 0.17
4.474 -2.5020001 -1.72 0.27000001
4.474 -2.483 -1.717 0.23
4.4860001 -2.4809999 -1.72 0.15000001
4.4840002 -2.461 -1.716 0.28
4.4879999 -2.4449999 -1.715 0.23
4.494 -2.4300001 -1.714 0.17
4.5029998 -2.4170001 -1.715 0.27000001
4.5139999 -2.405 -1.716 0.23
4.5250001 -2.392 -1.7180001 0.17
4.5240002 -2.382 -1.716 0.27000001
4.5279999 -2.3670001 -1.714 0.23
4.5339999 -2.3510001 -1.7130001 0.18000001
4.5409999 -2.3369999 -1.7130001 0.14
4.5549998 -2.326 -1.716 0.20999999
4.5619998 -2.312 -1.716 0.14
4.5609999 -2.293 -1.7130001 0.28999999
4.572 -2.29 -1.716 0.23
4.5799999 -2.276 -1.716 0.17
4.5739999 -2.2550001 -1.711 0.25999999
4.5879998 -2.244 -1.7130001 0.22
4.598 -2.2309999 -1.715 0.17
4.599 -2.2130001 -1.712 0.27000001
4.6069999 -2.2 -1.7130001 0.23
4.612 -2.1930001 -1.7130001 0.18000001
4.6139998 -2.1760001 -1.711 0.28
4.6209998 -2.1619999 -1.711 0.22
4.6290002 -2.148 -1.712 0.14
4.631 -2.131 -1.71 0.28999999
4.6389999 -2.1170001 -1.711 0.23
4.6339998 -2.1059999 -1.707 0.15000001
4.6440001 -2.0929999 -1.709 0.28999999
4.6469998 -2.0769999 -1.707 0.25
4.6490002 -2.0599999 -1.705 0.14
4.6550002 -2.046 -1.705 0.28999999
4.677 -2.0380001 -1.711 0.22
4.6799998 -2.0220001 -1.71 0.15000001
4.678 -2.0120001 -1.7079999 0.28
4.6880002 -1.999 -1.709 0.23
4.6869998 -1.9809999 -1.707 0.15000001
4.6950002 -1.967 -1.707 0.28999999
4.7049999 -1.954 -1.709 0.23
4.7160001 -1.941 -1.711 0.15000001
4.7059999 -1.92 -1.705 0.28999999
4.7160001 -1.915 -1.707 0.25
4.7290001 -1.903 -1.71 0.15000001
4.7249999 -1.8839999 -1.706 0.28999999
4.7290001 -1.869 -1.705 0.23999999
4.7519999 -1.8609999 -1.712 0.15000001
4.7350001 -1.837 -1.7029999 0.30000001
4.7519999 -1.826 -1.707 0.23999999
4.7540002 -1.819 -1.707 0.18000001
4.7509999 -1.8 -1.704 0.27000001
4.7589998 -1.786 -1.705 0.22
4.7639999 -1.771 -1.705 0.14
4.7719998 -1.757 -1.705 0.28999999
4.777 -1.742 -1.705 0.23999999
4.7789998 -1.725 -1.704 0.18000001
4.7750001 -1.715 -1.701 0.28
4.7909999 -1.704 -1.705 0.23
4.796 -1.689 -1.705 0.14
4.789 -1.67 -1.701 0.28999999
4.8080001 -1.66 -1.706 0.23
4.8210001 -1.647 -1.709 0.14
4.8130002 -1.627 -1.704 0.28999999
4.823 -1.622 -1.707 0.23
4.8260002 -1.607 -1.706 0.14
4.803 -1.582 -1.6950001 0.28
4.8400002 -1.577 -1.707 0.23
4.8429999 -1.562 -1.707 0.25999999
4.855 -1.549 -1.709 0.27000001
4.8559999 -1.54 -1.709 0.27000001
4.868 -1.528 -1.711 0.27000001
4.8600001 -1.508 -1.707 0.16
4.8569999 -1.4910001 -1.704 0.28999999
4.8660002 -1.477 -1.705 0.22
4.8769999 -1.4630001 -1.7079999 0.15000001
4.8639998 -1.443 -1.701 0.28999999
4.8899999 -1.442 -1.71 0.25
4.8889999 -1.425 -1.7079999 0.17
4.881 -1.406 -1.7029999 0.28
4.8870001 -1.391 -1.704 0.23
4.9039998 -1.38 -1.709 0.17
4.8899999 -1.359 -1.702 0.27000001
4.8940001 -1.344 -1.702 0.23
4.9109998 -1.34 -1.707 0.17
4.8930001 -1.319 -1.699 0.27000001
4.9169998 -1.309 -1.707 0.23
4.9180002 -1.2920001 -1.705 0.17
4.9109998 -1.274 -1.701 0.27000001
4.9200001 -1.26 -1.7029999 0.20999999
4.9130001 -1.2410001 -1.699 0.14
4.908 -1.232 -1.697 0.28999999
4.9369998 -1.223 -1.706 0.22
4.941 -1.207 -1.706 0.17
4.934 -1.189 -1.702 0.28
4.9429998 -1.175 -1.704 0.20999999
4.947 -1.159 -1.704 0.16
4.9390001 -1.141 -1.7 0.27000001
4.96 -1.138 -1.707 0.22
4.9629998 -1.122 -1.707 0.17
4.941 -1.101 -1.697 0.27000001
4.9590001 -1.089 -1.7029999 0.16
4.9499998 -1.0700001 -1.698 0.27000001
4.9549999 -1.0549999 -1.699 0.16
4.9619999 -1.048 -1.701 0.27000001
4.9819999 -1.036 -1.707 0.16
4.9679999 -1.017 -1.701 0.28
4.9790001 -1.003 -1.7029999 0.18000001
4.9619999 -0.98299998 -1.696 0.13
4.9720001 -0.96899998 -1.699 0.2
4.9899998 -0.95700002 -1.704 0.17
4.9840002 -0.94700003 -1.701 0.27000001
4.993 -0.93300003 -1.7029999 0.16
4.9840002 -0.91500002 -1.699 0.25999999
5.0019999 -0.90200001 -1.705 0.18000001
4.9829998 -0.88200003 -1.697 0.23999999
5.0079999 -0.87099999 -1.705 0.16
4.994 -0.852 -1.699 0.27000001
5.0100002 -0.847 -1.704 0.17
4.9920001 -0.82700002 -1.697 0.25
5.0110002 -0.81400001 -1.7029999 0.2
4.993 -0.79500002 -1.6950001 0.23
5.0019999 -0.78100002 -1.697 0.14
4.9980001 -0.764 -1.6950001 0.25999999
5.0079999 -0.74900001 -1.698 0.16
5.0019999 -0.74000001 -1.6950001 0.27000001
5.0190001 -0.727 -1.701 0.17
5.0009999 -0.708 -1.693 0.23
5.0250001 -0.69599998 -1.701 0.18000001
5.02 -0.67900002 -1.699 0.13
5.026 -0.66399997 -1.7 0.20999999
5.0240002 -0.64700001 -1.699 0.17
5.0180001 -0.63800001 -1.696 0.27000001
5.027 -0.62400001 -1.699 0.16
5.026 -0.60699999 -1.697 0.25999999
5.04 -0.59299999 -1.702 0.18000001
5.026 -0.57499999 -1.696 0.25
5.0440001 -0.56099999 -1.702 0.19
5.02 -0.54299998 -1.693 0.23999999
5.0469999 -0.53799999 -1.702 0.16
5.033 -0.51999998 -1.697 0.23999999
5.0560002 -0.50700003 -1.704 0.16
5.027 -0.48800001 -1.693 0.25
5.0619998 -0.47499999 -1.705 0.17
5.0300002 -0.456 -1.693 0.25
5.0580001 -0.44299999 -1.7029999 0.15000001
5.0440001 -0.433 -1.697 0.25999999
5.052 -0.41800001 -1.7 0.15000001
5.0370002 -0.40099999 -1.694 0.25999999
5.0450001 -0.38600001 -1.697 0.20999999
5.0580001 -0.37099999 -1.701 0.17
5.0549998 -0.354 -1.699 0.25999999
5.0689998 -0.347 -1.704 0.18000001
5.0489998 -0.33000001 -1.697 0.25
5.0619998 -0.315 -1.701 0.18000001
5.04 -0.29800001 -1.693 0.25
5.0539999 -0.28299999 -1.697 0.17
5.0479999 -0.266 -1.6950001 0.13
5.0599999 -0.25099999 -1.699 0.20999999
5.066 -0.243 -1.701 0.17
5.0359998 -0.226 -1.6900001 0.25999999
5.0630002 -0.211 -1.699 0.16
5.0510001 -0.19499999 -1.6950001 0.27000001
5.0679998 -0.18000001 -1.701 0.18000001
5.052 -0.163 -1.6950001 0.13
5.052 -0.147 -1.6950001 0.20999999
5.0700002 -0.14 -1.701 0.17
5.053 -0.123 -1.6950001 0.25999999
5.053 -0.108 -1.6950001 0.23
5.046 -0.092 -1.692 0.14
5.0560002 -0.075999998 -1.6950001 0.28999999
5.052 -0.059999999 -1.694 0.23
5.0539999 -0.044 -1.6950001 0.17
5.0510001 -0.035999998 -1.693 0.27000001
5.0619998 -0.02 -1.697 0.22
5.0580001 -0.0040000002 -1.696 0.17
4.8720002 0.0060000001 -1.676 0.22
4.8800001 0.013 -1.679 0.18000001
4.8759999 0.028999999 -1.678 0.28
4.8639998 0.044 -1.673 0.22
4.8769999 0.059 -1.678 0.18000001
4.8660002 0.074000001 -1.674 0.28
4.875 0.090000004 -1.678 0.22
4.8839998 0.105 -1.681 0.17
4.8649998 0.112 -1.674 0.27000001
4.8759999 0.12800001 -1.678 0.23
4.868 0.14300001 -1.675 0.17
4.8660002 0.15800001 -1.675 0.27000001
4.8730001 0.17399999 -1.678 0.22
4.8699999 0.189 -1.677 0.17
4.8660002 0.204 -1.675 0.28
4.8769999 0.213 -1.6799999 0.2
4.8559999 0.227 -1.6720001 0.13
4.8699999 0.243 -1.678 0.20999999
4.8629999 0.25799999 -1.675 0.17
4.8660002 0.273 -1.677 0.25999999
4.8800001 0.28999999 -1.682 0.18000001
4.8590002 0.30399999 -1.675 0.14
4.8559999 0.31099999 -1.674 0.20999999
4.8740001 0.32800001 -1.681 0.18000001
4.8559999 0.34200001 -1.675 0.27000001
4.8740001 0.35800001 -1.682 0.2
4.8579998 0.37200001 -1.676 0.12
4.8720002 0.389 -1.682 0.18000001
4.8629999 0.40400001 -1.679 0.23
4.855 0.41100001 -1.676 0.17
4.8649998 0.42699999 -1.6799999 0.23999999
4.8740001 0.44299999 -1.684 0.18000001
4.8449998 0.456 -1.674 0.25
4.862 0.47299999 -1.681 0.19
4.8460002 0.48699999 -1.675 0.12
4.8449998 0.49399999 -1.675 0.2
4.8639998 0.51200002 -1.683 0.14
4.855 0.52600002 -1.6799999 0.28999999
4.8460002 0.54100001 -1.678 0.18000001
4.8460002 0.55599999 -1.678 0.25
4.8439999 0.57099998 -1.678 0.16
4.835 0.58499998 -1.675 0.28
4.8530002 0.59500003 -1.682 0.18000001
4.8390002 0.60900003 -1.678 0.23
4.8379998 0.62400001 -1.678 0.17
4.8260002 0.63800001 -1.675 0.23999999
4.8410001 0.65600002 -1.681 0.19
4.8200002 0.66799998 -1.674 0.25
4.8369999 0.68599999 -1.681 0.17
4.8280001 0.69300002 -1.678 0.25
4.8390002 0.70999998 -1.683 0.19
4.8239999 0.72299999 -1.678 0.12
4.8140001 0.73699999 -1.675 0.2
4.8169999 0.75300002 -1.678 0.16
4.8189998 0.76899999 -1.679 0.25999999
4.8249998 0.78600001 -1.682 0.22
4.8169999 0.792 -1.6799999 0.16
4.8119998 0.80699998 -1.679 0.27000001
4.8140001 0.82200003 -1.6799999 0.18000001
4.7979999 0.83499998 -1.675 0.23
4.8249998 0.85600001 -1.687 0.16
4.8000002 0.86699998 -1.678 0.25
4.8140001 0.88499999 -1.684 0.18000001
4.8000002 0.88999999 -1.6799999 0.13
4.7880001 0.903 -1.676 0.2
4.7919998 0.92000002 -1.679 0.16
4.776 0.93199998 -1.674 0.25999999
4.79 0.95099998 -1.6799999 0.19
4.776 0.963 -1.676 0.25
4.7870002 0.98100001 -1.682 0.19
4.7620001 0.98400003 -1.673 0.25
4.7740002 1.002 -1.678 0.18000001
4.763 1.015 -1.675 0.25
4.776 1.034 -1.682 0.16
4.7550001 1.045 -1.675 0.25999999
4.7719998 1.064 -1.682 0.18000001
4.7519999 1.076 -1.676 0.23999999
4.7719998 1.0880001 -1.684 0.16
4.7610002 1.101 -1.682 0.25999999
4.7540002 1.1160001 -1.6799999 0.18000001
4.743 1.1289999 -1.678 0.25
4.7490001 1.146 -1.681 0.17
4.7379999 1.159 -1.678 0.23999999
4.7509999 1.17 -1.684 0.17
4.7420001 1.184 -1.682 0.23999999
4.7470002 1.201 -1.6849999 0.18000001
4.73 1.212 -1.6799999 0.13
4.7360001 1.23 -1.684 0.20999999
4.7389998 1.2460001 -1.687 0.17
4.7150002 1.256 -1.679 0.25999999
4.7389998 1.27 -1.689 0.19
4.704 1.277 -1.677 0.14
4.6999998 1.291 -1.677 0.20999999
4.7119999 1.311 -1.683 0.18000001
4.7010002 1.324 -1.6799999 0.27000001
4.7020001 1.34 -1.682 0.22
4.7049999 1.357 -1.6849999 0.17
4.6900001 1.36 -1.6799999 0.27000001
4.6859999 1.375 -1.6799999 0.23
4.6869998 1.391 -1.682 0.15000001
4.677 1.405 -1.6799999 0.28999999
4.671 1.419 -1.6799999 0.25
4.691 1.441 -1.689 0.15000001
4.6690001 1.45 -1.682 0.28999999
4.6700001 1.459 -1.684 0.22
4.6669998 1.474 -1.684 0.17
4.652 1.485 -1.6799999 0.28
4.6529999 1.502 -1.682 0.23
4.6570001 1.5190001 -1.686 0.15000001
4.6430001 1.531 -1.682 0.28999999
4.6350002 1.544 -1.681 0.23999999
4.6479998 1.557 -1.687 0.15000001
4.6290002 1.567 -1.682 0.28999999
4.631 1.584 -1.684 0.23999999
4.6300001 1.599 -1.686 0.16
4.6139998 1.61 -1.682 0.28999999
4.6020002 1.622 -1.679 0.23999999
4.625 1.647 -1.6900001 0.16
4.5999999 1.646 -1.681 0.30000001
4.6030002 1.663 -1.684 0.23999999
4.6090002 1.682 -1.689 0.16
4.5949998 1.693 -1.6849999 0.28999999
4.586 1.706 -1.684 0.23999999
4.598 1.727 -1.691 0.18000001
4.5710001 1.733 -1.682 0.27000001
4.5809999 1.745 -1.687 0.23999999
4.5809999 1.762 -1.689 0.16
4.5489998 1.766 -1.679 0.30000001
4.559 1.786 -1.6849999 0.23999999
4.5619998 1.804 -1.689 0.16
4.5479999 1.8150001 -1.6849999 0.30000001
4.5450001 1.831 -1.687 0.25
4.5689998 1.848 -1.697 0.23
4.5229998 1.846 -1.681 0.18000001
4.5190001 1.8609999 -1.682 0.30000001
4.5250001 1.88 -1.687 0.23
4.5240002 1.897 -1.689 0.16
4.4980001 1.902 -1.6799999 0.28999999
4.5 1.92 -1.684 0.23999999
4.5079999 1.932 -1.688 0.16
4.4889998 1.941 -1.683 0.28999999
4.4920001 1.9579999 -1.687 0.23999999
4.4910002 1.975 -1.689 0.25999999
4.4970002 1.994 -1.693 0.23999999
4.494 2.01 -1.6950001 0.16
4.4650002 2.0050001 -1.684 0.31999999
4.4450002 2.013 -1.679 0.23999999
4.4390001 2.027 -1.679 0.15000001
4.414 2.0320001 -1.671 0.28999999
4.3899999 2.0380001 -1.664 0.23
4.401 2.0599999 -1.671 0.15000001
4.3740001 2.0639999 -1.663 0.28999999
4.3600001 2.066 -1.659 0.23999999
4.3740001 2.0899999 -1.6670001 0.27000001
4.3610001 2.0999999 -1.664 0.25999999
4.3509998 2.112 -1.663 0.17
4.3390002 2.1229999 -1.661 0.27000001
4.3239999 2.1329999 -1.658 0.23
4.3319998 2.154 -1.664 0.2
4.3070002 2.1500001 -1.655 0.27000001
4.3169999 2.1719999 -1.6619999 0.19
4.289 2.174 -1.653 0.25
4.3070002 2.2 -1.663 0.18000001
4.2849998 2.2060001 -1.6569999 0.25
4.2779999 2.22 -1.6569999 0.18000001
4.2659998 2.23 -1.655 0.25
4.2610002 2.2360001 -1.654 0.16
4.2519999 2.2490001 -1.653 0.25
4.263 2.2720001 -1.661 0.22
4.2410002 2.277 -1.655 0.12
4.2389998 2.293 -1.6569999 0.18000001
4.2290001 2.3050001 -1.655 0.12
4.211 2.312 -1.651 0.20999999
4.2210002 2.326 -1.6569999 0.20999999
4.204 2.3340001 -1.653 0.25
4.198 2.348 -1.653 0.15000001
4.1789999 2.355 -1.649 0.28
4.1929998 2.3800001 -1.658 0.18000001
4.1680002 2.3829999 -1.65 0.23999999
4.1700001 2.402 -1.654 0.15000001
4.1560001 2.4030001 -1.65 0.059999999
4.1389999 2.4100001 -1.646 0.17
4.131 2.4230001 -1.646 0.11
4.1500001 2.451 -1.6569999 0.18000001
4.118 2.45 -1.646 0.12
4.112 2.464 -1.647 0.20999999
4.1170001 2.4760001 -1.651 0.15000001
4.0970001 2.4809999 -1.646 0.30000001
4.092 2.4960001 -1.647 0.2
4.086 2.51 -1.648 0.13
4.0560002 2.5090001 -1.638 0.19
4.0560002 2.526 -1.642 0.11
4.0650001 2.55 -1.649 0.18000001
4.0560002 2.553 -1.647 0.12
4.0339999 2.5569999 -1.641 0.18000001
4.0320001 2.5739999 -1.6440001 0.11
4.039 2.596 -1.65 0.18000001
4.0079999 2.5940001 -1.64 0.23
4.0320001 2.6270001 -1.654 0.17
3.9920001 2.619 -1.64 0.23
4.007 2.638 -1.649 0.19
3.967 2.6300001 -1.635 0.23999999
3.974 2.652 -1.642 0.14
3.9519999 2.655 -1.635 0.059999999
3.95 2.6719999 -1.638 0.17
3.9349999 2.6800001 -1.635 0.11
3.931 2.6960001 -1.637 0.18000001
3.9289999 2.7030001 -1.638 0.11
3.914 2.711 -1.635 0.18000001
3.8959999 2.717 -1.631 0.11
3.902 2.7390001 -1.637 0.18000001
3.902 2.7579999 -1.642 0.12
3.881 2.7609999 -1.636 0.28999999
3.882 2.78 -1.64 0.17
3.862 2.7750001 -1.633 0.23
3.869 2.7980001 -1.64 0.16
3.839 2.7950001 -1.631 0.059999999
3.8340001 2.8099999 -1.633 0.18000001
3.8239999 2.8210001 -1.632 0.11
3.8199999 2.836 -1.6339999 0.18000001
3.8150001 2.842 -1.6339999 0.11
3.812 2.859 -1.637 0.16
3.7909999 2.862 -1.631 0.22
3.8050001 2.891 -1.642 0.2
3.77 2.8829999 -1.63 0.25
3.7739999 2.905 -1.636 0.16
3.743 2.9000001 -1.626 0.059999999
3.743 2.9089999 -1.628 0.17
3.7320001 2.9200001 -1.627 0.11
3.7379999 2.9430001 -1.6339999 0.16
3.7049999 2.9360001 -1.623 0.050000001
3.7030001 2.954 -1.626 0.16
3.691 2.9630001 -1.625 0.20999999
3.6889999 2.9809999 -1.628 0.14
3.6800001 2.983 -1.626 0.27000001
3.691 3.0109999 -1.636 0.23
3.6600001 3.0050001 -1.626 0.12
3.6589999 3.023 -1.63 0.18000001
3.631 3.0190001 -1.6210001 0.050000001
3.6329999 3.04 -1.626 0.16
3.6070001 3.0380001 -1.619 0.1
3.6110001 3.0510001 -1.623 0.18000001
3.599 3.0599999 -1.622 0.11
3.609 3.089 -1.631 0.18000001
3.579 3.0829999 -1.622 0.12
3.5710001 3.095 -1.622 0.20999999
3.575 3.119 -1.6289999 0.2
3.553 3.119 -1.623 0.13
3.5469999 3.1229999 -1.622 0.19
3.5380001 3.135 -1.623 0.11
3.533 3.1500001 -1.625 0.16
3.517 3.1559999 -1.622 0.23
3.5039999 3.165 -1.6210001 0.1
3.5050001 3.1860001 -1.626 0.17
3.4820001 3.184 -1.619 0.22
3.4679999 3.1819999 -1.615 0.13
3.4630001 3.197 -1.617 0.25999999
3.4690001 3.223 -1.626 0.20999999
3.4449999 3.221 -1.619 0.12
3.4400001 3.237 -1.622 0.18000001
3.4189999 3.237 -1.6160001 0.11
3.4059999 3.2460001 -1.615 0.18000001
3.4030001 3.2520001 -1.615 0.11
3.398 3.2679999 -1.618 0.15000001
3.3840001 3.2750001 -1.6160001 0.059999999
3.369 3.2809999 -1.614 0.16
3.3640001 3.2969999 -1.617 0.11
3.3629999 3.3169999 -1.622 0.14
3.342 3.306 -1.613 0.050000001
3.3299999 3.316 -1.613 0.17
3.323 3.329 -1.614 0.1
3.323 3.3499999 -1.619 0.16
3.2980001 3.346 -1.612 0.20999999
3.3010001 3.3710001 -1.619 0.16
3.2709999 3.3610001 -1.609 0.050000001
3.2750001 3.375 -1.614 0.17
3.2590001 3.3800001 -1.6109999 0.1
3.26 3.4030001 -1.617 0.16
3.244 3.4070001 -1.615 0
3.105 3.2809999 -1.546 0
2.687 2.852 -1.325 0
2.6789999 2.8599999 -1.325 0.13
2.665 2.855 -1.3200001 0.2
2.651 2.858 -1.317 0.1
2.6559999 2.881 -1.325 0.15000001
2.622 2.862 -1.311 0.11
2.6229999 2.881 -1.317 0.16
2.595 2.868 -1.306 0.23
2.5899999 2.881 -1.308 0.16
2.575 2.8740001 -1.303 0.23
2.572 2.8889999 -1.306 0.16
2.5599999 2.8929999 -1.304 0.25
2.559 2.9100001 -1.309 0.15000001
2.5239999 2.8889999 -1.295 0.25999999
2.539 2.925 -1.308 0.14
2.506 2.904 -1.295 0.25999999
2.5120001 2.921 -1.301 0.15000001
2.4920001 2.9159999 -1.295 0.25999999
2.5039999 2.9489999 -1.306 0.18000001
2.4760001 2.9349999 -1.296 0.25
2.497 2.9790001 -1.313 0.16
2.4579999 2.95 -1.296 0.23999999
2.4690001 2.983 -1.308 0.16
2.4449999 2.9630001 -1.2970001 0.059999999
2.4549999 2.994 -1.308 0.16
2.4360001 2.99 -1.302 0.11
2.451 3.029 -1.317 0.14
2.424 3.0139999 -1.306 0.059999999
2.4330001 3.0450001 -1.317 0.17
2.4260001 3.056 -1.319 0.11
2.4389999 3.0840001 -1.33 0.15000001
2.4219999 3.0810001 -1.325 0.20999999
2.4170001 3.0940001 -1.3279999 0.090000004
2.4059999 3.0999999 -1.327 0.090000004
2.4200001 3.1389999 -1.342 0
2.4820001 3.243 -1.386 0
2.711 3.5569999 -1.529 0.029999999
2.7950001 3.6930001 -1.5880001 0.11
2.793 3.714 -1.5930001 0.050000001
2.7850001 3.7290001 -1.596 0.18000001
2.7650001 3.7249999 -1.59 0.18000001
2.7460001 3.7249999 -1.586 0
2.7130001 3.7030001 -1.572 0
2.4649999 3.3729999 -1.42 0
2.441 3.3610001 -1.411 0
2.421 3.3559999 -1.406 0
2.405 3.3559999 -1.402 0
2.3929999 3.3599999 -1.401 0
2.3699999 3.3510001 -1.393 0
2.359 3.3570001 -1.393 0
2.348 3.3529999 -1.3890001 0
2.3369999 3.3599999 -1.3890001 0
2.322 3.3599999 -1.386 0
2.3139999 3.372 -1.388 0
2.306 3.382 -1.3890001 0
2.3099999 3.411 -1.399 0
2.319 3.448 -1.4119999 0
2.3080001 3.444 -1.409 0
2.313 3.4749999 -1.419 0
2.306 3.4879999 -1.4220001 0
2.332 3.552 -1.447 0
2.3510001 3.6070001 -1.467 0
2.3010001 3.5539999 -1.441 0
2.283 3.55 -1.436 0
2.2820001 3.562 -1.4400001 0
2.2809999 3.585 -1.447 0
2.2939999 3.6300001 -1.4630001 0
2.2969999 3.661 -1.474 0
2.283 3.664 -1.472 0
2.2869999 3.6960001 -1.483 0
2.2780001 3.7079999 -1.485 0
2.283 3.73 -1.492 0
2.2969999 3.78 -1.511 0
2.3180001 3.842 -1.534 0.079999998
2.3770001 3.971 -1.586 0.19
2.3900001 4.02 -1.604 0.18000001
2.3659999 4.0079999 -1.596 0.13
2.365 4.0370002 -1.605 0.17
2.349 4.0229998 -1.597 0.12
2.3440001 4.0450001 -1.604 0.17
2.323 4.0370002 -1.597 0.11
2.316 4.0539999 -1.602 0.18000001
2.296 4.0489998 -1.596 0.12
2.2850001 4.059 -1.597 0.19
2.273 4.0679998 -1.598 0.13
2.267 4.0710001 -1.598 0.28999999
2.257 4.0830002 -1.6 0.16
2.24 4.0840001 -1.597 0.23999999
2.2279999 4.0910001 -1.597 0.17
2.21 4.0900002 -1.594 0.25
2.204 4.1079998 -1.599 0.17
2.1849999 4.1030002 -1.594 0.23999999
2.1819999 4.1139998 -1.597 0.22
2.175 4.132 -1.602 0.18000001
2.1530001 4.1220002 -1.595 0.27000001
2.141 4.131 -1.595 0.16
2.1289999 4.1389999 -1.596 0.25999999
2.1170001 4.1469998 -1.597 0.16
2.0999999 4.1469998 -1.594 0.25
2.105 4.1719999 -1.603 0.2
2.0769999 4.1500001 -1.591 0.12
2.0680001 4.164 -1.594 0.18000001
2.0569999 4.1750002 -1.596 0.13
2.0409999 4.1760001 -1.594 0.28999999
2.029 4.1849999 -1.595 0.23999999
2.0239999 4.191 -1.596 0.25999999
2.0079999 4.191 -1.5930001 0.25999999
2.0050001 4.2189999 -1.602 0.25
1.9910001 4.224 -1.602 0.17
1.965 4.2030001 -1.59 0.30000001
1.96 4.2280002 -1.598 0.25
1.949 4.237 -1.599 0.16
1.9349999 4.2249999 -1.5930001 0.28999999
1.9299999 4.25 -1.601 0.18000001
1.906 4.2319999 -1.591 0.050000001
1.891 4.2319999 -1.589 0
1.252 2.8039999 -1.012 0
1.244 2.8110001 -1.0140001 0
1.228 2.7980001 -1.007 0
1.226 2.8169999 -1.013 0.02
1.226 2.8310001 -1.018 0.029999999
1.215 2.8299999 -1.016 0.039999999
1.219 2.8629999 -1.028 0.15000001
1.216 2.9089999 -1.043 0.33000001
1.2029999 2.902 -1.039 0.20999999
1.186 2.8870001 -1.031 0.050000001
1.175 2.8729999 -1.025 0.039999999
1.156 2.8510001 -1.015 0.07
1.1440001 2.845 -1.011 0.090000004
1.137 2.8559999 -1.0140001 0.20999999
1.1339999 2.875 -1.02 0.22
1.125 2.8770001 -1.0190001 0.27000001
1.119 2.8889999 -1.023 0.15000001
1.1160001 2.8959999 -1.025 0
1.101 2.8840001 -1.0190001 0
1.075 2.8399999 -1 0
1.022 2.7780001 -0.972 0
1.011 2.7750001 -0.97000003 0
1.005 2.7720001 -0.96799999 0
1.003 2.7939999 -0.97500002 0
0.80500001 2.7620001 -0.94099998 0
0.80199999 2.783 -0.94800001 0
0.79100001 2.776 -0.94499999 0
0.787 2.799 -0.95200002 0
0.77499998 2.786 -0.94700003 0
0.764 2.766 -0.93900001 0
0.75599998 2.77 -0.93900001 0
0.75 2.7820001 -0.94300002 0
0.736 2.766 -0.93599999 0
0.73100001 2.7809999 -0.94099998 0
0.71899998 2.7679999 -0.935 0
0.70700002 2.7579999 -0.93000001 0
0.70499998 2.7880001 -0.94099998 0
0.69599998 2.7720001 -0.93400002 0
0.68900001 2.7780001 -0.93599999 0
0.67500001 2.7579999 -0.92699999 0
0.67299998 2.7909999 -0.93900001 0
0.66000003 2.773 -0.93199998 0
0.65600002 2.7969999 -0.94 0
0.64399999 2.7869999 -0.935 0
0.63700002 2.7750001 -0.93000001 0
0.63099998 2.7880001 -0.93400002 0
0.62300003 2.7950001 -0.93599999 0
0.611 2.783 -0.93099999 0
0.602 2.783 -0.93000001 0.029999999
0.59600002 2.7969999 -0.935 0.029999999
0.58499998 2.7880001 -0.93099999 0.07
0.57999998 2.7839999 -0.92900002 0.079999998
0.57200003 2.793 -0.93199998 0.090000004
0.55900002 2.7709999 -0.92299998 0.16
0.54900002 2.767 -0.921 0.23
0.53799999 2.757 -0.91600001 0.23
0.53299999 2.7780001 -0.92299998 0.27000001
0.52700001 2.7709999 -0.921 0.28999999
0.52100003 2.7839999 -0.92500001 0.28999999
0.50999999 2.7720001 -0.92000002 0.28999999
0.49900001 2.763 -0.91600001 0.31
0.49200001 2.776 -0.92000002 0.34
0.48100001 2.7639999 -0.91500002 0.28999999
0.47299999 2.766 -0.91500002 0.36000001
0.46599999 2.78 -0.92000002 0.30000001
0.461 2.773 -0.917 0.36000001
0.45199999 2.777 -0.91799998 0.34999999
0.44499999 2.786 -0.921 0.28999999
0.433 2.7650001 -0.912 0.34999999
0.42399999 2.7639999 -0.912 0.33000001
0.41600001 2.7709999 -0.91399997 0.31
0.40799999 2.7820001 -0.917 0.36000001
0.40200001 2.7690001 -0.912 0.28999999
0.39700001 2.7950001 -0.921 0.34
0.38499999 2.7720001 -0.912 0.31999999
0.377 2.779 -0.91399997 0.31999999
0.37 2.7950001 -0.92000002 0.31
0.359 2.7809999 -0.91399997 0.28999999
0.35100001 2.7839999 -0.91500002 0.28999999
0.34900001 2.8099999 -0.92500001 0.34
0.33700001 2.7820001 -0.91399997 0.28
0.331 2.803 -0.921 0.31999999
0.31999999 2.7869999 -0.91500002 0.25999999
0.31200001 2.8 -0.91900003 0.31999999
0.303 2.799 -0.91799998 0.30000001
0.30000001 2.809 -0.92199999 0.28999999
0.28999999 2.796 -0.917 0.30000001
0.28200001 2.8099999 -0.92199999 0.27000001
0.27399999 2.8150001 -0.92299998 0.28999999
0.264 2.8010001 -0.91799998 0.28999999
0.25299999 2.7809999 -0.91000003 0.25
0.24699999 2.8080001 -0.92000002 0.33000001
0.237 2.8010001 -0.917 0.27000001
0.233 2.8 -0.91600001 0.31
0.22499999 2.812 -0.921 0.25999999
0.215 2.8069999 -0.91799998 0.30000001
0.206 2.802 -0.91600001 0.28999999
0.198 2.819 -0.92299998 0.28
0.189 2.8010001 -0.91600001 0.27000001
0.18000001 2.8080001 -0.91799998 0.23
0.17399999 2.7820001 -0.90799999 0.14
0.16599999 2.7839999 -0.90899998 0.31
0.15800001 2.799 -0.91399997 0.23999999
0.148 2.7809999 -0.90700001 0.14
0.14 2.793 -0.912 0.28999999
0.13 2.773 -0.90399998 0.14
0.122 2.796 -0.912 0.28
0.118 2.7880001 -0.90899998 0.16
0.109 2.8 -0.91399997 0.13
0.1 2.8 -0.91399997 0.14
0.090999998 2.793 -0.91100001 0.13
0.082999997 2.8199999 -0.921 0.16
0.074000001 2.803 -0.91399997 0.12
0.07 2.829 -0.92400002 0.15000001
0.061000001 2.8 -0.91299999 0.050000001
0.052000001 2.8299999 -0.92400002 0.15000001
0.043000001 2.802 -0.91399997 0.19
0.034000002 2.8039999 -0.91399997 0.039999999
0.025 2.8039999 -0.91399997 0
0.017000001 2.8080001 -0.91600001 0
0.0080000004 2.819 -0.92000002 0
0.003 2.826 -0.92299998 0
-0.0049999999 2.7950001 -0.91100001 0
-0.014 2.802 -0.91399997 0
-0.023 2.826 -0.92299998 0
-0.033 2.839 -0.92699999 0
-0.041999999 2.862 -0.93599999 0
-0.050999999 2.8729999 -0.94 0
-0.057 2.9219999 -0.958 0
-0.067000002 2.9349999 -0.963 0
-0.075999998 2.9460001 -0.96700001 0
-0.086999997 2.983 -0.98100001 0
-0.1 3.0739999 -1.015 0
-0.114 3.1659999 -1.048 0.02
-0.124 3.177 -1.053 0
-0.12800001 3.152 -1.044 0
-0.138 3.152 -1.044 0
-0.27500001 4.6539998 -1.599 0.22
-0.292 4.6869998 -1.6109999 0.2
-0.29899999 4.677 -1.608 0.14
-0.31299999 4.678 -1.608 0.31
-0.32699999 4.6669998 -1.605 0.23999999
-0.34299999 4.6810002 -1.6109999 0.17
-0.35600001 4.652 -1.6 0.14
-0.37200001 4.677 -1.61 0.18000001
-0.38600001 4.6570001 -1.603 0.12
-0.39300001 4.658 -1.604 0.2
-0.41 4.6869998 -1.615 0.23999999
-0.42300001 4.665 -1.607 0.16
-0.43599999 4.651 -1.602 0.31
-0.454 4.6810002 -1.614 0.22
-0.46700001 4.6609998 -1.607 0.12
-0.48300001 4.671 -1.6109999 0.18000001
-0.48899999 4.6630001 -1.608 0.12
-0.50300002 4.6550002 -1.6059999 0.20999999
-0.52100003 4.678 -1.615 0.25
-0.53500003 4.6729999 -1.614 0.31
-0.551 4.684 -1.619 0.23
-0.56300002 4.658 -1.61 0.14
-0.57800001 4.6560001 -1.61 0.18000001
-0.58600003 4.6630001 -1.613 0.20999999
-0.60100001 4.665 -1.614 0.16
-0.616 4.6609998 -1.613 0.25
-0.63200003 4.6700001 -1.617 0.17
-0.64399999 4.651 -1.6109999 0.25
-0.662 4.6719999 -1.619 0.19
-0.676 4.6680002 -1.619 0.17
-0.68199998 4.6550002 -1.615 0.30000001
-0.69499999 4.6440001 -1.6109999 0.23
-0.71100003 4.6529999 -1.615 0.18000001
-0.72399998 4.6360002 -1.61 0.27000001
-0.74199998 4.6560001 -1.618 0.19
-0.75400001 4.6389999 -1.613 0.25
-0.77200001 4.6550002 -1.619 0.18000001
-0.77700001 4.6389999 -1.614 0.25
-0.79400003 4.651 -1.619 0.23
-0.80599999 4.6370001 -1.615 0.27000001
-0.82200003 4.6399999 -1.617 0.18000001
-0.83700001 4.6399999 -1.618 0.27000001
-0.85399997 4.6479998 -1.622 0.17
-0.866 4.632 -1.617 0.25
-0.875 4.6399999 -1.6210001 0.2
-0.88800001 4.632 -1.619 0.25
-0.90499997 4.638 -1.622 0.18000001
-0.92000002 4.6370001 -1.623 0.25
-0.935 4.638 -1.624 0.17
-0.94700003 4.6240001 -1.62 0.13
-0.95899999 4.6079998 -1.615 0.2
-0.96799999 4.6139998 -1.618 0.14
-0.98199999 4.6110001 -1.618 0.15000001
-0.99900001 4.6209998 -1.623 0.2
-1.012 4.6100001 -1.62 0.11
-1.0319999 4.6290002 -1.628 0.18000001
-1.038 4.5910001 -1.615 0.12
-1.058 4.6100001 -1.624 0.18000001
-1.0650001 4.6079998 -1.624 0.12
-1.079 4.6030002 -1.623 0.19
-1.094 4.599 -1.623 0.18000001
-1.107 4.5900002 -1.6210001 0.28
-1.118 4.5760002 -1.617 0
-1.071 4.329 -1.524 0
-0.95300001 3.8150001 -1.33 0
-0.93699998 3.7279999 -1.2970001 0.050000001
-0.94499999 3.71 -1.2920001 0.039999999
-0.954 3.6960001 -1.288 0
-0.94999999 3.635 -1.266 0
-0.94099998 3.5580001 -1.237 0
-0.94199997 3.517 -1.223 0
-0.93800002 3.46 -1.202 0.1
-0.94999999 3.4430001 -1.197 0.38999999
-0.96100003 3.4400001 -1.197 0
-0.95300001 3.3699999 -1.1720001 0
-0.92699999 3.2449999 -1.124 0
-0.91900003 3.1800001 -1.101 0
-0.91600001 3.1340001 -1.084 0
-0.898 3.056 -1.0549999 0
-0.90100002 3.0309999 -1.046 0
-0.90399998 3.0090001 -1.039 0
-0.91000003 2.9949999 -1.035 0
-0.91500002 2.9779999 -1.029 0
-0.92400002 2.973 -1.028 0
-0.92500001 2.944 -1.018 0
-0.91799998 2.908 -1.005 0
-0.92500001 2.898 -1.002 0
-0.92500001 2.8670001 -0.991 0
-0.926 2.8429999 -0.98299998 0
-0.926 2.813 -0.972 0
-0.935 2.8099999 -0.972 0
-0.93900001 2.793 -0.96700001 0
-0.93800002 2.7750001 -0.96100003 0
-0.93400002 2.7349999 -0.94599998 0
-0.94700003 2.747 -0.95200002 0
-0.94300002 2.7079999 -0.93800002 0
-0.95099998 2.7030001 -0.93699998 0
-0.95700002 2.6930001 -0.93400002 0
-0.94999999 2.648 -0.91799998 0
-0.95899999 2.661 -0.92299998 0
-0.96700001 2.6559999 -0.92299998 0
-0.95499998 2.5999999 -0.90200001 0
-0.96100003 2.592 -0.89999998 0
-0.96899998 2.5869999 -0.89899999 0
-0.96899998 2.563 -0.89099997 0
-0.97500002 2.5550001 -0.889 0
-0.98100001 2.559 -0.89099997 0
-0.977 2.526 -0.87900001 0
-0.98299998 2.517 -0.87699997 0.02
-0.99400002 2.5209999 -0.88 0.039999999
-1.006 2.529 -0.884 0.16
-1.008 2.5120001 -0.87800002 0.18000001
-1.012 2.5 -0.875 0.17
-1.013 2.4890001 -0.87099999 0.38
-1.026 2.4979999 -0.87599999 0.28
-1.034 2.497 -0.87699997 0.46000001
-1.035 2.4760001 -0.87 0.66000003
-1.044 2.477 -0.87099999 0.46000001
-1.0779999 2.533 -0.89600003 0.40000001
-1.0829999 2.523 -0.89300001 0.34999999
-1.092 2.533 -0.898 0.30000001
-1.109 2.5510001 -0.90600002 0.38
-1.107 2.523 -0.89600003 0.52999997
-1.114 2.52 -0.89600003 0.41
-1.1289999 2.53 -0.90200001 0.41
-1.133 2.5190001 -0.89899999 0.31
-1.156 2.5480001 -0.912 0.38
-1.161 2.5480001 -0.91299999 0.63999999
-1.152 2.507 -0.898 0.83999997
-1.161 2.507 -0.89899999 0.88
-1.1619999 2.4879999 -0.89300001 0.88
-1.1440001 2.4319999 -0.87099999 0.76999998
-1.146 2.4159999 -0.86699998 0.77999997
-1.154 2.415 -0.86699998 0.79000002
-1.152 2.3989999 -0.86199999 0.83999997
-1.158 2.3940001 -0.861 0.81999999
-1.16 2.3789999 -0.85600001 0.75999999
-1.178 2.395 -0.86500001 0.30000001
-1.192 2.405 -0.87 0.43000001
-1.201 2.404 -0.87099999 0.72000003
-1.206 2.395 -0.86900002 0.79000002
-1.207 2.3889999 -0.86699998 0.79000002
-1.219 2.3929999 -0.87099999 0.79000002
-1.221 2.378 -0.866 0.80000001
-1.2309999 2.3789999 -0.86799997 0.80000001
-1.2410001 2.3800001 -0.87 0.80000001
-1.249 2.378 -0.87099999 0.80000001
-1.257 2.375 -0.87099999 0.81
-1.27 2.3900001 -0.87800002 0.75999999
-1.27 2.3729999 -0.87300003 0.75
-1.277 2.3670001 -0.87199998 0.79000002
-1.2920001 2.3759999 -0.87800002 0.75999999
-1.299 2.372 -0.87800002 0.67000002
-1.304 2.3629999 -0.87599999 0.54000002
-1.316 2.3670001 -0.87900001 0.54000002
-1.321 2.358 -0.87699997 0.57999998
-1.323 2.3540001 -0.87599999 0.63999999
-1.337 2.3610001 -0.88099998 0.55000001
-1.3430001 2.3540001 -0.88 0.5
-1.339 2.3299999 -0.87099999 0.63999999
-1.358 2.3469999 -0.88 0.44999999
-1.364 2.3399999 -0.87900001 0.25
-1.375 2.342 -0.88200003 0.19
-1.377 2.336 -0.88 0.050000001
-1.399 2.3559999 -0.89099997 0.15000001
-1.401 2.3440001 -0.88700002 0.18000001
-1.419 2.3570001 -0.89499998 0.18000001
-1.42 2.3410001 -0.88999999 0.17
-1.4349999 2.3499999 -0.89600003 0.17
-1.451 2.358 -0.90100002 0.17
-1.4529999 2.3540001 -0.90100002 0.18000001
-1.4630001 2.352 -0.90200001 0.18000001
-1.473 2.3529999 -0.90399998 0.090000004
-1.49 2.362 -0.91000003 0.15000001
-1.494 2.3529999 -0.90799999 0.20999999
-1.508 2.3570001 -0.912 0.14
-1.5140001 2.3510001 -0.912 0.25999999
-1.521 2.3529999 -0.91399997 0.23
-1.536 2.3610001 -0.91900003 0.25
-1.545 2.358 -0.92000002 0.25999999
-1.5549999 2.358 -0.92199999 0.30000001
-1.5599999 2.348 -0.92000002 0.28
-1.567 2.3429999 -0.92000002 0.31
-1.584 2.352 -0.926 0.31999999
-1.589 2.3510001 -0.92699999 0.30000001
-1.595 2.345 -0.926 0.31999999
-1.613 2.355 -0.93300003 0.31999999
-1.622 2.352 -0.93400002 0.38999999
-1.63 2.348 -0.93400002 0.36000001
-1.636 2.3410001 -0.93400002 0.41
-1.671 2.3740001 -0.95099998 0.25999999
-1.6799999 2.3789999 -0.954 0.44999999
-1.694 2.3829999 -0.95899999 0.66000003
-1.706 2.3840001 -0.96100003 0.73000002
-1.705 2.3659999 -0.95599997 0.77999997
-1.712 2.3610001 -0.95599997 0.79000002
-1.729 2.368 -0.96100003 0.79000002
-1.728 2.352 -0.95599997 0.79000002
-1.733 2.3499999 -0.95700002 0.80000001
-1.751 2.359 -0.963 0.82999998
-1.758 2.3529999 -0.963 0.83999997
-1.762 2.3429999 -0.96100003 0.81
-1.776 2.346 -0.96499997 0.81
-1.806 2.3699999 -0.97899997 0.57999998
-1.813 2.3629999 -0.97899997 0.80000001
-1.816 2.3599999 -0.97899997 0.82999998
-1.817 2.346 -0.97399998 0.83999997
-1.829 2.346 -0.977 0.81999999
-1.8660001 2.3770001 -0.995 0.62
-1.862 2.358 -0.98799998 0.80000001
-1.873 2.3559999 -0.99000001 0.82999998
-1.886 2.3559999 -0.99299997 0.81999999
-1.8839999 2.348 -0.99000001 0.77999997
-1.899 2.3499999 -0.995 0.52999997
-1.933 2.3759999 -1.01 0.62
-1.937 2.3659999 -1.008 0.75999999
-1.932 2.345 -1.001 0.80000001
-1.951 2.3540001 -1.008 0.77999997
-1.96 2.349 -1.008 0.75
-1.96 2.3410001 -1.006 0.56999999
-1.993 2.365 -1.021 0.60000002
-1.9910001 2.348 -1.015 0.14
-1.975 2.3139999 -1.002 0.30000001
-1.998 2.3269999 -1.011 0.25
-2 2.3150001 -1.008 0.11
-2.0150001 2.3169999 -1.012 0
-2.0090001 2.302 -1.007 0
-1.995 2.2720001 -0.995 0
-2.184 2.326 -1.057 0
-2.2179999 2.348 -1.071 0.079999998
-2.2190001 2.3410001 -1.0700001 0.11
-2.2409999 2.349 -1.077 0.31999999
-2.2090001 2.302 -1.057 0.18000001
-2.2279999 2.3069999 -1.063 0
-2.2490001 2.313 -1.0700001 0
-2.2349999 2.2850001 -1.059 0
-2.2539999 2.29 -1.0650001 0
-2.2880001 2.309 -1.079 0
-2.3180001 2.332 -1.0930001 0
-2.2709999 2.2709999 -1.064 0
-2.2920001 2.2780001 -1.072 0
-2.277 2.2490001 -1.0599999 0
-3.5409999 3.434 -1.698 0.19
-3.5350001 3.418 -1.693 0.27000001
-3.553 3.4130001 -1.696 0.33000001
-3.563 3.402 -1.696 0.28999999
-3.5669999 3.3840001 -1.693 0.30000001
-3.582 3.3770001 -1.6950001 0.31
-3.6040001 3.3759999 -1.7 0.31999999
-3.609 3.359 -1.698 0.31999999
-3.6170001 3.3559999 -1.699 0.36000001
-3.609 3.3280001 -1.6900001 0.28999999
-3.596 3.296 -1.678 0.30000001
-3.562 3.244 -1.656 0.33000001
-3.5469999 3.21 -1.6440001 0.28
-3.609 3.2449999 -1.669 0.34
-3.631 3.2449999 -1.675 0.28999999
-3.6110001 3.217 -1.663 0.34999999
-3.6240001 3.2079999 -1.664 0.33000001
-3.645 3.207 -1.67 0.25
-3.678 3.2149999 -1.681 0.34999999
-3.6559999 3.175 -1.665 0.41
-3.6429999 3.1440001 -1.654 0.25999999
-3.6700001 3.1470001 -1.6619999 0.33000001
-3.6960001 3.1600001 -1.673 0.28999999
-3.6719999 3.119 -1.656 0.31
-3.681 3.108 -1.656 0.31
-3.697 3.1010001 -1.659 0.31999999
-3.6600001 3.0510001 -1.637 0.27000001
-3.6760001 3.0439999 -1.64 0.43000001
-3.704 3.0480001 -1.649 0.31999999
-3.744 3.0610001 -1.663 0.31
-3.7579999 3.062 -1.6670001 0.31
-3.7650001 3.0480001 -1.666 0.31
-3.812 3.0669999 -1.684 0.31
-3.8280001 3.059 -1.687 0.31999999
-3.8180001 3.0320001 -1.678 0.31999999
-3.803 3.0009999 -1.666 0.33000001
-3.8239999 2.9979999 -1.671 0.34
-3.8139999 2.98 -1.664 0.28
-3.8280001 2.9719999 -1.6670001 0.36000001
-3.8310001 2.9549999 -1.664 0.28
-3.8280001 2.934 -1.658 0.38999999
-3.806 2.898 -1.6440001 0.28
-3.8069999 2.881 -1.64 0.38
-3.7290001 2.8039999 -1.6 0.28999999
-3.6489999 2.7349999 -1.561 0.36000001
-3.688 2.7460001 -1.575 0.28
-3.6960001 2.7349999 -1.575 0.31999999
-3.8050001 2.796 -1.6210001 0.33000001
-3.957 2.8870001 -1.686 0.28999999
-4 2.8989999 -1.701 0.36000001
-3.99 2.8729999 -1.693 0.31999999
-3.9779999 2.855 -1.6849999 0.31999999
-3.8889999 2.773 -1.641 0.25
-3.8729999 2.744 -1.63 0.31999999
-3.8940001 2.74 -1.635 0.33000001
