# .PCD v0.7 - Point Cloud Data file format
VERSION 0.7
FIELDS x y z intensity
SIZE 4 4 4 4
TYPE F F F F
COUNT 1 1 1 1
WIDTH 1403
HEIGHT 1
VIEWPOINT 0 0 0 1 0 0 0
POINTS 1403
DATA ascii
4.546 0.648 -1.674 0.18000001
4.5619998 0.66500002 -1.681 0.27000001
4.5339999 0.67500001 -1.671 0.20999999
4.5229998 0.68800002 -1.6670001 0.15000001
4.533 0.69700003 -1.6720001 0.28
4.5229998 0.70999998 -1.669 0.25
4.5209999 0.72399998 -1.669 0.25999999
4.5219998 0.73900002 -1.67 0.16
4.5349998 0.75599998 -1.676 0.30000001
4.527 0.76899999 -1.674 0.25
4.5240002 0.78299999 -1.674 0.15000001
4.5229998 0.79000002 -1.674 0.30000001
4.5300002 0.80599999 -1.678 0.20999999
4.5110002 0.81699997 -1.671 0.14
4.5079999 0.83200002 -1.671 0.31
4.5149999 0.84799999 -1.675 0.25
4.5170002 0.86299998 -1.677 0.28
4.5110002 0.87599999 -1.675 0.25999999
4.5240002 0.88599998 -1.681 0.25
4.4899998 0.89399999 -1.669 0.18000001
4.5110002 0.91299999 -1.678 0.28
4.5079999 0.92699999 -1.678 0.22
4.4980001 0.94 -1.675 0.30000001
4.4970002 0.954 -1.676 0.27000001
4.4889998 0.96700001 -1.674 0.27000001
4.5 0.977 -1.679 0.27000001
4.5079999 0.99400002 -1.683 0.28
4.4879999 1.0039999 -1.677 0.28999999
4.4990001 1.022 -1.683 0.23
4.493 1.035 -1.681 0.28999999
4.493 1.05 -1.683 0.33000001
4.4749999 1.061 -1.677 0.28
4.4860001 1.071 -1.682 0.25
4.4829998 1.085 -1.682 0.30000001
4.474 1.098 -1.6799999 0.25
4.4809999 1.114 -1.684 0.28999999
4.4650002 1.125 -1.679 0.30000001
4.4720001 1.142 -1.683 0.31999999
4.467 1.156 -1.683 0.28999999
4.454 1.16 -1.678 0.31
4.461 1.177 -1.683 0.27000001
4.461 1.192 -1.684 0.28
4.4629998 1.207 -1.686 0.31
4.454 1.22 -1.684 0.30000001
4.4549999 1.235 -1.686 0.27000001
4.4369998 1.245 -1.6799999 0.28999999
4.4530001 1.257 -1.688 0.28999999
4.4439998 1.27 -1.686 0.33000001
4.4239998 1.279 -1.679 0.27000001
4.4390001 1.299 -1.687 0.31999999
4.4239998 1.309 -1.683 0.28999999
4.415 1.321 -1.6799999 0.25
4.4250002 1.34 -1.686 0.28999999
4.4250002 1.347 -1.687 0.31999999
4.4130001 1.359 -1.684 0.28999999
4.3959999 1.369 -1.679 0.25999999
4.415 1.39 -1.688 0.31999999
4.402 1.401 -1.6849999 0.28999999
4.4099998 1.419 -1.6900001 0.33000001
4.3990002 1.423 -1.686 0.30000001
4.3959999 1.437 -1.687 0.28
4.3899999 1.451 -1.686 0.28999999
4.3940001 1.467 -1.6900001 0.31
4.388 1.48 -1.689 0.28999999
4.3829999 1.494 -1.689 0.31999999
4.375 1.507 -1.688 0.28999999
4.3759999 1.515 -1.689 0.30000001
4.3709998 1.529 -1.689 0.31999999
4.3590002 1.54 -1.686 0.27000001
4.3530002 1.553 -1.686 0.31
4.362 1.572 -1.691 0.34
4.336 1.5779999 -1.683 0.31999999
4.3260002 1.589 -1.6799999 0.23999999
4.335 1.601 -1.686 0.28999999
4.3460002 1.62 -1.692 0.31
4.3429999 1.635 -1.693 0.31
4.3340001 1.647 -1.691 0.31999999
4.3249998 1.659 -1.6900001 0.28999999
4.3109999 1.669 -1.686 0.28999999
4.303 1.681 -1.6849999 0.30000001
4.316 1.694 -1.691 0.28999999
4.2979999 1.7029999 -1.686 0.31
4.303 1.721 -1.691 0.30000001
4.2979999 1.734 -1.691 0.31999999
4.2820001 1.743 -1.686 0.28
4.2870002 1.761 -1.691 0.31
4.2909999 1.779 -1.6950001 0.31
4.2779999 1.781 -1.691 0.34
4.2680001 1.793 -1.688 0.27000001
4.276 1.812 -1.694 0.28999999
4.2649999 1.823 -1.692 0.28999999
4.2540002 1.834 -1.6900001 0.25999999
4.2579999 1.852 -1.694 0.34
4.2389998 1.859 -1.688 0.30000001
4.2410002 1.868 -1.691 0.36000001
4.244 1.886 -1.694 0.30000001
4.2259998 1.893 -1.689 0.30000001
4.2150002 1.904 -1.687 0.30000001
4.217 1.9220001 -1.691 0.27000001
4.211 1.9349999 -1.691 0.33000001
4.2080002 1.941 -1.691 0.30000001
4.2140002 1.96 -1.696 0.31
4.2010002 1.97 -1.693 0.31999999
4.2080002 1.99 -1.699 0.36000001
4.204 2.0039999 -1.699 0.31999999
4.184 2.0109999 -1.694 0.30000001
4.1929998 2.0309999 -1.7 0.34
4.1799998 2.0409999 -1.697 0.30000001
4.1799998 2.049 -1.699 0.20999999
4.1750002 2.063 -1.699 0.38
4.1599998 2.072 -1.696 0.31999999
4.1420002 2.079 -1.691 0.28999999
4.145 2.0969999 -1.6950001 0.44
4.1009998 2.0910001 -1.678 0.25999999
4.1059999 2.109 -1.683 0.38
4.073 2.0999999 -1.67 0.28999999
4.0539999 2.1070001 -1.665 0.34999999
4.0300002 2.1099999 -1.6569999 0.28
4.013 2.118 -1.653 0.34999999
3.984 2.118 -1.643 0.28999999
3.9389999 2.1099999 -1.626 0.25
3.937 2.125 -1.628 0.33000001
3.934 2.131 -1.628 0.28999999
3.931 2.145 -1.63 0.31999999
3.9289999 2.1600001 -1.632 0.25
3.924 2.174 -1.632 0.34999999
3.8970001 2.175 -1.624 0.25999999
3.908 2.197 -1.632 0.37
3.885 2.2 -1.624 0.28
3.8929999 2.2130001 -1.63 0.34
3.8859999 2.2249999 -1.63 0.30000001
3.8789999 2.237 -1.63 0.27000001
3.8770001 2.2520001 -1.632 0.23
3.902 2.283 -1.646 0.20999999
3.8900001 2.293 -1.6440001 0.44999999
3.8959999 2.3050001 -1.648 0.31999999
3.8729999 2.3069999 -1.641 0.56
3.895 2.3380001 -1.655 0.23999999
3.882 2.346 -1.652 0.54000002
3.855 2.3469999 -1.643 0.38
3.8529999 2.362 -1.646 0.30000001
3.8499999 2.3770001 -1.648 0.47999999
3.849 2.385 -1.649 0.44
3.812 2.378 -1.635 0.38
3.8380001 2.411 -1.651 0.25
3.8050001 2.4070001 -1.6390001 0.47
3.7909999 2.415 -1.636 0.36000001
3.7739999 2.421 -1.632 0.38
3.777 2.4400001 -1.637 0.38999999
3.7590001 2.4360001 -1.63 0.19
3.75 2.447 -1.63 0.51999998
3.7579999 2.4690001 -1.637 0.38999999
3.75 2.4809999 -1.637 0.27000001
3.7190001 2.477 -1.626 0.44999999
3.7279999 2.5 -1.6339999 0.31999999
3.7049999 2.5009999 -1.627 0.52999997
3.684 2.4960001 -1.619 0.43000001
3.6270001 2.473 -1.595 0.34
3.704 2.543 -1.635 0.23
3.6900001 2.5510001 -1.632 0.47999999
3.6860001 2.5650001 -1.635 0.30000001
3.6570001 2.562 -1.624 0.54000002
3.6400001 2.5669999 -1.62 0.20999999
3.6300001 2.5680001 -1.617 0.61000001
3.5840001 2.552 -1.599 0.34
3.5139999 2.5190001 -1.569 0.36000001
3.536 2.552 -1.584 0.36000001
3.5050001 2.546 -1.573 0.41999999
3.527 2.579 -1.587 0.34999999
3.563 2.6229999 -1.608 0.33000001
3.5409999 2.615 -1.6 0.44999999
3.473 2.5810001 -1.571 0.31999999
3.493 2.6140001 -1.584 0.38999999
3.48 2.6210001 -1.582 0.38999999
3.47 2.631 -1.582 0.41999999
3.4430001 2.6270001 -1.572 0.38
3.4170001 2.6240001 -1.563 0.31999999
3.414 2.631 -1.564 0.38999999
3.415 2.648 -1.568 0.34
3.401 2.654 -1.566 0.34
3.362 2.641 -1.55 0.41
3.3399999 2.641 -1.544 0.28999999
3.3380001 2.6559999 -1.5470001 0.43000001
3.339 2.6659999 -1.55 0.31999999
3.3050001 2.655 -1.536 0.34999999
3.3499999 2.7090001 -1.563 0.31
3.2880001 2.6760001 -1.536 0.43000001
3.296 2.6989999 -1.544 0.34
3.2590001 2.6860001 -1.53 0.38999999
3.273 2.7149999 -1.5420001 0.23
3.2590001 2.7119999 -1.536 0.49000001
3.243 2.7160001 -1.533 0.30000001
3.2420001 2.7320001 -1.536 0.31999999
3.2190001 2.73 -1.529 0.31
3.188 2.721 -1.518 0.40000001
3.1900001 2.7409999 -1.523 0.27000001
3.138 2.7130001 -1.501 0.40000001
3.2030001 2.7780001 -1.536 0.28999999
3.204 2.796 -1.5420001 0.31999999
3.138 2.756 -1.512 0.34
3.1960001 2.825 -1.5470001 0.28
3.198 2.845 -1.552 0.28999999
3.1860001 2.8529999 -1.551 0.31999999
3.2060001 2.8889999 -1.566 0.23999999
3.312 2.9949999 -1.624 0.30000001
3.2509999 2.9579999 -1.598 0.34
3.368 3.085 -1.664 0.31
3.256 3 -1.61 0.40000001
3.293 3.0539999 -1.635 0.31999999
3.29 3.0710001 -1.638 0.41999999
3.392 3.188 -1.699 0.30000001
3.358 3.175 -1.686 0.36000001
3.4219999 3.2460001 -1.723 0.27000001
3.434 3.279 -1.735 0.22
3.4389999 3.3039999 -1.743 0.38999999
3.3859999 3.273 -1.72 0.38
3.3010001 3.21 -1.679 0.31999999
3.402 3.3310001 -1.74 0.25999999
3.392 3.3310001 -1.737 0.46000001
3.3629999 3.323 -1.727 0.23999999
3.365 3.3469999 -1.734 0.56999999
3.3759999 3.3789999 -1.7460001 0.23999999
3.3510001 3.375 -1.738 0.44999999
3.2980001 3.342 -1.715 0.31999999
3.3199999 3.3859999 -1.733 0.34
3.325 3.402 -1.739 0.44999999
3.2 3.293 -1.674 0.34
3.2920001 3.411 -1.732 0.38999999
3.2650001 3.404 -1.723 0.31999999
3.289 3.45 -1.742 0.34
3.2909999 3.474 -1.75 0.43000001
3.237 3.438 -1.725 0.38999999
3.24 3.4530001 -1.73 0.5
3.119 3.3440001 -1.6670001 0.20999999
3.063 3.3039999 -1.64 0.17
3.138 3.408 -1.6900001 0.2
3.119 3.408 -1.6849999 0.12
3.026 3.326 -1.637 0.31
3.22 3.5650001 -1.757 0.039999999
3.2119999 3.5669999 -1.755 0.16
3.2030001 3.5799999 -1.757 0.18000001
3.188 3.586 -1.755 0.1
3.181 3.5999999 -1.757 0.079999998
3.161 3.5999999 -1.752 0.039999999
3.1589999 3.6210001 -1.758 0.16
3.152 3.6359999 -1.76 0.18000001
3.135 3.628 -1.753 0.039999999
3.1300001 3.645 -1.757 0.07
3.1229999 3.6600001 -1.76 0.079999998
3.1099999 3.6689999 -1.7589999 0.079999998
3.0899999 3.668 -1.7539999 0.14
3.0810001 3.681 -1.755 0.039999999
3.0699999 3.6900001 -1.755 0.17
3.066 3.698 -1.757 0.19
3.0580001 3.7119999 -1.7589999 0.039999999
3.0439999 3.7190001 -1.758 0.17
3.0350001 3.7309999 -1.7589999 0.19
2.9590001 3.661 -1.719 0.16
3.0009999 3.737 -1.752 0.039999999
2.9990001 3.76 -1.7589999 0.079999998
2.9849999 3.7539999 -1.7539999 0.039999999
2.977 3.7679999 -1.756 0.07
2.9679999 3.78 -1.758 0
2.948 3.779 -1.752 0.13
2.944 3.799 -1.758 0.18000001
2.9360001 3.8139999 -1.76 0.17
2.928 3.8280001 -1.763 0.17
2.9159999 3.825 -1.7589999 0.17
2.901 3.829 -1.757 0.16
2.888 3.8369999 -1.756 0.16
2.878 3.849 -1.758 0.17
2.8699999 3.8640001 -1.76 0.18000001
2.858 3.8729999 -1.76 0.18000001
2.8510001 3.8900001 -1.7640001 0.18000001
2.8340001 3.8789999 -1.757 0.18000001
2.8150001 3.8789999 -1.752 0.039999999
2.8039999 3.8889999 -1.753 0.14
2.793 3.8989999 -1.7539999 0.050000001
2.7850001 3.914 -1.757 0.16
2.773 3.9230001 -1.757 0.050000001
2.7639999 3.9360001 -1.7589999 0.15000001
2.753 3.934 -1.756 0.18000001
2.7490001 3.9549999 -1.762 0.17
2.7409999 3.97 -1.765 0.090000004
2.7249999 3.974 -1.763 0.17
2.7149999 3.9860001 -1.7640001 0.18000001
2.7179999 4.0180001 -1.775 0.31999999
2.707 4.0139999 -1.771 0.43000001
2.6919999 4.0190001 -1.77 0.38
2.678 4.026 -1.7690001 0.34999999
2.6559999 4.0209999 -1.763 0.34999999
2.6429999 4.027 -1.762 0.33000001
2.6470001 4.0619998 -1.774 0.33000001
2.6199999 4.0489998 -1.7640001 0.38
2.618 4.059 -1.767 0.34999999
2.612 4.0780001 -1.772 0.31999999
2.6059999 4.0970001 -1.777 0.46000001
2.589 4.098 -1.773 0.27000001
2.5840001 4.1199999 -1.78 0.27000001
2.5710001 4.1279998 -1.78 0.34
2.5580001 4.1350002 -1.779 0.33000001
2.5480001 4.1339998 -1.777 0.41
2.5139999 4.1069999 -1.761 0.25999999
2.5009999 4.1149998 -1.761 0.27000001
2.487 4.1209998 -1.76 0.43000001
2.4790001 4.1370001 -1.7640001 0.38
2.5009999 4.204 -1.791 0.2
2.4779999 4.1960001 -1.784 0.55000001
2.46 4.1950002 -1.78 0.30000001
2.45 4.1929998 -1.777 0.54000002
2.4389999 4.204 -1.779 0.31999999
2.4219999 4.2049999 -1.776 0.27000001
2.392 4.1830001 -1.763 0.31999999
2.3729999 4.1789999 -1.758 0.27000001
2.3770001 4.2179999 -1.771 0.38
2.3570001 4.2140002 -1.766 0.31
2.3629999 4.2399998 -1.776 0.25
2.3399999 4.23 -1.768 0.40000001
2.335 4.2529998 -1.776 0.31999999
2.313 4.244 -1.768 0.28999999
2.293 4.2379999 -1.763 0.25
2.279 4.244 -1.762 0.31
2.27 4.244 -1.76 0.31999999
2.2490001 4.237 -1.7539999 0.20999999
2.2379999 4.2490001 -1.756 0.36000001
2.214 4.2340002 -1.747 0.33000001
2.2090001 4.2579999 -1.7539999 0.34999999
2.2049999 4.283 -1.762 0.34
2.191 4.2880001 -1.761 0.52999997
2.1860001 4.296 -1.763 0.27000001
2.1730001 4.303 -1.763 0.16
2.161 4.3130002 -1.765 0.47999999
2.148 4.3200002 -1.765 0.38
2.1270001 4.3130002 -1.7589999 0.36000001
2.115 4.323 -1.76 0.34
2.108 4.3439999 -1.766 0.27000001
2.1029999 4.3670001 -1.773 0.40000001
2.1010001 4.382 -1.779 0.37
2.0769999 4.3649998 -1.768 0.34
2.059 4.3629999 -1.765 0.34
2.0550001 4.3920002 -1.774 0.36000001
2.04 4.395 -1.773 0.44999999
2.0179999 4.3839998 -1.765 0.25999999
2.0109999 4.4039998 -1.771 0.30000001
2.006 4.4120002 -1.773 0.33000001
1.9960001 4.427 -1.777 0.41999999
1.983 4.4349999 -1.778 0.31999999
1.966 4.434 -1.775 0.31
1.959 4.4580002 -1.7819999 0.36000001
1.942 4.4549999 -1.779 0.34
1.933 4.4549999 -1.777 0.28999999
1.921 4.4660001 -1.779 0.47
1.9 4.4549999 -1.772 0.28999999
1.88 4.447 -1.766 0.47
1.8710001 4.4650002 -1.771 0.25
1.8559999 4.467 -1.77 0.34999999
1.853 4.5009999 -1.781 0.31
1.839 4.4860001 -1.774 0.55000001
1.83 4.5040002 -1.779 0.28999999
1.814 4.5050001 -1.777 0.31999999
1.799 4.5100002 -1.777 0.28999999
1.786 4.5180001 -1.778 0.41999999
1.772 4.5250001 -1.779 0.30000001
1.761 4.5380001 -1.781 0.27000001
1.755 4.5440001 -1.783 0.47999999
1.734 4.5300002 -1.775 0.28999999
1.72 4.5370002 -1.776 0.36000001
1.706 4.5450001 -1.776 0.38999999
1.692 4.5500002 -1.776 0.34999999
1.676 4.5500002 -1.774 0.36000001
1.663 4.559 -1.776 0.40000001
1.6569999 4.5650001 -1.777 0.33000001
1.642 4.5679998 -1.776 0.34999999
1.624 4.5650001 -1.773 0.34999999
1.614 4.5819998 -1.778 0.36000001
1.595 4.573 -1.772 0.36000001
1.587 4.5960002 -1.779 0.34999999
1.569 4.5900002 -1.775 0.38999999
1.556 4.5749998 -1.768 0.28999999
1.545 4.592 -1.773 0.36000001
1.531 4.5970001 -1.773 0.37
1.516 4.5999999 -1.772 0.30000001
1.503 4.6100001 -1.774 0.46000001
1.493 4.6269999 -1.779 0.31
1.473 4.6160002 -1.773 0.41
1.464 4.6129999 -1.771 0.33000001
1.455 4.6350002 -1.778 0.41
1.4349999 4.6220002 -1.771 0.25999999
1.424 4.6370001 -1.775 0.44999999
1.4119999 4.6500001 -1.779 0.40000001
1.39 4.6300001 -1.768 0.31
1.376 4.6360002 -1.7690001 0.31999999
1.373 4.6539998 -1.776 0.31999999
1.355 4.6459999 -1.771 0.37
1.342 4.6570001 -1.773 0.33000001
1.329 4.6669998 -1.776 0.31
1.316 4.6750002 -1.777 0.36000001
1.301 4.6799998 -1.778 0.38999999
1.288 4.6900001 -1.78 0.37
1.281 4.6919999 -1.78 0.31999999
1.266 4.6939998 -1.779 0.40000001
1.25 4.6939998 -1.778 0.41
1.2309999 4.6799998 -1.771 0.34
1.215 4.6820002 -1.77 0.37
1.205 4.7020001 -1.776 0.36000001
1.184 4.6810002 -1.766 0.44999999
1.177 4.6859999 -1.768 0.22
1.165 4.7010002 -1.772 0.41
1.149 4.7010002 -1.771 0.31
1.1339999 4.7010002 -1.7690001 0.5
1.117 4.697 -1.766 0.28
1.103 4.704 -1.768 0.34
1.0880001 4.7059999 -1.767 0.31999999
1.084 4.7220001 -1.773 0.37
1.064 4.6999998 -1.763 0.34
1.05 4.7090001 -1.765 0.33000001
1.0369999 4.7210002 -1.768 0.34
1.017 4.7010002 -1.7589999 0.31999999
1.0039999 4.711 -1.762 0.31999999
0.99199998 4.7290001 -1.768 0.30000001
0.98199999 4.7179999 -1.763 0.33000001
0.96499997 4.71 -1.758 0.31
0.954 4.7290001 -1.765 0.31
0.93400002 4.7069998 -1.755 0.31
0.91900003 4.711 -1.755 0.28999999
0.90399998 4.7119999 -1.755 0.25999999
0.88999999 4.7150002 -1.755 0.27000001
0.87300003 4.711 -1.752 0.18000001
0.86699998 4.7179999 -1.7539999 0.25999999
0.852 4.7199998 -1.7539999 0.2
0.838 4.7249999 -1.755 0.12
0.82200003 4.724 -1.753 0.20999999
0.80900002 4.7350001 -1.757 0.18000001
0.796 4.7509999 -1.762 0.25999999
0.78600001 4.737 -1.756 0.22
0.77399999 4.7540002 -1.762 0.25999999
0.759 4.757 -1.762 0.27000001
0.74699998 4.7800002 -1.77 0.25999999
0.73199999 4.7859998 -1.771 0.23999999
0.71399999 4.7659998 -1.763 0.30000001
0.70200002 4.7859998 -1.77 0.40000001
0.69300002 4.7800002 -1.767 0.25999999
0.67900002 4.7909999 -1.771 0.30000001
0.667 4.8140001 -1.779 0.27000001
0.65100002 4.8099999 -1.776 0.49000001
0.634 4.7989998 -1.771 0.27000001
0.62 4.8049998 -1.773 0.23
0.60299999 4.7919998 -1.767 0.56999999
0.59799999 4.8119998 -1.774 0.36000001
0.58399999 4.823 -1.778 0.41999999
0.56699997 4.8140001 -1.773 0.31999999
0.55199999 4.8130002 -1.773 0.34
0.53899997 4.836 -1.781 0.33000001
0.52200001 4.822 -1.775 0.34999999
0.50800002 4.8330002 -1.779 0.38
0.49900001 4.8249998 -1.775 0.31999999
0.48500001 4.8319998 -1.777 0.31
0.47 4.8429999 -1.781 0.34999999
0.454 4.835 -1.777 0.38
0.43900001 4.8309999 -1.775 0.34
0.42399999 4.8390002 -1.778 0.23999999
0.40799999 4.8239999 -1.771 0.40000001
0.40000001 4.8169999 -1.768 0.43000001
0.38499999 4.8280001 -1.772 0.31
0.37 4.829 -1.772 0.40000001
0.354 4.8150001 -1.766 0.44
0.34 4.835 -1.773 0.34
0.32499999 4.836 -1.773 0.37
0.31 4.8390002 -1.774 0.38999999
0.301 4.8260002 -1.7690001 0.41
0.28600001 4.8309999 -1.771 0.34999999
0.27200001 4.8520002 -1.779 0.44999999
0.25600001 4.8439999 -1.775 0.30000001
0.241 4.835 -1.771 0.28999999
0.226 4.8470001 -1.776 0.38
0.20999999 4.8390002 -1.772 0.28
0.20299999 4.835 -1.771 0.38
0.18700001 4.8299999 -1.768 0.31
0.17200001 4.842 -1.773 0.38
0.15700001 4.835 -1.77 0.30000001
0.142 4.8390002 -1.771 0.36000001
0.127 4.8429999 -1.773 0.34999999
0.112 4.8379998 -1.771 0.22
0.104 4.8439999 -1.773 0.33000001
0.089000002 4.8520002 -1.776 0.33000001
0.074000001 4.8369999 -1.77 0.28
0.057999998 4.8390002 -1.771 0.36000001
0.043000001 4.8319998 -1.768 0.23
0.028000001 4.8319998 -1.768 0.34999999
0.013 4.836 -1.7690001 0.38
0.0049999999 4.8449998 -1.773 0.38
-0.0099999998 4.849 -1.774 0.34999999
-0.025 4.8520002 -1.776 0.28999999
-0.039999999 4.835 -1.7690001 0.31999999
-0.056000002 4.8470001 -1.773 0.38999999
-0.071000002 4.8369999 -1.77 0.28999999
-0.086000003 4.8499999 -1.775 0.38999999
-0.093999997 4.8530002 -1.776 0.37
-0.109 4.8460002 -1.773 0.28999999
-0.125 4.855 -1.777 0.34
-0.14 4.849 -1.775 0.31
-0.155 4.848 -1.775 0.33000001
-0.171 4.8590002 -1.779 0.31
-0.185 4.8449998 -1.774 0.31999999
-0.2 4.8449998 -1.774 0.28999999
-0.208 4.8520002 -1.777 0.34
-0.22400001 4.8509998 -1.777 0.34
-0.23800001 4.8319998 -1.77 0.34999999
-0.25400001 4.842 -1.774 0.31999999
-0.26800001 4.823 -1.767 0.34
-0.28299999 4.822 -1.767 0.31999999
-0.29899999 4.8379998 -1.773 0.31999999
-0.30599999 4.8239999 -1.768 0.30000001
-0.322 4.836 -1.773 0.34999999
-0.33700001 4.8330002 -1.773 0.31
-0.352 4.8280001 -1.771 0.34
-0.368 4.8400002 -1.776 0.28
-0.38499999 4.8559999 -1.783 0.41
-0.40200001 4.8709998 -1.789 0.27000001
-0.40799999 4.8600001 -1.785 0.28
-0.42300001 4.8509998 -1.7819999 0.28999999
-0.43799999 4.8530002 -1.784 0.31999999
-0.454 4.8569999 -1.786 0.34999999
-0.46799999 4.8369999 -1.779 0.28999999
-0.484 4.8470001 -1.783 0.37
-0.491 4.8439999 -1.7819999 0.34
-0.509 4.8610001 -1.789 0.31999999
-0.523 4.8540001 -1.7869999 0.30000001
-0.54000002 4.862 -1.791 0.28
-0.55400002 4.8509998 -1.7869999 0.33000001
-0.56999999 4.8579998 -1.791 0.34999999
-0.58399999 4.8429999 -1.786 0.30000001
-0.60000002 4.849 -1.789 0.31999999
-0.60799998 4.855 -1.7920001 0.34
-0.62300003 4.8499999 -1.79 0.30000001
-0.63800001 4.848 -1.79 0.38
-0.653 4.8400002 -1.788 0.27000001
-0.66900003 4.8439999 -1.79 0.34999999
-0.68300003 4.8340001 -1.7869999 0.33000001
-0.69800001 4.8340001 -1.788 0.33000001
-0.70899999 4.855 -1.7970001 0.33000001
-0.72299999 4.842 -1.7920001 0.30000001
-0.73699999 4.8319998 -1.789 0.31
-0.75300002 4.835 -1.7920001 0.30000001
-0.76800001 4.8330002 -1.7920001 0.28
-0.78100002 4.8140001 -1.785 0.34
-0.79699999 4.8200002 -1.789 0.27000001
-0.80599999 4.8249998 -1.791 0.40000001
-0.82300001 4.8309999 -1.795 0.34
-0.83499998 4.8119998 -1.788 0.23999999
-0.85100001 4.8130002 -1.789 0.28999999
-0.86900002 4.829 -1.7970001 0.37
-0.88099998 4.8080001 -1.789 0.28999999
-0.88700002 4.7989998 -1.7869999 0.31999999
-0.90799999 4.8270001 -1.799 0.38999999
-0.92000002 4.8060002 -1.7920001 0.25
-0.93599999 4.8109999 -1.795 0.37
-0.95300001 4.8150001 -1.7970001 0.30000001
-0.96899998 4.8169999 -1.8 0.38
-0.98000002 4.796 -1.7920001 0.28999999
-0.99699998 4.802 -1.796 0.33000001
-1.008 4.8169999 -1.803 0.34999999
-1.024 4.8140001 -1.803 0.31999999
-1.04 4.8140001 -1.804 0.31
-1.0549999 4.8140001 -1.8049999 0.38999999
-1.067 4.7950001 -1.799 0.38999999
-1.086 4.8099999 -1.806 0.23
-1.098 4.7930002 -1.801 0.44999999
-1.105 4.7880001 -1.8 0.38
-1.124 4.803 -1.807 0.20999999
-1.142 4.8080001 -1.811 0.5
-1.155 4.7969999 -1.808 0.30000001
-1.169 4.79 -1.806 0.37
-1.186 4.7950001 -1.8099999 0.36000001
-1.204 4.803 -1.814 0.31
-1.215 4.8130002 -1.819 0.31
-1.224 4.7839999 -1.809 0.31999999
-1.242 4.7950001 -1.8150001 0.28999999
-1.257 4.7909999 -1.8150001 0.27000001
-1.272 4.7870002 -1.8150001 0.36000001
-1.286 4.776 -1.812 0.28999999
-1.299 4.7950001 -1.821 0.36000001
-1.309 4.7709999 -1.813 0.34
-1.323 4.7649999 -1.812 0.30000001
-1.341 4.77 -1.816 0.33000001
-1.353 4.7589998 -1.813 0.34
-1.372 4.7649999 -1.817 0.38999999
-1.392 4.7800002 -1.825 0.41
-1.403 4.7620001 -1.819 0.25999999
-1.411 4.7610002 -1.8200001 0.34999999
-1.427 4.7589998 -1.821 0.27000001
-1.4450001 4.7649999 -1.825 0.38
-1.461 4.7659998 -1.827 0.30000001
-1.474 4.7519999 -1.824 0.25999999
-1.49 4.7509999 -1.825 0.28
-1.502 4.7379999 -1.821 0.41999999
-1.5089999 4.7329998 -1.821 0.28
-1.525 4.7319999 -1.822 0.050000001
-1.536 4.7179999 -1.819 0.07
-1.558 4.7350001 -1.827 0
-1.561 4.6929998 -1.812 0
-1.569 4.6690001 -1.804 0
-1.587 4.6719999 -1.808 0
-1.5880001 4.652 -1.8 0
-1.602 4.6459999 -1.8 0
-1.62 4.651 -1.804 0
-1.63 4.632 -1.798 0
-1.6440001 4.625 -1.7970001 0
-1.665 4.6389999 -1.8049999 0.029999999
-1.682 4.6409998 -1.808 0.13
-1.689 4.6360002 -1.808 0.22
-1.704 4.6329999 -1.808 0.23999999
-1.722 4.6360002 -1.812 0.23
-1.734 4.6240001 -1.809 0.30000001
-1.7539999 4.632 -1.8150001 0.25999999
-1.767 4.6230001 -1.813 0.31999999
-1.784 4.625 -1.816 0.31
-1.794 4.6290002 -1.819 0.33000001
-1.809 4.625 -1.8200001 0.31
-1.821 4.612 -1.817 0.28999999
-1.842 4.6220002 -1.824 0.34
-1.849 4.599 -1.816 0.28
-1.868 4.6030002 -1.821 0.31
-1.88 4.592 -1.819 0.31
-1.89 4.5949998 -1.821 0.30000001
-1.902 4.5830002 -1.819 0.30000001
-1.921 4.5890002 -1.824 0.30000001
-1.938 4.5879998 -1.826 0.30000001
-1.951 4.579 -1.824 0.34
-1.966 4.5739999 -1.825 0.28
-1.98 4.5669999 -1.824 0.34999999
-1.988 4.5650001 -1.825 0.33000001
-2 4.5539999 -1.823 0.28
-2.016 4.5510001 -1.824 0.33000001
-2.0339999 4.553 -1.8279999 0.31999999
-2.0480001 4.5469999 -1.8279999 0.28
-2.0599999 4.5349998 -1.826 0.30000001
-2.079 4.539 -1.83 0.33000001
-2.086 4.5349998 -1.83 0.31
-2.0969999 4.5219998 -1.827 0.28999999
-2.112 4.5170002 -1.8279999 0.34999999
-2.1289999 4.5159998 -1.83 0.31999999
-2.142 4.507 -1.829 0.31
-2.1530001 4.494 -1.827 0.31999999
-2.1689999 4.4899998 -1.8279999 0.28999999
-2.1730001 4.4819999 -1.826 0.34
-2.191 4.4819999 -1.829 0.28999999
-2.2060001 4.4780002 -1.83 0.31
-2.22 4.4710002 -1.83 0.34
-2.23 4.4559999 -1.827 0.27000001
-2.2520001 4.4640002 -1.8329999 0.34
-2.2620001 4.448 -1.829 0.31999999
-2.2690001 4.447 -1.83 0.28
-2.28 4.4330001 -1.827 0.34
-2.293 4.4239998 -1.827 0.31
-2.312 4.427 -1.831 0.31999999
-2.325 4.4180002 -1.83 0.28
-2.3380001 4.4089999 -1.829 0.33000001
-2.355 4.408 -1.832 0.30000001
-2.3640001 4.4070001 -1.834 0.30000001
-2.3789999 4.402 -1.835 0.31
-2.3929999 4.3940001 -1.835 0.31
-2.4070001 4.3870001 -1.835 0.31
-2.421 4.381 -1.835 0.31999999
-2.4289999 4.3629999 -1.831 0.28
-2.4449999 4.3590002 -1.832 0.33000001
-2.4530001 4.3569999 -1.8329999 0.31999999
-2.467 4.3509998 -1.834 0.31999999
-2.48 4.3410001 -1.8329999 0.31999999
-2.4890001 4.3249998 -1.829 0.28999999
-2.5109999 4.3319998 -1.836 0.33000001
-2.5150001 4.3080001 -1.829 0.30000001
-2.5350001 4.3109999 -1.834 0.31
-2.539 4.302 -1.832 0.28
-2.563 4.3119998 -1.84 0.33000001
-2.5680001 4.29 -1.8329999 0.27000001
-2.582 4.2810001 -1.8329999 0.33000001
-2.598 4.2779999 -1.835 0.28999999
-2.608 4.2639999 -1.832 0.28999999
-2.625 4.2620001 -1.835 0.31
-2.6329999 4.2589998 -1.836 0.30000001
-2.642 4.2449999 -1.8329999 0.31999999
-2.654 4.2350001 -1.832 0.30000001
-2.6719999 4.2329998 -1.835 0.28999999
-2.6919999 4.2350001 -1.84 0.33000001
-2.6930001 4.2080002 -1.832 0.30000001
-2.71 4.2059999 -1.835 0.31999999
-2.724 4.197 -1.835 0.28999999
-2.7309999 4.1939998 -1.835 0.31
-2.744 4.1859999 -1.835 0.30000001
-2.7620001 4.1830001 -1.8380001 0.31
-2.7650001 4.1609998 -1.832 0.30000001
-2.7869999 4.164 -1.837 0.28999999
-2.7909999 4.1430001 -1.832 0.30000001
-2.8050001 4.1500001 -1.837 0.31999999
-2.8210001 4.145 -1.839 0.28
-2.8269999 4.1259999 -1.834 0.28999999
-2.8440001 4.1230001 -1.837 0.31
-2.858 4.1160002 -1.837 0.28999999
-2.868 4.1020002 -1.835 0.28999999
-2.8859999 4.1009998 -1.839 0.34
-2.8929999 4.0960002 -1.839 0.28999999
-2.9030001 4.0840001 -1.837 0.31999999
-2.9170001 4.0760002 -1.8380001 0.33000001
-2.9400001 4.0809999 -1.845 0.28
-2.9460001 4.0619998 -1.84 0.30000001
-2.9619999 4.0580001 -1.8430001 0.30000001
-2.977 4.0510001 -1.844 0.34999999
-2.9779999 4.039 -1.84 0.30000001
-2.9920001 4.0310001 -1.841 0.27000001
-3.0039999 4.0219998 -1.841 0.30000001
-3.02 4.0170002 -1.8430001 0.28999999
-3.036 4.0120001 -1.845 0.28999999
-3.059 4.0149999 -1.852 0.30000001
-3.0650001 3.997 -1.848 0.28999999
-3.075 3.984 -1.846 0.30000001
-3.085 3.984 -1.848 0.30000001
-3.099 3.9760001 -1.849 0.34
-3.1110001 3.9660001 -1.849 0.28999999
-3.125 3.9579999 -1.85 0.28999999
-3.1229999 3.9300001 -1.841 0.18000001
-3.1470001 3.9349999 -1.848 0.28
-3.1700001 3.938 -1.855 0.19
-3.164 3.9189999 -1.848 0.050000001
-3.178 3.9100001 -1.848 0
-3.191 3.902 -1.849 0
-3.2079999 3.8970001 -1.852 0
-3.6889999 3.546 -1.8789999 0
-3.671 3.5079999 -1.864 0
-3.7079999 3.5209999 -1.877 0
-3.7 3.4909999 -1.867 0
-3.717 3.4849999 -1.87 0.07
-3.727 3.473 -1.87 0.039999999
-3.73 3.4649999 -1.869 0.14
-3.734 3.447 -1.865 0.23
-3.7379999 3.4289999 -1.8609999 0.23
-3.763 3.4289999 -1.869 0.23
-3.7679999 3.4119999 -1.8660001 0.28
-3.7720001 3.3940001 -1.862 0.27000001
-3.7880001 3.3870001 -1.865 0.27000001
-3.8 3.388 -1.869 0.27000001
-3.8069999 3.372 -1.867 0.31
-3.8139999 3.358 -1.865 0.28999999
-3.836 3.355 -1.8710001 0.28999999
-3.8440001 3.3410001 -1.869 0.28
-3.8610001 3.335 -1.873 0.31999999
-3.8629999 3.3150001 -1.869 0.25999999
-3.8870001 3.325 -1.878 0.31999999
-3.8900001 3.3069999 -1.875 0.30000001
-3.8940001 3.289 -1.8710001 0.31
-3.9070001 3.279 -1.872 0.23999999
-3.9030001 3.2550001 -1.865 0.22
-3.9200001 3.2479999 -1.869 0.16
-3.9200001 3.2279999 -1.864 0.20999999
-3.944 3.237 -1.873 0.25999999
-3.948 3.22 -1.87 0.27000001
-3.9530001 3.2030001 -1.867 0.31999999
-3.967 3.194 -1.869 0.30000001
-3.97 3.175 -1.8660001 0.25999999
-3.9860001 3.1670001 -1.869 0.31999999
-3.9949999 3.155 -1.869 0.28999999
-4.0050001 3.152 -1.8710001 0.28999999
-4.007 3.1340001 -1.867 0.27000001
-4.0190001 3.122 -1.868 0.33000001
-4.033 3.1129999 -1.87 0.27000001
-4.0349998 3.095 -1.867 0.28
-4.0370002 3.076 -1.863 0.37
-4.0650001 3.0769999 -1.872 0.27000001
-4.0580001 3.062 -1.8660001 0.33000001
-4.0749998 3.0550001 -1.869 0.27000001
-4.092 3.0469999 -1.873 0.27000001
-4.0939999 3.029 -1.869 0.31
-4.0960002 3.0109999 -1.8660001 0.28999999
-4.125 3.0120001 -1.875 0.28
-4.119 2.9879999 -1.868 0.30000001
-4.1199999 2.9779999 -1.8660001 0.28
-4.138 2.9719999 -1.87 0.33000001
-4.1500001 2.961 -1.872 0.28999999
-4.1659999 2.9519999 -1.875 0.28999999
-4.1669998 2.934 -1.8710001 0.28
-4.1700001 2.9159999 -1.868 0.31
-4.1900001 2.911 -1.873 0.28999999
-4.1890001 2.9000001 -1.87 0.27000001
-4.1900001 2.882 -1.867 0.28999999
-4.204 2.8710001 -1.869 0.28999999
-4.2220001 2.8640001 -1.873 0.30000001
-4.2220001 2.845 -1.869 0.30000001
-4.2459998 2.842 -1.876 0.31999999
-4.2329998 2.8139999 -1.8660001 0.28
-4.25 2.816 -1.872 0.30000001
-4.257 2.8010001 -1.8710001 0.28999999
-4.2849998 2.8 -1.88 0.31999999
-4.2750001 2.7750001 -1.8710001 0.30000001
-4.2820001 2.76 -1.87 0.25
-4.2909999 2.747 -1.87 0.31
-4.303 2.7349999 -1.872 0.28999999
-4.302 2.7249999 -1.869 0.31
-4.3119998 2.7130001 -1.87 0.30000001
-4.3249998 2.7019999 -1.872 0.28999999
-4.3309999 2.687 -1.8710001 0.34
-4.3390002 2.6730001 -1.8710001 0.28
-4.3520002 2.6619999 -1.873 0.34999999
-4.348 2.641 -1.867 0.25999999
-4.3699999 2.645 -1.875 0.31999999
-4.3720002 2.6270001 -1.872 0.30000001
-4.3670001 2.6059999 -1.867 0.28
-4.3829999 2.5969999 -1.87 0.31
-4.3850002 2.579 -1.867 0.28999999
-4.388 2.563 -1.865 0.30000001
-4.4060001 2.5539999 -1.869 0.30000001
-4.4050002 2.5450001 -1.867 0.25999999
-4.421 2.536 -1.8710001 0.34999999
-4.4320002 2.523 -1.872 0.30000001
-4.4369998 2.5079999 -1.8710001 0.27000001
-4.4460001 2.4949999 -1.872 0.31
-4.4460001 2.4760001 -1.868 0.28
-4.4569998 2.464 -1.869 0.31999999
-4.4559999 2.454 -1.867 0.27000001
-4.4720001 2.4449999 -1.8710001 0.31
-4.4840002 2.4330001 -1.873 0.30000001
-4.4850001 2.4159999 -1.87 0.31
-4.4879999 2.3989999 -1.868 0.28
-4.5040002 2.3889999 -1.872 0.31999999
-4.5050001 2.372 -1.869 0.31
-4.4949999 2.358 -1.863 0.28999999
-4.5079999 2.346 -1.865 0.31999999
-4.5180001 2.3340001 -1.867 0.28999999
-4.5339999 2.3239999 -1.87 0.28
-4.546 2.312 -1.872 0.33000001
-4.5500002 2.296 -1.8710001 0.30000001
-4.546 2.276 -1.8660001 0.30000001
-4.546 2.267 -1.864 0.28
-4.5560002 2.2539999 -1.8660001 0.31999999
-4.5700002 2.243 -1.869 0.30000001
-4.5770001 2.2290001 -1.869 0.28999999
-4.5840001 2.2149999 -1.869 0.28999999
-4.586 2.198 -1.867 0.30000001
-4.6079998 2.1900001 -1.873 0.28
-4.6030002 2.1789999 -1.869 0.28
-4.6129999 2.1659999 -1.8710001 0.28999999
-4.618 2.151 -1.87 0.30000001
-4.625 2.1370001 -1.87 0.27000001
-4.6300001 2.1210001 -1.869 0.28999999
-4.6329999 2.105 -1.868 0.31
-4.6409998 2.0910001 -1.869 0.25
-4.6409998 2.0829999 -1.867 0.31999999
-4.6409998 2.0650001 -1.864 0.31
-4.665 2.0580001 -1.872 0.28999999
-4.671 2.043 -1.872 0.30000001
-4.6620002 2.0220001 -1.865 0.31999999
-4.677 2.0109999 -1.869 0.27000001
-4.6750002 1.993 -1.865 0.28999999
-4.6810002 1.987 -1.867 0.27000001
-4.6869998 1.972 -1.867 0.2
-4.6950002 1.9579999 -1.867 0.27000001
-4.7049999 1.9450001 -1.869 0
-4.7080002 1.928 -1.867 0
-4.7220001 1.9170001 -1.8710001 0
-4.7160001 1.897 -1.8660001 0
-4.494 -2.1530001 -1.827 0
-4.4819999 -2.165 -1.824 0
-4.4840002 -2.174 -1.827 0.02
-4.4720001 -2.1860001 -1.824 0.029999999
-4.4660001 -2.2 -1.825 0.13
-4.4580002 -2.214 -1.824 0.22
-4.434 -2.2190001 -1.817 0.23
-4.4239998 -2.2309999 -1.816 0.25999999
-4.4190001 -2.2460001 -1.816 0.28
-4.4000001 -2.2449999 -1.8099999 0.28
-4.4130001 -2.27 -1.819 0.25999999
-4.3979998 -2.279 -1.8150001 0.27000001
-4.4050002 -2.3010001 -1.821 0.27000001
-4.375 -2.302 -1.811 0.30000001
-4.3769999 -2.3210001 -1.816 0.27000001
-4.3730001 -2.3369999 -1.817 0.28
-4.3629999 -2.349 -1.816 0.28999999
-4.3460002 -2.348 -1.8099999 0.30000001
-4.3520002 -2.369 -1.816 0.27000001
-4.349 -2.3859999 -1.818 0.27000001
-4.3319998 -2.3940001 -1.813 0.28999999
-4.3189998 -2.405 -1.811 0.28999999
-4.3260002 -2.427 -1.818 0.25
-4.3060002 -2.4330001 -1.812 0.30000001
-4.3099999 -2.444 -1.816 0.25
-4.302 -2.4579999 -1.816 0.30000001
-4.2820001 -2.464 -1.8099999 0.27000001
-4.29 -2.487 -1.817 0.27000001
-4.2810001 -2.4990001 -1.816 0.28
-4.2729998 -2.513 -1.816 0.28999999
-4.2600002 -2.523 -1.814 0.27000001
-4.263 -2.5339999 -1.817 0.28999999
-4.25 -2.5439999 -1.8150001 0.31
-4.2389998 -2.5550001 -1.813 0.23
-4.2420001 -2.576 -1.819 0.27000001
-4.2319999 -2.5880001 -1.818 0.28
-4.224 -2.6010001 -1.818 0.28
-4.2150002 -2.605 -1.816 0.31
-4.2189999 -2.6259999 -1.821 0.25
-4.2090001 -2.638 -1.821 0.30000001
-4.1919999 -2.645 -1.816 0.28999999
-4.1880002 -2.6619999 -1.819 0.25999999
-4.1799998 -2.675 -1.819 0.25
-4.1669998 -2.6849999 -1.816 0.31
-4.1609998 -2.6900001 -1.816 0.28
-4.1459999 -2.6989999 -1.813 0.30000001
-4.138 -2.7119999 -1.813 0.25999999
-4.145 -2.7360001 -1.8200001 0.25999999
-4.1269999 -2.7420001 -1.816 0.30000001
-4.1269999 -2.7620001 -1.8200001 0.23
-4.1220002 -2.777 -1.821 0.28
-4.1020002 -2.773 -1.814 0.33000001
-4.1129999 -2.799 -1.824 0.25
-4.0739999 -2.7909999 -1.809 0.30000001
-4.086 -2.819 -1.819 0.25999999
-4.0840001 -2.836 -1.822 0.28999999
-4.0669999 -2.8429999 -1.819 0.28999999
-4.0469999 -2.848 -1.813 0.31999999
-4.0510001 -2.8599999 -1.817 0.27000001
-4.0489998 -2.878 -1.821 0.28999999
-4.04 -2.891 -1.821 0.27000001
-4.0279999 -2.902 -1.819 0.28999999
-4.02 -2.915 -1.8200001 0.31999999
-4.013 -2.9289999 -1.821 0.28999999
-4.0029998 -2.9419999 -1.821 0.31
-3.9879999 -2.9400001 -1.816 0.31999999
-3.9879999 -2.9590001 -1.8200001 0.23
-3.977 -2.971 -1.819 0.31
-3.9679999 -2.983 -1.819 0.30000001
-3.9630001 -2.9990001 -1.821 0.27000001
-3.9530001 -3.0109999 -1.821 0.30000001
-3.9400001 -3.02 -1.819 0.27000001
-3.9330001 -3.0250001 -1.819 0.28999999
-3.921 -3.036 -1.817 0.27000001
-3.9130001 -3.049 -1.818 0.28
-3.8970001 -3.0569999 -1.8150001 0.27000001
-3.902 -3.0799999 -1.822 0.31999999
-3.8900001 -3.0899999 -1.821 0.28
-3.8840001 -3.1059999 -1.823 0.30000001
-3.8710001 -3.105 -1.819 0.30000001
-3.862 -3.118 -1.819 0.31999999
-3.858 -3.135 -1.822 0.27000001
-3.8440001 -3.1440001 -1.8200001 0.28999999
-3.836 -3.1570001 -1.821 0.31999999
-3.8239999 -3.168 -1.8200001 0.25999999
-3.806 -3.1730001 -1.816 0.33000001
-3.8110001 -3.187 -1.821 0.27000001
-3.7980001 -3.197 -1.819 0.30000001
-3.796 -3.2160001 -1.824 0.28999999
-3.7750001 -3.2179999 -1.818 0.28999999
-3.77 -3.2349999 -1.821 0.28
-3.757 -3.244 -1.819 0.27000001
-3.75 -3.2579999 -1.821 0.30000001
-3.7550001 -3.273 -1.826 0.34
-3.743 -3.283 -1.825 0.28999999
-3.73 -3.293 -1.824 0.28999999
-3.714 -3.299 -1.821 0.27000001
-3.7090001 -3.316 -1.824 0.31999999
-3.6849999 -3.3150001 -1.816 0.30000001
-3.681 -3.3329999 -1.8200001 0.28
-3.6800001 -3.3429999 -1.822 0.30000001
-3.671 -3.355 -1.823 0.30000001
-3.6670001 -3.3729999 -1.827 0.27000001
-3.6459999 -3.375 -1.821 0.30000001
-3.6389999 -3.3900001 -1.823 0.28999999
-3.622 -3.395 -1.819 0.30000001
-3.6140001 -3.4089999 -1.821 0.28
-3.6129999 -3.418 -1.823 0.31999999
-3.5940001 -3.4219999 -1.819 0.28
-3.5799999 -3.431 -1.817 0.31999999
-3.5780001 -3.45 -1.821 0.30000001
-3.5650001 -3.46 -1.821 0.27000001
-3.5639999 -3.48 -1.826 0.31
-3.55 -3.4879999 -1.824 0.28
-3.53 -3.48 -1.816 0.28
-3.5280001 -3.5 -1.821 0.28
-3.516 -3.51 -1.821 0.34999999
-3.5050001 -3.5209999 -1.821 0.28
-3.5020001 -3.54 -1.825 0.28999999
-3.48 -3.54 -1.819 0.27000001
-3.473 -3.5550001 -1.821 0.28999999
-3.47 -3.563 -1.823 0.28999999
-3.4549999 -3.5699999 -1.821 0.31
-3.4460001 -3.5829999 -1.822 0.28999999
-3.444 -3.6040001 -1.827 0.30000001
-3.4170001 -3.598 -1.819 0.31
-3.4119999 -3.6159999 -1.822 0.28999999
-3.411 -3.6370001 -1.8279999 0.33000001
-3.4000001 -3.6370001 -1.825 0.30000001
-3.3800001 -3.638 -1.8200001 0.28
-3.3740001 -3.654 -1.823 0.33000001
-3.3570001 -3.6589999 -1.8200001 0.31999999
-3.3540001 -3.6800001 -1.825 0.31
-3.345 -3.6930001 -1.827 0.28
-3.332 -3.6900001 -1.822 0.28999999
-3.3280001 -3.7090001 -1.827 0.34
-3.309 -3.711 -1.822 0.25999999
-3.2950001 -3.7179999 -1.821 0.34
-3.293 -3.74 -1.827 0.25
-3.27 -3.7379999 -1.8200001 0.18000001
-3.2609999 -3.7509999 -1.821 0.30000001
-3.2449999 -3.757 -1.819 0.19
-3.2390001 -3.7620001 -1.819 0.13
-3.2179999 -3.76 -1.813 0.2
-3.214 -3.7809999 -1.819 0.11
-3.2 -3.7880001 -1.817 0.039999999
-3.1930001 -3.8039999 -1.8200001 0.029999999
-3.1730001 -3.803 -1.8150001 0
-3.1630001 -3.8039999 -1.813 0
-3.132 -3.7909999 -1.801 0
-3.119 -3.799 -1.8 0
-2.7639999 -4.171 -1.835 0
-2.75 -4.178 -1.834 0
-2.7190001 -4.1599998 -1.821 0
-2.687 -4.1389999 -1.808 0.12
-2.694 -4.178 -1.822 0.2
-2.6670001 -4.1500001 -1.807 0.20999999
-2.655 -4.1609998 -1.808 0.25
-2.642 -4.1690001 -1.808 0.25999999
-2.625 -4.171 -1.8049999 0.30000001
-2.6170001 -4.1880002 -1.809 0.31
-2.598 -4.1859999 -1.8049999 0.31999999
-2.5880001 -4.1989999 -1.807 0.30000001
-2.575 -4.1939998 -1.803 0.31
-2.5599999 -4.1989999 -1.801 0.28
-2.5569999 -4.223 -1.808 0.33000001
-2.5420001 -4.2270002 -1.807 0.31999999
-2.523 -4.2259998 -1.803 0.33000001
-2.5120001 -4.2379999 -1.8049999 0.33000001
-2.5020001 -4.2509999 -1.807 0.31999999
-2.4920001 -4.25 -1.8049999 0.28
-2.4820001 -4.263 -1.807 0.31999999
-2.4630001 -4.2610002 -1.803 0.33000001
-2.4489999 -4.2690001 -1.803 0.28999999
-2.4449999 -4.2930002 -1.8099999 0.30000001
-2.428 -4.2940001 -1.807 0.33000001
-2.415 -4.303 -1.808 0.31999999
-2.408 -4.3070002 -1.808 0.31999999
-2.388 -4.3010001 -1.802 0.33000001
-2.372 -4.3049998 -1.8 0.27000001
-2.369 -4.3330002 -1.809 0.33000001
-2.352 -4.3330002 -1.806 0.31999999
-2.335 -4.3340001 -1.803 0.30000001
-2.322 -4.3410001 -1.803 0.30000001
-2.3199999 -4.355 -1.808 0.30000001
-2.303 -4.3559999 -1.8049999 0.30000001
-2.293 -4.3709998 -1.808 0.31999999
-2.2739999 -4.3670001 -1.803 0.31
-2.263 -4.381 -1.806 0.31999999
-2.2490001 -4.3860002 -1.8049999 0.31
-2.23 -4.3829999 -1.801 0.30000001
-2.221 -4.381 -1.799 0.31
-2.2119999 -4.3979998 -1.803 0.31999999
-2.1949999 -4.4000001 -1.801 0.33000001
-2.178 -4.3990002 -1.7970001 0.25999999
-2.168 -4.414 -1.801 0.30000001
-2.1530001 -4.4190001 -1.8 0.31999999
-2.142 -4.4310002 -1.803 0.31999999
-2.135 -4.4359999 -1.803 0.31999999
-2.115 -4.4289999 -1.7970001 0.28999999
-2.1059999 -4.4460001 -1.802 0.33000001
-2.0910001 -4.4510002 -1.801 0.31999999
-2.0710001 -4.4439998 -1.795 0.28999999
-2.062 -4.461 -1.8 0.33000001
-2.052 -4.4770002 -1.804 0.33000001
-2.036 -4.46 -1.795 0.31999999
-2.023 -4.4699998 -1.7970001 0.31999999
-2.0120001 -4.4829998 -1.8 0.28999999
-2.0020001 -4.4980001 -1.803 0.33000001
-1.983 -4.494 -1.799 0.31
-1.975 -4.5139999 -1.8049999 0.31999999
-1.9579999 -4.493 -1.795 0.31
-1.947 -4.506 -1.7970001 0.31999999
-1.9349999 -4.5170002 -1.8 0.31999999
-1.92 -4.5209999 -1.799 0.30000001
-1.904 -4.5240002 -1.7970001 0.31999999
-1.891 -4.5320001 -1.798 0.30000001
-1.874 -4.5310001 -1.795 0.31
-1.8660001 -4.5339999 -1.795 0.31
-1.854 -4.5450001 -1.7970001 0.31
-1.837 -4.5430002 -1.795 0.31
-1.823 -4.5489998 -1.795 0.31999999
-1.813 -4.5669999 -1.8 0.31
-1.793 -4.5570002 -1.793 0.30000001
-1.781 -4.5700002 -1.796 0.31999999
-1.777 -4.579 -1.799 0.33000001
-1.756 -4.5679998 -1.7920001 0.31
-1.742 -4.5749998 -1.7920001 0.31999999
-1.7309999 -4.5890002 -1.796 0.30000001
-1.716 -4.5929999 -1.795 0.31999999
-1.7 -4.5929999 -1.793 0.30000001
-1.686 -4.5999999 -1.794 0.30000001
-1.683 -4.6149998 -1.799 0.31999999
-1.66 -4.5970001 -1.789 0.31999999
-1.653 -4.6230001 -1.798 0.31
-1.6339999 -4.6160002 -1.793 0.30000001
-1.619 -4.618 -1.7920001 0.30000001
-1.605 -4.6269999 -1.793 0.31999999
-1.592 -4.6350002 -1.795 0.31999999
-1.584 -4.6360002 -1.794 0.31
-1.568 -4.6370001 -1.7920001 0.31
-1.551 -4.6329999 -1.789 0.30000001
-1.54 -4.6490002 -1.793 0.30000001
-1.522 -4.645 -1.789 0.30000001
-1.508 -4.651 -1.79 0.28999999
-1.493 -4.6539998 -1.789 0.30000001
-1.49 -4.671 -1.795 0.30000001
-1.47 -4.658 -1.788 0.30000001
-1.46 -4.678 -1.795 0.34
-1.442 -4.6719999 -1.79 0.28999999
-1.427 -4.6729999 -1.789 0.30000001
-1.41 -4.6700001 -1.786 0.30000001
-1.399 -4.6869998 -1.791 0.30000001
-1.39 -4.6859999 -1.789 0.31999999
-1.378 -4.6989999 -1.793 0.31999999
-1.358 -4.684 -1.785 0.28999999
-1.348 -4.704 -1.7920001 0.31
-1.3279999 -4.6919999 -1.785 0.30000001
-1.318 -4.7129998 -1.7920001 0.31
-1.301 -4.7080002 -1.788 0.30000001
-1.293 -4.7059999 -1.7869999 0.31
-1.278 -4.7119999 -1.7869999 0.31999999
-1.265 -4.723 -1.79 0.30000001
-1.247 -4.7129998 -1.784 0.28999999
-1.234 -4.724 -1.7869999 0.30000001
-1.2180001 -4.7220001 -1.785 0.31
-1.202 -4.7220001 -1.784 0.28999999
-1.1950001 -4.7259998 -1.784 0.31
-1.1799999 -4.7319999 -1.785 0.30000001
-1.164 -4.73 -1.783 0.30000001
-1.152 -4.743 -1.7869999 0.30000001
-1.1339999 -4.7329998 -1.781 0.28999999
-1.1210001 -4.7459998 -1.785 0.30000001
-1.1059999 -4.75 -1.785 0.28999999
-1.097 -4.7459998 -1.783 0.30000001
-1.084 -4.757 -1.786 0.28999999
-1.067 -4.7529998 -1.783 0.28999999
-1.054 -4.7610002 -1.785 0.28999999
-1.04 -4.77 -1.7869999 0.28999999
-1.024 -4.7680001 -1.785 0.28999999
-1.011 -4.7800002 -1.789 0.31
-1.001 -4.7690001 -1.784 0.28999999
-0.98500001 -4.7690001 -1.7819999 0.28999999
-0.97000003 -4.7719998 -1.7819999 0.30000001
-0.95700002 -4.7870002 -1.7869999 0.33000001
-0.94300002 -4.7919998 -1.788 0.31
-0.92799997 -4.7989998 -1.789 0.28
-0.91000003 -4.7849998 -1.783 0.28999999
-0.90399998 -4.7940001 -1.786 0.28999999
-0.889 -4.7950001 -1.785 0.31999999
-0.87199998 -4.79 -1.7819999 0.28
-0.85699999 -4.7930002 -1.7819999 0.28999999
-0.84200001 -4.7940001 -1.781 0.30000001
-0.829 -4.8080001 -1.786 0.31
-0.82099998 -4.809 -1.786 0.28999999
-0.80400002 -4.802 -1.7819999 0.27000001
-0.79100001 -4.8179998 -1.7869999 0.31999999
-0.77600002 -4.816 -1.786 0.27000001
-0.759 -4.8119998 -1.783 0.31999999
-0.74199998 -4.7989998 -1.777 0.28
-0.72799999 -4.809 -1.78 0.28999999
-0.72100002 -4.8150001 -1.7819999 0.31999999
-0.70499998 -4.8119998 -1.78 0.28999999
-0.69300002 -4.8309999 -1.7869999 0.31
-0.676 -4.8239999 -1.783 0.30000001
-0.65899998 -4.8109999 -1.777 0.28999999
-0.64499998 -4.8210001 -1.78 0.28999999
-0.63 -4.823 -1.78 0.31999999
-0.62300003 -4.8330002 -1.784 0.28999999
-0.60900003 -4.8390002 -1.785 0.30000001
-0.59200001 -4.8260002 -1.779 0.28999999
-0.57599998 -4.8200002 -1.776 0.30000001
-0.56199998 -4.835 -1.781 0.31999999
-0.546 -4.8270001 -1.778 0.28999999
-0.52999997 -4.8249998 -1.776 0.28999999
-0.52399999 -4.835 -1.78 0.31999999
-0.50700003 -4.8239999 -1.775 0.28999999
-0.49200001 -4.8270001 -1.776 0.28999999
-0.477 -4.835 -1.778 0.28999999
-0.46200001 -4.8299999 -1.776 0.31999999
-0.44600001 -4.823 -1.772 0.28999999
-0.43200001 -4.8390002 -1.778 0.31999999
-0.42199999 -4.8169999 -1.7690001 0.28
-0.40900001 -4.8390002 -1.777 0.33000001
-0.39300001 -4.8330002 -1.774 0.28999999
-0.377 -4.8280001 -1.772 0.28999999
-0.36300001 -4.8330002 -1.773 0.30000001
-0.34799999 -4.842 -1.776 0.33000001
-0.33199999 -4.8319998 -1.772 0.28999999
-0.324 -4.8319998 -1.772 0.28999999
-0.30899999 -4.835 -1.773 0.30000001
-0.294 -4.8340001 -1.772 0.31
-0.27900001 -4.8330002 -1.771 0.30000001
-0.264 -4.836 -1.772 0.31
-0.248 -4.835 -1.771 0.30000001
-0.233 -4.823 -1.766 0.30000001
-0.226 -4.8429999 -1.774 0.30000001
-0.20999999 -4.822 -1.765 0.30000001
-0.19499999 -4.835 -1.771 0.31999999
-0.18000001 -4.842 -1.773 0.31
-0.16500001 -4.829 -1.768 0.30000001
-0.149 -4.8260002 -1.766 0.30000001
-0.134 -4.8379998 -1.771 0.28999999
-0.127 -4.8270001 -1.766 0.28
-0.111 -4.8249998 -1.765 0.33000001
-0.096000001 -4.8270001 -1.766 0.28999999
-0.081 -4.816 -1.762 0.30000001
-0.066 -4.8179998 -1.763 0.28999999
-0.050999999 -4.8239999 -1.765 0.28999999
-0.043000001 -4.8189998 -1.763 0.31
-0.028000001 -4.8210001 -1.763 0.31999999
-0.013 -4.8239999 -1.765 0.31999999
0.0020000001 -4.8210001 -1.763 0.31999999
0.017999999 -4.8239999 -1.765 0.31
0.033 -4.8299999 -1.767 0.31999999
0.048 -4.8130002 -1.76 0.31999999
0.055 -4.8200002 -1.763 0.30000001
0.07 -4.8179998 -1.763 0.30000001
0.086000003 -4.8239999 -1.765 0.30000001
0.101 -4.8200002 -1.763 0.31
0.116 -4.8270001 -1.766 0.31
0.131 -4.8169999 -1.763 0.31999999
0.146 -4.8130002 -1.761 0.30000001
0.154 -4.8130002 -1.761 0.31999999
0.169 -4.8119998 -1.761 0.30000001
0.184 -4.8210001 -1.765 0.31
0.2 -4.8239999 -1.766 0.31999999
0.214 -4.8099999 -1.761 0.28999999
0.229 -4.8130002 -1.763 0.27000001
0.244 -4.8070002 -1.76 0.33000001
0.252 -4.8070002 -1.76 0.30000001
0.26699999 -4.8060002 -1.76 0.31
0.28200001 -4.8070002 -1.761 0.30000001
0.29699999 -4.8060002 -1.761 0.31
0.31200001 -4.8070002 -1.762 0.33000001
0.32800001 -4.8080001 -1.763 0.31
0.34299999 -4.8049998 -1.762 0.28999999
0.34999999 -4.8010001 -1.76 0.28999999
0.36500001 -4.7989998 -1.76 0.31999999
0.38 -4.7979999 -1.76 0.28999999
0.39500001 -4.7989998 -1.761 0.31
0.40900001 -4.7849998 -1.756 0.28
0.42500001 -4.7940001 -1.76 0.31999999
0.43900001 -4.7800002 -1.755 0.28
0.447 -4.7849998 -1.758 0.31999999
0.46200001 -4.7870002 -1.7589999 0.31
0.47799999 -4.7909999 -1.761 0.30000001
0.491 -4.7690001 -1.753 0.28
0.50800002 -4.7859998 -1.76 0.31999999
0.52100003 -4.7719998 -1.755 0.30000001
0.537 -4.7740002 -1.757 0.28
0.546 -4.7820001 -1.76 0.31
0.56099999 -4.7810001 -1.76 0.30000001
0.57499999 -4.7729998 -1.758 0.30000001
0.58999997 -4.7709999 -1.758 0.30000001
0.60299999 -4.7579999 -1.7539999 0.28999999
0.62 -4.7690001 -1.7589999 0.30000001
0.63499999 -4.7659998 -1.758 0.28999999
0.64200002 -4.7610002 -1.757 0.30000001
0.65799999 -4.7659998 -1.76 0.27000001
0.67299998 -4.7639999 -1.76 0.28
0.685 -4.7470002 -1.7539999 0.20999999
0.70099998 -4.7490001 -1.755 0.28
0.71600002 -4.75 -1.757 0.20999999
0.73000002 -4.737 -1.752 0.20999999
0.73900002 -4.7490001 -1.758 0.090000004
0.75700003 -4.763 -1.7640001 0
0.76700002 -4.7329998 -1.753 0
0.78399998 -4.7449999 -1.7589999 0
0.79299998 -4.704 -1.744 0
0.81099999 -4.7199998 -1.751 0
0.82499999 -4.7160001 -1.75 0
0.82800001 -4.6869998 -1.739 0
0.84500003 -4.6989999 -1.745 0
0.86000001 -4.6999998 -1.747 0
0.91600001 -4.7080002 -1.7539999 0
0.93300003 -4.7179999 -1.7589999 0
0.94700003 -4.71 -1.757 0
0.96200001 -4.71 -1.758 0
0.97799999 -4.711 -1.76 0
0.98900002 -4.6919999 -1.753 0
1.002 -4.6789999 -1.75 0
2.6289999 -3.891 -1.715 0
2.6670001 -3.921 -1.733 0.02
2.677 -3.9100001 -1.7309999 0.029999999
2.7030001 -3.9200001 -1.74 0.16
2.7049999 -3.898 -1.734 0.23
2.698 -3.862 -1.72 0.2
2.694 -3.8440001 -1.714 0.36000001
2.6989999 -3.825 -1.709 0.28999999
2.721 -3.8299999 -1.715 0.31999999
2.727 -3.8139999 -1.712 0.31999999
2.7390001 -3.8050001 -1.712 0.31999999
2.753 -3.799 -1.7130001 0.34999999
2.7639999 -3.789 -1.712 0.34
2.7690001 -3.783 -1.712 0.33000001
2.7820001 -3.776 -1.712 0.31999999
2.7920001 -3.7639999 -1.711 0.34
2.806 -3.7590001 -1.712 0.33000001
2.8199999 -3.753 -1.714 0.34
2.8239999 -3.734 -1.709 0.34
2.8299999 -3.717 -1.705 0.33000001
2.845 -3.7249999 -1.711 0.33000001
2.8510001 -3.7079999 -1.707 0.34999999
2.8629999 -3.701 -1.7079999 0.31
2.882 -3.701 -1.712 0.43000001
2.881 -3.675 -1.704 0.31
2.8970001 -3.6719999 -1.707 0.33000001
2.908 -3.675 -1.711 0.31999999
2.9200001 -3.6659999 -1.711 0.44
2.9189999 -3.641 -1.7029999 0.23
2.937 -3.6400001 -1.707 0.28999999
2.947 -3.6289999 -1.707 0.25
2.9630001 -3.6259999 -1.71 0.25
2.9779999 -3.6210001 -1.712 0.27000001
2.9890001 -3.622 -1.715 0.25999999
3.003 -3.615 -1.716 0.28999999
3.0150001 -3.6070001 -1.717 0.30000001
3.016 -3.585 -1.71 0.27000001
3.02 -3.5669999 -1.706 0.28999999
3.0510001 -3.582 -1.7180001 0.27000001
3.0550001 -3.5639999 -1.714 0.28999999
3.0610001 -3.559 -1.714 0.28
3.0639999 -3.539 -1.709 0.19
3.0769999 -3.5320001 -1.71 0.30000001
3.0869999 -3.5209999 -1.71 0.25
3.1040001 -3.5190001 -1.7130001 0.25
3.1099999 -3.503 -1.71 0.27000001
3.1259999 -3.4990001 -1.7130001 0.25999999
3.119 -3.48 -1.706 0.16
3.145 -3.487 -1.715 0.5
3.152 -3.473 -1.712 0.27000001
3.1589999 -3.4590001 -1.71 0.27000001
3.1700001 -3.4489999 -1.71 0.28
3.184 -3.4419999 -1.712 0.30000001
3.1819999 -3.418 -1.704 0.33000001
3.1849999 -3.4100001 -1.7029999 0.25999999
3.197 -3.402 -1.704 0.27000001
3.207 -3.392 -1.704 0.27000001
3.224 -3.388 -1.707 0.27000001
3.2390001 -3.382 -1.71 0.23999999
3.24 -3.3629999 -1.704 0.28999999
3.2550001 -3.3670001 -1.71 0.30000001
3.2590001 -3.3499999 -1.706 0.30000001
3.2709999 -3.3410001 -1.707 0.28999999
3.2720001 -3.322 -1.702 0.28
3.29 -3.319 -1.706 0.25
3.2980001 -3.306 -1.704 0.30000001
3.3039999 -3.2920001 -1.702 0.23999999
3.313 -3.2909999 -1.704 0.30000001
3.326 -3.283 -1.706 0.28999999
3.326 -3.2620001 -1.7 0.27000001
3.342 -3.257 -1.7029999 0.28
3.348 -3.2420001 -1.701 0.27000001
3.3659999 -3.2390001 -1.705 0.23999999
3.3829999 -3.2349999 -1.709 0.30000001
3.372 -3.2149999 -1.7 0.18000001
3.382 -3.204 -1.7 0.31
3.391 -3.1919999 -1.699 0.23999999
3.4130001 -3.1930001 -1.706 0.25
3.4059999 -3.1670001 -1.697 0.28999999
3.4289999 -3.168 -1.704 0.23999999
3.4389999 -3.1570001 -1.704 0.30000001
3.4449999 -3.1530001 -1.704 0.28
3.4449999 -3.1329999 -1.699 0.27000001
3.4630001 -3.1300001 -1.704 0.25999999
3.483 -3.1270001 -1.709 0.28999999
3.484 -3.109 -1.704 0.28
3.4909999 -3.096 -1.7029999 0.31
3.4820001 -3.0780001 -1.696 0.28999999
3.5020001 -3.075 -1.701 0.23999999
3.5109999 -3.0639999 -1.701 0.27000001
3.5239999 -3.056 -1.702 0.30000001
3.5420001 -3.052 -1.707 0.23
3.5439999 -3.0350001 -1.7029999 0.28
3.5369999 -3.0090001 -1.694 0.30000001
3.546 -3.007 -1.696 0.25999999
3.5569999 -2.997 -1.697 0.28
3.5769999 -2.9960001 -1.7029999 0.25999999
3.575 -2.9749999 -1.697 0.30000001
3.589 -2.967 -1.699 0.28999999
3.5899999 -2.9489999 -1.6950001 0.28999999
3.599 -2.938 -1.6950001 0.28
3.6059999 -2.934 -1.696 0.25999999
3.6329999 -2.937 -1.705 0.30000001
3.638 -2.9219999 -1.7029999 0.30000001
3.651 -2.914 -1.705 0.28
3.6400001 -2.8859999 -1.6950001 0.30000001
3.6619999 -2.885 -1.702 0.25999999
3.671 -2.8740001 -1.702 0.28
3.674 -2.8670001 -1.701 0.28999999
3.6659999 -2.842 -1.692 0.30000001
3.6919999 -2.8440001 -1.701 0.25
3.698 -2.8299999 -1.699 0.30000001
3.7119999 -2.822 -1.702 0.28
3.707 -2.8 -1.6950001 0.30000001
3.7190001 -2.79 -1.696 0.23
3.7249999 -2.786 -1.697 0.27000001
3.721 -2.7650001 -1.691 0.2
3.73 -2.753 -1.691 0.30000001
3.7449999 -2.7460001 -1.694 0.23
3.7550001 -2.7349999 -1.6950001 0.27000001
3.753 -2.7160001 -1.6900001 0.28999999
3.7639999 -2.7060001 -1.691 0.28999999
