# .PCD v0.7 - Point Cloud Data file format
VERSION 0.7
FIELDS x y z intensity
SIZE 4 4 4 4
TYPE F F F F
COUNT 1 1 1 1
WIDTH 1476
HEIGHT 1
VIEWPOINT 0 0 0 1 0 0 0
POINTS 1476
DATA ascii
-21.580999 -5.7010002 -2.276 0.090000004
-21.541 -5.763 -2.273 0.079999998
-21.514 -5.8280001 -2.2720001 0.079999998
-21.483999 -5.8920002 -2.2709999 0.090000004
-21.455 -5.9569998 -2.27 0
-21.445999 -5.9910002 -2.27 0
-21.424999 -6.0570002 -2.27 0
-21.423 -6.1300001 -2.2720001 0
-21.41 -6.1989999 -2.2720001 0
-21.396 -6.2670002 -2.273 0
-21.414 -6.3460002 -2.277 0
-21.438 -6.4260001 -2.2820001 0
-21.468 -6.4720001 -2.2869999 0
-21.478001 -6.5489998 -2.2909999 0
-21.516001 -6.6350002 -2.2969999 0
-21.525 -6.7119999 -2.3010001 0
-21.525 -6.7859998 -2.303 0
-21.528 -6.8610001 -2.306 0
-21.537001 -6.9390001 -2.3099999 0.07
-21.605 -6.9980001 -2.319 0.090000004
-21.563999 -7.0599999 -2.3169999 0.14
-21.504 -7.1149998 -2.312 0.1
-21.461 -7.1760001 -2.3099999 0.16
-21.391001 -7.2270002 -2.3039999 0.22
-21.348 -7.2870002 -2.302 0.11
-21.295 -7.3439999 -2.299 0.090000004
-21.27 -7.3730001 -2.2969999 0.14
-21.224001 -7.4320002 -2.2939999 0.1
-21.195 -7.4959998 -2.2939999 0.15000001
-21.153 -7.5560002 -2.2909999 0.1
-21.114 -7.6170001 -2.29 0.14
-21.087999 -7.6830001 -2.289 0.090000004
-21.062 -7.7480001 -2.289 0.15000001
-21.037001 -7.776 -2.2880001 0.1
-21.018 -7.8449998 -2.2880001 0.14
-20.982 -7.9060001 -2.2869999 0.1
-20.968 -7.9759998 -2.2880001 0.14
-20.941 -8.0419998 -2.2880001 0.1
-20.934 -8.1149998 -2.29 0.14
-20.916 -8.1829996 -2.2909999 0.16
-20.914 -8.2200003 -2.293 0
-20.896 -8.2889996 -2.293 0
-20.921 -8.375 -2.3 0
-20.886 -8.4370003 -2.299 0.039999999
-20.861 -8.5039997 -2.299 0.19
-20.77 -8.5430002 -2.2909999 0.11
-20.721001 -8.599 -2.2880001 0.14
-20.691 -8.6239996 -2.286 0.1
-20.671 -8.6920004 -2.2869999 0.14
-20.622999 -8.7489996 -2.2850001 0.16
-20.579 -8.8059998 -2.283 0.17
-20.530001 -8.8610001 -2.28 0.16
-20.538 -8.9420004 -2.2850001 0.17
-20.500999 -9.0019999 -2.2839999 0.19
-20.374001 -8.9849997 -2.27 0.25999999
-20.222 -8.993 -2.2550001 0.41
-20.143 -9.0340004 -2.2490001 0.38
-20.007999 -9.0489998 -2.2360001 0.36000001
-19.993999 -9.118 -2.237 0.37
-19.877001 -9.1400003 -2.227 0.38999999
-19.812 -9.1479998 -2.22 0.36000001
-19.646 -9.1459999 -2.204 0.36000001
-19.643999 -9.2209997 -2.207 0.37
-19.455 -9.2069998 -2.187 0.28
-19.32 -9.217 -2.174 0.38999999
-19.493999 -9.375 -2.1989999 0.34999999
-19.568001 -9.4870005 -2.2119999 0.31999999
-19.458 -9.4709997 -2.2 0.2
-19.139 -9.3900003 -2.165 0.13
-18.827999 -9.3109999 -2.1300001 0.38999999
-18.518 -9.2290001 -2.095 0.13
-18.489 -9.2880001 -2.095 0.2
-18.400999 -9.316 -2.0880001 0.46000001
-18.372 -9.3739996 -2.0880001 0.25999999
-18.452 -9.4879999 -2.1010001 0.11
-17.749001 -9.1599998 -2.0150001 0
-18.576 -9.6630001 -2.1229999 0.059999999
-17.67 -9.2609997 -2.013 0
-19.4 -10.248 -2.234 0
-19.386 -10.319 -2.2360001 0.12
-20.558001 -11.027 -2.388 0.27000001
-20.514 -11.046 -2.3840001 0
-17.485001 -9.4809999 -2.006 0.11
-17.476999 -9.5480003 -2.0090001 0.2
-20.433001 -11.252 -2.3870001 0.14
-20.318001 -11.272 -2.3770001 0.46000001
-20.402 -11.402 -2.392 0.19
-16.934999 -9.5299997 -1.955 0.31999999
-20.309 -11.519 -2.3900001 0.28
-20.214001 -11.506 -2.3800001 0.25
-20.319 -11.651 -2.398 0.28
-20.284 -11.716 -2.398 0.17
-20.202 -11.753 -2.392 0.33000001
-20.121 -11.79 -2.3870001 0.28
-20.046 -11.831 -2.382 0
-19.653 -11.64 -2.3340001 0
-19.558001 -11.667 -2.326 0
-19.493 -11.711 -2.322 0
-19.488001 -11.792 -2.3269999 0
-20.294001 -12.368 -2.4360001 0.12
-15.533 -9.5270004 -1.821 0.28999999
-20.18 -12.474 -2.431 0.12
-20.139 -12.492 -2.4289999 0.16
-20.103001 -12.557 -2.4289999 0
-20.048 -12.611 -2.427 0
-16.17 -10.308 -1.927 0.13
-14.851 -9.5959997 -1.761 0
-14.676 -9.5150003 -1.74 0
-15.743 -10.28 -1.886 0.079999998
-15.659 -10.296 -1.8789999 0
-15.528 -10.279 -1.8660001 0
-15.394 -10.26 -1.852 0
-15.309 -10.273 -1.845 0
-15.188 -10.261 -1.8329999 0
-15.105 -10.239 -1.824 0
-15.008 -10.242 -1.8150001 0
-14.907 -10.242 -1.806 0
-14.805 -10.24 -1.7970001 0
-14.725 -10.254 -1.79 0
-14.623 -10.251 -1.781 0
-14.536 -10.258 -1.773 0
-14.45 -10.231 -1.7640001 0
-14.379 -10.248 -1.7589999 0
-14.292 -10.254 -1.751 0
-14.197 -10.253 -1.742 0
-14.052 -10.216 -1.727 0
-13.952 -10.211 -1.7180001 0
-13.85 -10.203 -1.7079999 0
-13.778 -10.183 -1.7 0
-13.703 -10.194 -1.694 0.050000001
-13.69 -10.251 -1.697 0
-13.582 -10.237 -1.686 0
-13.453 -10.206 -1.673 0
-13.386 -10.221 -1.668 0
-13.3 -10.222 -1.661 0
-13.22 -10.193 -1.652 0
-13.178 -10.227 -1.65 0
-13.129 -10.255 -1.648 0
-12.989 -10.212 -1.633 0.029999999
-12.889 -10.264 -1.628 0.16
-12.865 -10.278 -1.627 0
-12.857 -10.339 -1.63 0
-12.805 -10.363 -1.627 0
-12.778 -10.408 -1.628 0
-12.75 -10.452 -1.6289999 0
-12.725 -10.498 -1.63 0
-12.695 -10.541 -1.63 0
-12.687 -10.568 -1.632 0
-12.663 -10.616 -1.633 0
-12.671 -10.69 -1.6390001 0
-11.401 -9.677 -1.459 0
-12.628 -10.79 -1.642 0
-12.609 -10.843 -1.645 0
-12.593 -10.898 -1.647 0
-12.587 -10.928 -1.649 0
-12.574 -10.986 -1.652 0
-12.553 -11.037 -1.654 0
-12.56 -11.114 -1.66 0
-11.366 -10.182 -1.493 0.31999999
-12.462 -11.238 -1.661 0
-12.552 -11.355 -1.677 0
-12.577 -11.451 -1.687 0
-12.613 -11.556 -1.698 0
-16.65 -15.46 -2.3199999 0.17
-16.594999 -15.507 -2.319 0.17
-16.539 -15.552 -2.3180001 0.1
-16.507 -15.571 -2.3169999 0.17
-16.466 -15.63 -2.3180001 0.27000001
-16.414 -15.678 -2.3180001 0.27000001
-16.354 -15.72 -2.316 0.27000001
-16.315001 -15.781 -2.3180001 0.25999999
-16.271 -15.838 -2.319 0.11
-16.215 -15.884 -2.3180001 0.16
-16.209999 -15.928 -2.3210001 0.28
-16.187 -16.006001 -2.325 0
-15.941 -15.862 -2.2939999 0
-15.419 -15.438 -2.22 0.11
-15.333 -15.449 -2.214 0.12
-15.241 -15.453 -2.207 0
-15.154 -15.461 -2.201 0.11
-10.523 -10.759 -1.469 0.19
-10.445 -10.746 -1.462 0.23999999
-10.4 -10.767 -1.461 0.23
-10.365 -10.798 -1.46 0.38999999
-10.313 -10.812 -1.457 0.52999997
-10.298 -10.865 -1.461 0.41
-10.306 -10.942 -1.467 0.23
-15.239 -16.249001 -2.2709999 0.28
-15.142 -16.247 -2.263 0.28999999
-15.057 -16.257999 -2.2579999 0.28999999
-14.967 -16.263 -2.2520001 0.30000001
-14.878 -16.268999 -2.2449999 0.28999999
-14.787 -16.271 -2.2390001 0.28999999
-14.712 -16.24 -2.2309999 0.31
-14.627 -16.247999 -2.2249999 0.28
-14.54 -16.254 -2.2190001 0.27000001
-14.458 -16.264999 -2.214 0.25999999
-14.384 -16.283001 -2.21 0.18000001
-14.314 -16.308001 -2.207 0.38999999
-14.243 -16.33 -2.2030001 0.19
-14.21 -16.343 -2.2019999 0.34999999
-14.136 -16.362 -2.198 0
-13.994 -16.301001 -2.1830001 0
-13.773 -16.145 -2.154 0
-13.159 -15.522 -2.0569999 0.1
-13.105 -15.557 -2.056 0
-12.946 -15.467 -2.0369999 0.14
-12.908 -15.47 -2.0350001 0.25
-12.82 -15.463 -2.0280001 0.31999999
-12.754 -15.482 -2.0250001 0.20999999
-12.656 -15.462 -2.016 0.14
-12.609 -15.503 -2.017 0.15000001
-12.509 -15.479 -2.007 0.17
-12.439 -15.492 -2.0039999 0
-12.439 -15.543 -2.0079999 0
-12.343 -15.523 -2 0
-8.2220001 -10.528 -1.2819999 0.23
-8.1639996 -10.522 -1.277 0.60000002
-8.618 -11.181 -1.3660001 0.16
-8.5880003 -11.179 -1.364 0.57999998
-8.2440004 -10.871 -1.313 0.46000001
-8.3269997 -11.053 -1.335 0.57999998
-12.696 -16.985001 -2.152 0.20999999
-12.634 -17.014 -2.151 0.31
-12.588 -17.063 -2.152 0.27000001
-12.553 -17.072001 -2.1500001 0.27000001
-12.504 -17.117001 -2.151 0.27000001
-12.446 -17.152 -2.151 0.25999999
-12.388 -17.184 -2.1500001 0.25
-12.335 -17.225 -2.1500001 0.41
-12.269 -17.247 -2.148 0.25
-12.215 -17.285999 -2.148 0.23
-12.168 -17.277 -2.1440001 0.16
-7.8330002 -11.181 -1.314 0.2
-7.7719998 -11.168 -1.309 0.62
-7.6469998 -11.061 -1.2920001 0
-10.519 -15.337 -1.863 0
-10.448 -15.335 -1.858 0.059999999
-10.345 -15.287 -1.847 0.14
-10.327 -15.311 -1.849 0.17
-10.242 -15.289 -1.841 0.28
-10.166 -15.28 -1.836 0.28
-10.1 -15.284 -1.832 0.18000001
-10.175 -15.503 -1.857 0.19
-9.9870005 -15.322 -1.829 0
-9.915 -15.316 -1.824 0
-9.8620005 -15.287 -1.818 0
-9.7860003 -15.274 -1.812 0
-9.7250004 -15.283 -1.809 0
-9.6719999 -15.307 -1.808 0
-9.5930004 -15.286 -1.802 0
-9.5159998 -15.271 -1.796 0
-9.4530001 -15.277 -1.793 0
-9.415 -15.268 -1.79 0
-9.3579998 -15.282 -1.788 0
-9.2860003 -15.273 -1.783 0
-9.2180004 -15.269 -1.778 0
-9.1549997 -15.273 -1.775 0
-9.0939999 -15.279 -1.772 0
-9.0500002 -15.259 -1.768 0
-8.993 -15.272 -1.766 0
-8.9189997 -15.257 -1.76 0
-8.8610001 -15.266 -1.758 0
-8.7360001 -15.272 -1.752 0
-8.6700001 -15.268 -1.748 0
-8.6370001 -15.264 -1.745 0
-8.3290005 -15.276 -1.73 0
-8.2670002 -15.276 -1.727 0
-8.2399998 -15.283 -1.726 0
-8.0129995 -15.319 -1.7180001 0.07
-8.0159998 -15.443 -1.73 0
-7.8759999 -15.291 -1.7079999 0
-7.8439999 -15.287 -1.706 0.1
-7.7789998 -15.278 -1.702 0.2
-7.7220001 -15.285 -1.699 0.41
-7.6599998 -15.28 -1.696 0.19
-7.691 -15.465 -1.716 0
-7.5409999 -15.282 -1.6900001 0
-7.4850001 -15.289 -1.688 0.07
-7.4650002 -15.31 -1.689 0.079999998
-7.3839998 -15.265 -1.681 0.15000001
-7.3340001 -15.283 -1.6799999 0
-7.2849998 -15.304 -1.6799999 0
-7.2350001 -15.324 -1.6799999 0
-7.1350002 -15.554 -1.698 0
-7.0999999 -16.006001 -1.742 0
-8.0050001 -18.288 -2.0139999 0.18000001
-7.9499998 -18.318001 -2.0150001 0.28
-7.8899999 -18.337999 -2.0139999 0.28999999
-7.829 -18.353001 -2.013 0.27000001
-7.7659998 -18.367001 -2.0120001 0.28
-7.7030001 -18.378 -2.01 0.28
-7.6300001 -18.365999 -2.006 0.28999999
-7.598 -18.370001 -2.0050001 0.28999999
-7.5469999 -18.410999 -2.007 0.27000001
-7.4790001 -18.408001 -2.0039999 0.27000001
-7.4200001 -18.427999 -2.0039999 0.27000001
-7.3590002 -18.444 -2.003 0.28
-7.2930002 -18.447001 -2 0.28
-7.2360001 -18.473 -2.0009999 0.30000001
-7.2059999 -18.481001 -2 0.27000001
-7.1389999 -18.481001 -1.998 0.25
-7.0799999 -18.5 -1.997 0.28
-7.027 -18.537001 -1.999 0.18000001
-4.1040001 -10.899 -1.092 0.2
-4.052 -10.863 -1.086 0.11
-4.007 -10.795 -1.077 0
-3.95 -10.742 -1.0700001 0
-3.901 -10.714 -1.0650001 0
-3.836 -10.638 -1.054 0
-3.7780001 -10.581 -1.046 0
-3.7460001 -10.598 -1.0470001 0
-3.7479999 -10.709 -1.059 0
-3.75 -10.771 -1.0650001 0
-3.605 -10.458 -1.027 0
-3.527 -10.335 -1.011 0.1
-3.401 -10.172 -0.99000001 0.19
-3.395 -10.264 -0.99900001 0.14
-3.358 -10.258 -0.99699998 0
-3.299 -10.131 -0.98199999 0.090000004
-3.2509999 -10.092 -0.97600001 0.12
-3.234 -10.149 -0.98199999 0
-3.3699999 -11.515 -1.131 0
-2.3010001 -10.417 -0.98299998 0
-2.2690001 -10.426 -0.98400003 0
-2.2579999 -10.455 -0.986 0
-2.227 -10.472 -0.98799998 0
-2.207 -10.541 -0.995 0
-2.1919999 -10.639 -1.005 0
-2.257 -11.136 -1.0599999 0
-2.2320001 -11.193 -1.066 0
-2.224 -11.339 -1.082 0
-2.2190001 -11.607 -1.1109999 0
-2.188 -11.645 -1.114 0
-1.751 -10.278 -0.95700002 0
-1.715 -10.261 -0.954 0
-1.679 -10.243 -0.95099998 0
-1.648 -10.254 -0.95200002 0
-1.614 -10.25 -0.95099998 0
-1.594 -10.223 -0.94800001 0
-1.566 -10.259 -0.95099998 0
-1.528 -10.227 -0.94700003 0.11
-1.498 -10.245 -0.949 0.20999999
-1.4680001 -10.26 -0.94999999 0.27000001
-1.433 -10.248 -0.94800001 0.27000001
-1.403 -10.271 -0.94999999 0.31999999
-1.367 -10.247 -0.94700003 0.28
-1.351 -10.244 -0.94599998 0.30000001
-1.319 -10.25 -0.94599998 0.30000001
-1.2869999 -10.26 -0.94700003 0.31999999
-1.253 -10.246 -0.94499999 0.28999999
-1.221 -10.258 -0.94599998 0.33000001
-1.189 -10.256 -0.94499999 0.31999999
-1.171 -10.244 -0.94400001 0.28999999
-1.141 -10.267 -0.94599998 0.33000001
-1.107 -10.253 -0.94400001 0.31999999
-1.075 -10.262 -0.94499999 0.31
-1.043 -10.266 -0.94499999 0.28999999
-1.008 -10.243 -0.94199997 0.2
-0.97600001 -10.248 -0.94199997 0.47999999
-0.96100003 -10.263 -0.94400001 0.27000001
-0.93000001 -10.276 -0.94499999 0.2
-0.903 -10.341 -0.95099998 0.27000001
-0.87300003 -10.373 -0.95499998 0.31999999
-0.83899999 -10.362 -0.95300001 0
-0.81 -10.404 -0.958 0
-0.778 -10.428 -0.95999998 0
-0.75999999 -10.398 -0.95700002 0
-0.73000002 -10.442 -0.96100003 0
-0.69999999 -10.494 -0.96700001 0
-0.67199999 -10.573 -0.97500002 0
-0.64499998 -10.683 -0.98699999 0
-0.61699998 -10.78 -0.99800003 0.039999999
-0.98500001 -18.559999 -1.862 0.12
-0.954 -18.537001 -1.859 0.30000001
-0.89600003 -18.535999 -1.858 0.28
-0.83700001 -18.535 -1.858 0.31999999
-0.77899998 -18.545 -1.859 0.31
-0.72100002 -18.530001 -1.857 0.27000001
-0.66299999 -18.540001 -1.858 0.28999999
-0.60399997 -18.524 -1.8559999 0.30000001
-0.56999999 -18.358 -1.837 0
-0.44999999 -16.003 -1.576 0
-0.245 -15.787 -1.551 0
-0.022 -15.576 -1.528 0.49000001
0.028000001 -15.888 -1.562 0.20999999
0.075999998 -15.642 -1.535 0.23
0.149 -15.597 -1.53 0.41
0.249 -15.672 -1.539 0.66000003
0.34799999 -15.692 -1.541 0.44
0.39700001 -15.716 -1.544 0.72000003
0.419 -15.598 -1.531 0.44999999
0.51200002 -15.464 -1.516 0.38
0.565 -15.566 -1.528 0
0.61500001 -15.602 -1.5319999 0.14
0.676 -15.872 -1.562 0.2
0.71100003 -15.554 -1.527 0
0.73699999 -15.583 -1.53 0
0.78600001 -15.58 -1.53 0
0.83399999 -15.56 -1.528 0
0.88300002 -15.559 -1.529 0
0.93199998 -15.564 -1.53 0
0.98100001 -15.555 -1.529 0
1.03 -15.558 -1.53 0
1.0549999 -15.562 -1.53 0
1.104 -15.559 -1.53 0
1.154 -15.571 -1.5319999 0
1.201 -15.544 -1.529 0
1.251 -15.552 -1.531 0
1.301 -15.566 -1.533 0
1.351 -15.569 -1.533 0
1.374 -15.553 -1.5319999 0
1.423 -15.553 -1.5319999 0
1.474 -15.568 -1.535 0
1.522 -15.554 -1.533 0
1.573 -15.568 -1.536 0
1.6210001 -15.561 -1.535 0
1.67 -15.55 -1.535 0
1.696 -15.567 -1.5369999 0
1.745 -15.562 -1.5369999 0
1.795 -15.562 -1.538 0
1.844 -15.559 -1.538 0
1.8940001 -15.565 -1.539 0
1.943 -15.559 -1.539 0
1.994 -15.566 -1.541 0
2.0220001 -15.591 -1.544 0
2.069 -15.57 -1.5420001 0
2.118 -15.568 -1.543 0
2.1670001 -15.561 -1.543 0
2.2179999 -15.57 -1.545 0
2.2690001 -15.573 -1.546 0
2.2920001 -15.561 -1.545 0
2.342 -15.56 -1.545 0
2.392 -15.558 -1.546 0
2.4400001 -15.549 -1.546 0
2.4909999 -15.553 -1.5470001 0
2.5439999 -15.568 -1.55 0.090000004
2.592 -15.558 -1.55 0.23
2.642 -15.703 -1.566 0
2.684 -15.652 -1.561 0.12
2.777 -15.607 -1.558 0.15000001
2.845 -15.702 -1.5700001 0.76999998
2.872 -15.574 -1.557 0.28999999
2.973 -15.84 -1.5880001 0.38999999
2.171 -11.507 -1.099 0.23
2.2030001 -11.476 -1.096 0.17
2.2119999 -11.335 -1.081 0.36000001
2.223 -11.205 -1.067 0.19
2.23 -11.06 -1.052 0.31999999
2.2409999 -10.938 -1.039 0.20999999
2.2539999 -10.83 -1.027 0.16
2.2449999 -10.702 -1.013 0.13
2.2420001 -10.524 -0.99400002 0.14
2.2449999 -10.379 -0.97799999 0.18000001
2.2780001 -10.375 -0.97799999 0.38
2.309 -10.362 -0.97799999 0.44999999
2.3269999 -10.289 -0.97000003 0.13
2.3529999 -10.257 -0.96700001 0.40000001
2.368 -10.249 -0.96700001 0.31
2.4389999 -10.404 -0.98500001 0.30000001
2.4690001 -10.385 -0.98400003 0.14
2.4820001 -10.298 -0.97500002 0.54000002
2.536 -10.375 -0.98500001 0.2
2.5739999 -10.392 -0.98799998 0.20999999
2.5940001 -10.401 -0.98900002 0.30000001
2.6340001 -10.42 -0.99199998 0.34
2.6630001 -10.4 -0.991 0.31
2.6989999 -10.403 -0.99199998 0.28999999
2.733 -10.399 -0.99299997 0.31
2.767 -10.394 -0.99299997 0.30000001
2.8069999 -10.414 -0.99599999 0.34
2.839 -10.403 -0.99599999 0.28999999
2.858 -10.406 -0.99699998 0.31
2.8940001 -10.409 -0.99800003 0.31
2.9319999 -10.421 -1.001 0.31
2.967 -10.417 -1.001 0.33000001
2.9990001 -10.408 -1.001 0.30000001
3.039 -10.421 -1.0039999 0.34
3.072 -10.413 -1.0039999 0.28999999
3.0910001 -10.418 -1.005 0.31999999
3.132 -10.435 -1.0089999 0.36000001
3.164 -10.421 -1.008 0.30000001
3.198 -10.417 -1.0089999 0.31999999
3.2309999 -10.407 -1.0089999 0.34999999
3.2620001 -10.393 -1.008 0.30000001
3.2820001 -10.397 -1.0089999 0.34999999
3.3180001 -10.398 -1.011 0.34
3.3510001 -10.39 -1.011 0.34999999
3.3889999 -10.394 -1.013 0.34
3.428 -10.402 -1.015 0.34
3.4619999 -10.397 -1.016 0.33000001
3.5 -10.401 -1.017 0.36000001
3.5209999 -10.411 -1.0190001 0.34999999
3.559 -10.413 -1.021 0.30000001
3.6040001 -10.439 -1.025 0.25
3.641 -10.439 -1.026 0.27000001
3.677 -10.437 -1.028 0.31
3.7149999 -10.438 -1.029 0.30000001
3.7539999 -10.443 -1.031 0.31
3.7739999 -10.449 -1.0319999 0.33000001
3.809 -10.442 -1.033 0.31999999
3.8529999 -10.46 -1.0369999 0.37
3.8829999 -10.441 -1.036 0.27000001
3.9260001 -10.456 -1.039 0.20999999
3.934 -10.379 -1.031 0.54000002
4.0050001 -10.465 -1.043 0.23
6.4299998 -16.681999 -1.783 0.28999999
6.4780002 -16.648001 -1.7819999 0.30000001
6.52 -16.601999 -1.778 0.28
6.5679998 -16.572001 -1.777 0.27000001
6.6149998 -16.539 -1.776 0.27000001
6.6550002 -16.488001 -1.772 0.27000001
6.7049999 -16.464001 -1.772 0.25999999
6.7350001 -16.462 -1.773 0.27000001
6.7880001 -16.445 -1.773 0.28
6.8429999 -16.431999 -1.774 0.28999999
6.901 -16.424999 -1.776 0.28999999
6.954 -16.406 -1.776 0.27000001
7.0180001 -16.413 -1.78 0.28
7.053 -16.424 -1.783 0.34999999
7.112 -16.42 -1.785 0.25999999
7.1680002 -16.406 -1.786 0.28999999
7.2309999 -16.410999 -1.789 0.33000001
7.2940001 -16.412001 -1.7920001 0.31999999
7.3530002 -16.407 -1.794 0.31999999
7.415 -16.405001 -1.7970001 0.30000001
7.4489999 -16.414 -1.799 0.33000001
7.5100002 -16.41 -1.802 0.28
7.5749998 -16.415001 -1.8049999 0.33000001
7.638 -16.417 -1.808 0.31999999
7.6960001 -16.405001 -1.8099999 0.27000001
7.757 -16.402 -1.813 0.22
7.7870002 -16.333 -1.807 0.52999997
7.573 -15.821 -1.7460001 0
7.566 -15.681 -1.7309999 0.11
5.3590002 -11.036 -1.161 0.090000004
7.6869998 -15.678 -1.737 0.14
7.7459998 -15.675 -1.739 0.17
7.7589998 -15.577 -1.73 0.18000001
7.8720002 -15.681 -1.7460001 0.12
5.5240002 -10.977 -1.163 0.20999999
5.546 -10.936 -1.16 0.27000001
5.5830002 -10.922 -1.161 0.25999999
5.6149998 -10.901 -1.16 0.46000001
5.6469998 -10.88 -1.16 0.38
5.6830001 -10.866 -1.16 0.38999999
5.7140002 -10.883 -1.164 0.47
5.7789998 -10.923 -1.171 0.25
8.6280003 -16.158001 -1.832 0.22
8.6660004 -16.106001 -1.829 0.18000001
8.7080002 -16.063 -1.827 0.38999999
8.743 -16.007999 -1.823 0.20999999
8.7939997 -15.982 -1.823 0.2
8.8109999 -15.953 -1.821 0.37
8.849 -15.904 -1.819 0.19
8.8909998 -15.862 -1.817 0.38
8.9320002 -15.819 -1.8150001 0.19
8.974 -15.777 -1.813 0.36000001
9.0159998 -15.736 -1.812 0.19
9.0489998 -15.679 -1.808 0.36000001
9.0719995 -15.661 -1.808 0.2
9.1140003 -15.62 -1.806 0.23999999
9.1459999 -15.563 -1.802 0.20999999
9.1870003 -15.522 -1.801 0.17
9.2309999 -15.484 -1.8 0.41
9.2639999 -15.43 -1.796 0.19
9.3039999 -15.387 -1.795 0.38
9.3269997 -15.371 -1.794 0.22
9.3649998 -15.324 -1.7920001 0.2
9.3959999 -15.266 -1.788 0.38
9.4420004 -15.235 -1.788 0.23
9.474 -15.18 -1.785 0.19
9.5139999 -15.136 -1.783 0.41
9.5629997 -15.11 -1.783 0.14
9.566 -15.061 -1.779 0.41999999
9.6040001 -15.018 -1.777 0.23999999
9.6490002 -14.984 -1.777 0.23
9.6800003 -14.929 -1.774 0.14
7.4699998 -11.453 -1.317 0.28
7.4889998 -11.403 -1.313 0.62
9.7860003 -14.786 -1.767 0.41999999
9.8059998 -14.765 -1.766 0.20999999
9.8459997 -14.724 -1.765 0.19
9.8800001 -14.675 -1.762 0.40000001
9.9169998 -14.631 -1.761 0.23
9.9519997 -14.583 -1.758 0.19
9.9910002 -14.542 -1.757 0.41
10.029 -14.501 -1.756 0.25
10.047 -14.477 -1.755 0.2
10.081 -14.429 -1.752 0.38
10.119 -14.388 -1.751 0.22
10.156 -14.345 -1.75 0.19
7.9679999 -11.115 -1.317 0.51999998
8.0190001 -11.112 -1.3200001 0.58999997
10.293 -14.205 -1.7460001 0.2
8.375 -11.414 -1.37 0.5
8.4110003 -11.388 -1.37 0.2
7.9260001 -10.663 -1.274 0.51999998
7.9590001 -10.638 -1.274 0.54000002
10.517 -13.998 -1.742 0.38
10.552 -13.953 -1.7410001 0.18000001
10.6 -13.925 -1.7410001 0.38
10.635 -13.881 -1.74 0.22
10.67 -13.836 -1.738 0.18000001
10.717 -13.807 -1.739 0.40000001
10.747 -13.756 -1.7359999 0.23
10.77 -13.741 -1.737 0.18000001
10.819 -13.715 -1.738 0.40000001
10.851 -13.667 -1.7359999 0.23
10.894 -13.633 -1.7359999 0.18000001
10.938 -13.6 -1.7359999 0.41
10.972 -13.555 -1.734 0.23
10.987 -13.53 -1.733 0.2
11.038 -13.506 -1.735 0.40000001
11.069 -13.457 -1.733 0.23999999
11.114 -13.426 -1.733 0.17
11.161 -13.397 -1.734 0.43000001
11.202 -13.36 -1.734 0.25
11.239 -13.319 -1.733 0.23
11.253 -13.293 -1.732 0.17
11.293 -13.257 -1.732 0.44
11.338 -13.224 -1.732 0.23
11.374 -13.182 -1.7309999 0.17
11.407 -13.138 -1.73 0.43000001
11.443 -13.096 -1.729 0.25
11.479 -13.054 -1.728 0.19
11.498 -13.034 -1.728 0.41
11.541 -12.999 -1.728 0.23
11.572 -12.953 -1.727 0.19
11.606 -12.909 -1.726 0.40000001
11.647 -12.872 -1.726 0.23
11.686 -12.834 -1.725 0.19
11.723 -12.795 -1.725 0.41999999
11.742 -12.775 -1.725 0.25
11.775 -12.73 -1.724 0.2
11.802 -12.679 -1.721 0.41
11.754 -12.549 -1.707 0.22
11.429 -12.05 -1.642 0.44999999
11.543 -12.095 -1.655 0.36000001
11.589 -12.104 -1.659 0.23
11.638 -12.079 -1.66 0.33000001
11.687 -12.053 -1.6619999 0.34999999
11.774 -12.068 -1.67 0.37
11.801 -12.019 -1.668 0.37
11.787 -11.93 -1.66 0.41999999
11.829 -11.897 -1.661 0.34
11.823 -11.855 -1.6569999 0.44
11.852 -11.809 -1.656 0.38999999
11.833 -11.716 -1.647 0.34999999
11.754 -11.566 -1.6289999 0.41999999
11.748 -11.487 -1.623 0.25
11.878 -11.542 -1.637 0.31999999
11.856 -11.484 -1.631 0.51999998
11.745 -11.305 -1.608 0.31999999
11.5 -11.001 -1.5650001 0.27000001
11.523 -10.954 -1.563 0.38
11.622 -10.979 -1.573 0.44999999
11.759 -11.039 -1.589 0.27000001
11.797 -11.004 -1.589 0.31
11.701 -10.88 -1.572 0.44999999
11.947 -11.039 -1.604 0.30000001
12.085 -11.096 -1.62 0.33000001
12.031 -10.977 -1.6059999 0.38999999
12.037 -10.914 -1.602 0.34
12.058 -10.864 -1.6 0.38
12.028 -10.769 -1.591 0.31999999
11.998 -10.708 -1.584 0.44
11.995 -10.639 -1.5779999 0.41
11.978 -10.556 -1.571 0.30000001
12.15 -10.64 -1.591 0.43000001
12.245 -10.655 -1.601 0.28999999
12.205 -10.553 -1.59 0.33000001
12.25 -10.525 -1.591 0.44999999
12.273 -10.511 -1.592 0.37
12.242 -10.418 -1.5829999 0.28999999
12.404 -10.489 -1.602 0.40000001
11.885 -9.9879999 -1.522 0.27000001
12.211 -10.196 -1.5650001 0.28
12.185 -10.109 -1.556 0.41999999
12.177 -10.038 -1.55 0.38
12.206 -10.03 -1.552 0.31999999
12.229 -9.9840002 -1.551 0.40000001
12.268 -9.9519997 -1.552 0.40000001
12.254 -9.8769999 -1.546 0.38
12.291 -9.8439999 -1.5470001 0.40000001
12.439 -9.8979998 -1.563 0.27000001
12.492 -9.8760004 -1.566 0.47999999
12.451 -9.8120003 -1.558 0.30000001
12.524 -9.8059998 -1.564 0.38
12.57 -9.7790003 -1.567 0.41999999
12.636 -9.7659998 -1.571 0.38
12.695 -9.7480001 -1.575 0.37
12.784 -9.7519999 -1.584 0.28999999
12.79 -9.7250004 -1.582 0.55000001
12.639 -9.5489998 -1.557 0.28999999
12.827 -9.6269999 -1.579 0.33000001
12.799 -9.5439997 -1.571 0.43000001
12.901 -9.5570002 -1.581 0.23999999
12.864 -9.467 -1.572 0.38999999
12.76 -9.3290005 -1.553 0.38
12.672 -9.2340002 -1.539 0.30000001
12.649 -9.1569996 -1.5319999 0.38999999
12.591 -9.0550003 -1.52 0.34
12.749 -9.1070004 -1.538 0.38
12.858 -9.125 -1.549 0.25
12.884 -9.0819998 -1.548 0.49000001
12.927 -9.052 -1.55 0.34
12.918 -9.0150003 -1.5470001 0.38999999
13.007 -9.0170002 -1.556 0.38999999
13.16 -9.0609999 -1.572 0.36000001
13.096 -8.9569998 -1.5599999 0.28999999
13.039 -8.8579998 -1.548 0.34999999
13.019 -8.7849998 -1.5420001 0.36000001
13.134 -8.802 -1.554 0.34
13.29 -8.8769999 -1.573 0.34
13.256 -8.7939997 -1.5650001 0.36000001
13.295 -8.7600002 -1.566 0.41
13.333 -8.7250004 -1.567 0.31999999
13.357 -8.6809998 -1.567 0.41999999
13.393 -8.6440001 -1.568 0.31999999
13.389 -8.5830002 -1.564 0.2
13.376 -8.5450001 -1.561 0.20999999
13.401 -8.5010004 -1.5599999 0.2
13.424 -8.4569998 -1.5599999 0.20999999
13.432 -8.4029999 -1.558 0.19
13.467 -8.3660002 -1.559 0.20999999
13.492 -8.323 -1.558 0.17
13.493 -8.2950001 -1.557 0.33000001
13.519 -8.2519999 -1.557 0.18000001
13.545 -8.21 -1.557 0.36000001
13.567 -8.165 -1.556 0.22
13.613 -8.1350002 -1.559 0.20999999
13.657 -8.1029997 -1.561 0
13.673 -8.0539999 -1.5599999 0
13.665 -8.0200005 -1.558 0
13.647 -7.9520001 -1.552 0.079999998
13.677 -7.9120002 -1.553 0.14
13.7 -7.868 -1.552 0.30000001
13.714 -7.8200002 -1.551 0.2
13.718 -7.7649999 -1.548 0.15000001
13.749 -7.7249999 -1.549 0.14
13.734 -7.6880002 -1.546 0.17
13.758 -7.645 -1.546 0.12
13.782 -7.6020002 -1.546 0.16
13.786 -7.5479999 -1.543 0.12
13.817 -7.5089998 -1.544 0.16
13.846 -7.4679999 -1.545 0.20999999
13.857 -7.4180002 -1.543 0.18000001
13.868 -7.3959999 -1.543 0.12
13.884 -7.349 -1.543 0.16
13.915 -7.309 -1.543 0.28
13.93 -7.2610002 -1.543 0.25
13.964 -7.223 -1.544 0.25999999
13.986 -7.1789999 -1.544 0.27000001
14.016 -7.1389999 -1.545 0.27000001
14.013 -7.1100001 -1.543 0.23999999
14.04 -7.0679998 -1.544 0.18000001
14.056 -7.02 -1.543 0.18000001
14.074 -6.9749999 -1.5420001 0.23
14.094 -6.9289999 -1.5420001 0.25999999
14.121 -6.888 -1.543 0
14.123 -6.8340001 -1.54 0
14.166 -6.8270001 -1.544 0
14.185 -6.7820001 -1.544 0
14.196 -6.7319999 -1.543 0
14.213 -6.6859999 -1.5420001 0
14.233 -6.6399999 -1.5420001 0.13
14.297 -6.6149998 -1.5470001 0
14.272 -6.5500002 -1.5420001 0.13
14.275 -6.5240002 -1.541 0.2
14.339 -6.4990001 -1.546 0.2
14.294 -6.4239998 -1.538 0.15000001
14.294 -6.3709998 -1.536 0.18000001
14.323 -6.3299999 -1.5369999 0.12
14.325 -6.277 -1.535 0.15000001
14.315 -6.2459998 -1.5319999 0.30000001
14.32 -6.1939998 -1.531 0.2
14.321 -6.1409998 -1.528 0.17
14.345 -6.099 -1.529 0.17
14.359 -6.0510001 -1.528 0.31999999
14.345 -5.9920001 -1.524 0.11
14.36 -5.9460001 -1.524 0.18000001
14.364 -5.921 -1.523 0.30000001
14.36 -5.8670001 -1.521 0.2
14.39 -5.8260002 -1.522 0.16
14.375 -5.7680001 -1.518 0.13
14.393 -5.723 -1.518 0.17
14.385 -5.6669998 -1.515 0.12
14.419 -5.6279998 -1.517 0.17
14.428 -5.6059999 -1.517 0.27000001
14.457 -5.5650001 -1.518 0.25
14.483 -5.5229998 -1.5190001 0.19
14.499 -5.4759998 -1.5190001 0.18000001
14.505 -5.427 -1.518 0.30000001
14.505 -5.375 -1.516 0.2
14.523 -5.3559999 -1.517 0.17
14.523 -5.3039999 -1.515 0.33000001
14.552 -5.263 -1.517 0.19
14.574 -5.2189999 -1.517 0.18000001
14.574 -5.1669998 -1.515 0.31999999
14.59 -5.1220002 -1.515 0.2
14.623 -5.0819998 -1.517 0.18000001
14.618 -5.0539999 -1.516 0.13
14.634 -5.0079999 -1.516 0.17
14.659 -4.9650002 -1.517 0.12
14.684 -4.9219999 -1.518 0.17
14.701 -4.8769999 -1.518 0.28999999
14.744 -4.8400002 -1.521 0.25999999
14.758 -4.7930002 -1.521 0.11
14.769 -4.7709999 -1.522 0.18000001
14.801 -4.73 -1.524 0.28999999
14.818 -4.684 -1.524 0.19
14.838 -4.6389999 -1.524 0
14.86 -4.5949998 -1.525 0
14.867 -4.546 -1.524 0
14.946 -4.5190001 -1.5319999 0.12
14.932 -4.4889998 -1.53 0.2
14.912 -4.4320002 -1.526 0
14.91 -4.3800001 -1.524 0
14.941 -4.3390002 -1.526 0
15.035 -4.3140001 -1.535 0
15.004 -4.2550001 -1.53 0.12
14.999 -4.2020001 -1.528 0.16
14.982 -4.1719999 -1.525 0.13
15.005 -4.1279998 -1.526 0.16
15.002 -4.0770001 -1.524 0.20999999
14.963 -4.0159998 -1.518 0.1
14.997 -3.974 -1.521 0.15000001
14.998 -3.924 -1.52 0.1
14.987 -3.8710001 -1.517 0
14.987 -3.846 -1.516 0.12
15.005 -3.8 -1.517 0.23
15.019 -3.7539999 -1.517 0.25
15.013 -3.7019999 -1.515 0.1
15.019 -3.654 -1.515 0.15000001
15.028 -3.6059999 -1.5140001 0.12
15.038 -3.5580001 -1.5140001 0.16
15.047 -3.536 -1.515 0.12
15.077 -3.493 -1.517 0.16
15.098 -3.448 -1.518 0.28
15.111 -3.401 -1.518 0.19
15.11 -3.3499999 -1.517 0.20999999
15.126 -3.3039999 -1.517 0.19
15.118 -3.2780001 -1.516 0.18000001
15.134 -3.2309999 -1.517 0.17
15.153 -3.1860001 -1.518 0.18000001
15.187 -3.1429999 -1.52 0.23
15.31 -3.118 -1.533 0
15.132 -3.033 -1.512 0.07
15.198 -2.9960001 -1.518 0.15000001
15.219 -2.951 -1.52 0.12
15.378 -2.9560001 -1.5369999 0
15.211 -2.875 -1.517 0.090000004
15.279 -2.8380001 -1.524 0.23
15.231 -2.78 -1.517 0.14
15.165 -2.7190001 -1.5089999 0.15000001
15.168 -2.6700001 -1.508 0.28
15.139 -2.6400001 -1.505 0.19
15.1 -2.585 -1.499 0.15000001
15.079 -2.5320001 -1.4960001 0.34
15.059 -2.4809999 -1.493 0.2
15.063 -2.4330001 -1.492 0.16
15.017 -2.3770001 -1.487 0.14
14.995 -2.325 -1.483 0.18000001
14.983 -2.299 -1.4809999 0.30000001
14.969 -2.2490001 -1.479 0.2
14.962 -2.2 -1.477 0.2
14.953 -2.151 -1.476 0.23
14.942 -2.1010001 -1.474 0.18000001
14.925 -2.0510001 -1.471 0.31999999
14.921 -2.003 -1.47 0.16
14.895 -1.976 -1.467 0.36000001
14.883 -1.927 -1.465 0.16
14.889 -1.88 -1.465 0.38999999
14.889 -1.832 -1.464 0.19
14.867 -1.7819999 -1.461 0.23999999
14.877 -1.7359999 -1.461 0.15000001
14.882 -1.7130001 -1.462 0.28
14.883 -1.666 -1.461 0.20999999
14.882 -1.618 -1.461 0.50999999
15.336 -1.618 -1.511 0.19
15.879 -1.624 -1.571 0.28999999
15.904 -1.576 -1.573 0.28999999
15.895 -1.525 -1.571 0.25
15.856 -1.4960001 -1.567 0.17
15.821 -1.443 -1.562 0.2
15.766 -1.388 -1.556 0.56
15.754 -1.337 -1.554 0.44999999
15.724 -1.285 -1.55 0.19
15.724 -1.235 -1.55 0.38999999
15.718 -1.1849999 -1.548 0.20999999
15.694 -1.158 -1.546 0.23999999
15.684 -1.108 -1.544 0.2
15.691 -1.059 -1.545 0.22
15.689 -1.0089999 -1.544 0.2
15.666 -0.95899999 -1.541 0.22
15.663 -0.90899998 -1.54 0.19
15.662 -0.86000001 -1.54 0.20999999
15.645 -0.83399999 -1.538 0.18000001
15.644 -0.78500003 -1.5369999 0.30000001
15.638 -0.73500001 -1.5369999 0.2
15.623 -0.685 -1.535 0.16
15.615 -0.63599998 -1.533 0.13
15.609 -0.58600003 -1.533 0.16
15.601 -0.537 -1.531 0.30000001
15.584 -0.51200002 -1.53 0.2
15.589 -0.463 -1.53 0.18000001
15.573 -0.414 -1.528 0.20999999
15.576 -0.36500001 -1.528 0.18000001
15.561 -0.31600001 -1.526 0.34
15.578 -0.26699999 -1.528 0.19
15.542 -0.242 -1.524 0.33000001
15.549 -0.193 -1.525 0.19
15.512 -0.14399999 -1.521 0.31
15.518 -0.094999999 -1.521 0.2
15.5 -0.046999998 -1.5190001 0.34999999
14.791 0.027000001 -1.5319999 0.18000001
14.773 0.072999999 -1.53 0.23999999
14.767 0.12 -1.529 0.20999999
14.753 0.14300001 -1.527 0.28999999
14.748 0.189 -1.527 0.16
14.724 0.235 -1.524 0.34999999
14.727 0.28200001 -1.524 0.20999999
14.714 0.32800001 -1.523 0.33000001
14.687 0.373 -1.52 0.16
14.694 0.419 -1.521 0.38999999
14.685 0.442 -1.52 0.2
14.676 0.48800001 -1.5190001 0.23
14.664 0.53399998 -1.518 0.20999999
14.652 0.57999998 -1.517 0.20999999
14.643 0.625 -1.516 0.20999999
14.635 0.671 -1.515 0.20999999
14.603 0.71600002 -1.512 0.19
14.609 0.73900002 -1.513 0.20999999
14.605 0.78500003 -1.512 0.2
14.591 0.82999998 -1.511 0.23
14.574 0.875 -1.5089999 0.2
14.561 0.92000002 -1.508 0.23
14.545 0.96499997 -1.507 0.2
14.532 1.01 -1.505 0.22
14.524 1.0319999 -1.505 0.20999999
14.511 1.077 -1.5039999 0.23
14.493 1.122 -1.502 0.19
14.484 1.1670001 -1.501 0.17
14.452 1.21 -1.498 0.34999999
14.437 1.255 -1.497 0.28
14.445 1.301 -1.498 0.44
14.425 1.322 -1.4960001 0.23
14.413 1.367 -1.495 0.18000001
14.412 1.4119999 -1.495 0.23
14.396 1.456 -1.494 0.2
14.393 1.502 -1.494 0.22
14.374 1.546 -1.493 0.2
14.37 1.591 -1.493 0.22
14.357 1.612 -1.4910001 0.2
14.35 1.6569999 -1.4910001 0.23
14.351 1.7029999 -1.492 0.2
14.331 1.7460001 -1.49 0.22
14.324 1.791 -1.49 0.2
14.322 1.837 -1.4910001 0.20999999
14.318 1.882 -1.4910001 0.2
14.309 1.903 -1.49 0.23
14.307 1.949 -1.4910001 0.19
14.307 1.995 -1.4910001 0.23
14.299 2.039 -1.4910001 0.2
14.282 2.0829999 -1.49 0.20999999
14.284 2.1289999 -1.4910001 0.18000001
14.274 2.1500001 -1.49 0.34
14.27 2.1960001 -1.49 0.17
14.268 2.2409999 -1.4910001 0.34999999
14.261 2.286 -1.4910001 0.2
14.25 2.3299999 -1.4910001 0.34
14.231 2.3729999 -1.489 0.22
14.223 2.418 -1.489 0.23
14.226 2.441 -1.49 0.2
14.202 2.483 -1.488 0.17
14.208 2.53 -1.49 0.38999999
14.202 2.575 -1.49 0.23
14.198 2.6199999 -1.49 0.2
14.187 2.665 -1.49 0.38
14.181 2.71 -1.49 0.23
14.167 2.73 -1.489 0.18000001
14.174 2.777 -1.4910001 0.38999999
14.163 2.822 -1.4910001 0.23
14.15 2.865 -1.49 0.18000001
14.149 2.911 -1.4910001 0.38999999
14.132 2.954 -1.49 0.17
14.115 2.997 -1.489 0.36000001
14.116 3.02 -1.49 0.18000001
14.112 3.066 -1.4910001 0.34999999
14.108 3.1110001 -1.4910001 0.19
14.089 3.154 -1.49 0.23
14.079 3.198 -1.49 0.2
14.069 3.2420001 -1.49 0.23
14.055 3.2850001 -1.49 0.2
14.057 3.309 -1.4910001 0.20999999
14.052 3.355 -1.4910001 0.18000001
14.017 3.3929999 -1.488 0.14
14.01 3.438 -1.489 0.17
13.997 3.4809999 -1.489 0.20999999
13.982 3.5239999 -1.488 0.19
13.973 3.569 -1.488 0.20999999
13.975 3.5929999 -1.489 0.18000001
13.954 3.6340001 -1.488 0.31999999
13.937 3.6760001 -1.488 0.18000001
13.931 3.7219999 -1.488 0.36000001
13.912 3.763 -1.487 0.22
13.898 3.8069999 -1.487 0.18000001
13.892 3.8280001 -1.487 0.38999999
13.872 3.8699999 -1.4859999 0.23
13.871 3.9170001 -1.488 0.19
13.847 3.957 -1.4859999 0.41
13.839 4.0019999 -1.487 0.23999999
13.83 4.046 -1.487 0.27000001
13.813 4.0879998 -1.487 0.27000001
13.82 4.1139998 -1.488 0.25999999
13.809 4.158 -1.488 0.27000001
13.787 4.198 -1.487 0.25999999
13.815 4.2550001 -1.492 0.28999999
13.824 4.3049998 -1.495 0.28999999
13.803 4.3460002 -1.494 0.27000001
13.793 4.3909998 -1.495 0.31999999
13.699 4.3850002 -1.484 0.34
13.568 4.3899999 -1.47 0.34
13.439 4.395 -1.455 0.31
13.318 4.402 -1.442 0.30000001
13.198 4.4089999 -1.429 0.31999999
13.086 4.4169998 -1.4170001 0.33000001
12.973 4.4250002 -1.405 0.31
12.885 4.4169998 -1.395 0.31
12.85 4.4510002 -1.392 0.28999999
12.842 4.493 -1.393 0.28999999
12.813 4.5279999 -1.391 0.27000001
12.813 4.5739999 -1.393 0.30000001
12.791 4.6110001 -1.392 0.31
12.771 4.6490002 -1.391 0.31999999
12.76 4.6680002 -1.391 0.31999999
12.76 4.7140002 -1.393 0.33000001
12.744 4.7529998 -1.392 0.31
12.734 4.7950001 -1.393 0.31999999
12.725 4.8369999 -1.3940001 0.31999999
12.7 4.8730001 -1.393 0.31999999
12.694 4.9169998 -1.3940001 0.31
12.694 4.9400001 -1.395 0.33000001
12.671 4.9770002 -1.3940001 0.31999999
12.672 5.0229998 -1.396 0.31999999
12.643 5.0580001 -1.3940001 0.31999999
12.631 5.099 -1.395 0.31
12.622 5.1409998 -1.396 0.31
12.606 5.1810002 -1.396 0.31999999
12.585 5.1960001 -1.3940001 0.31999999
12.565 5.2340002 -1.3940001 0.36000001
12.53 5.2649999 -1.391 0.30000001
12.521 5.3080001 -1.392 0.34
12.498 5.3449998 -1.391 0.31999999
12.489 5.3870001 -1.392 0.33000001
12.462 5.3990002 -1.39 0.28999999
12.452 5.441 -1.391 0.33000001
12.415 5.4720001 -1.388 0.28999999
12.394 5.5089998 -1.388 0.34
12.377 5.5479999 -1.388 0.33000001
12.356 5.585 -1.388 0.31999999
12.318 5.6149998 -1.385 0.28
12.301 5.6529999 -1.385 0.34999999
12.29 5.6719999 -1.385 0.31999999
12.268 5.7090001 -1.3839999 0.30000001
12.238 5.7420001 -1.383 0.28999999
12.216 5.7779999 -1.382 0.34
12.191 5.8130002 -1.381 0.30000001
12.162 5.8460002 -1.38 0.28999999
12.14 5.8829999 -1.3789999 0.30000001
12.136 5.9039998 -1.38 0.33000001
12.099 5.934 -1.378 0.30000001
12.081 5.9720001 -1.378 0.33000001
12.065 6.0110002 -1.378 0.28999999
12.045 6.0479999 -1.378 0.30000001
12.015 6.0809999 -1.377 0.31
12.016 6.105 -1.378 0.37
11.977 6.1329999 -1.375 0.30000001
11.96 6.171 -1.376 0.30000001
11.94 6.2090001 -1.376 0.34
11.908 6.2399998 -1.374 0.30000001
11.882 6.2740002 -1.373 0.30000001
11.862 6.3109999 -1.373 0.33000001
11.845 6.3260002 -1.372 0.28
11.82 6.3600001 -1.3710001 0.38999999
11.782 6.388 -1.369 0.28
11.75 6.4180002 -1.368 0.28999999
11.712 6.4460001 -1.365 0.36000001
11.706 6.4899998 -1.367 0.38
11.699 6.5349998 -1.369 0.31999999
11.696 6.5570002 -1.37 0.31999999
11.684 6.598 -1.3710001 0.31999999
11.655 6.6300001 -1.37 0.30000001
11.627 6.6630001 -1.369 0.40000001
11.375 6.5669999 -1.3380001 0.27000001
11.318 6.5809999 -1.3329999 0.34999999
11.275 6.6040001 -1.33 0.28999999
11.254 6.6160002 -1.3279999 0.37
11.227 6.6469998 -1.3279999 0.33000001
11.211 6.6849999 -1.3279999 0.34
11.193 6.7220001 -1.329 0.38
11.206 6.7779999 -1.3329999 0.25999999
11.215 6.8319998 -1.3380001 0.36000001
11.231 6.8899999 -1.3430001 0.27000001
11.164 6.8730001 -1.335 0.55000001
11.185 6.934 -1.341 0.34
11.074 6.914 -1.3279999 0.41999999
11.084 6.9689999 -1.3329999 0.37
11.037 6.987 -1.329 0.60000002
11 7.013 -1.327 0.33000001
10.941 7.0240002 -1.322 0.28999999
10.911 7.0289998 -1.3200001 0.41
10.931 7.0900002 -1.325 0.23
10.859 7.092 -1.318 0.51999998
10.846 7.1329999 -1.3200001 0.20999999
10.766 7.1279998 -1.312 0.67000002
10.714 7.1420002 -1.308 0.25
10.628 7.1339998 -1.299 0.62
10.484 7.0609999 -1.28 0.31
10.427 7.0710001 -1.275 0.38
10.441 7.1279998 -1.28 0.2
10.438 7.1739998 -1.283 0.44
10.371 7.1760001 -1.277 0.50999999
10.188 7.098 -1.2539999 0.34
10.071 7.04 -1.239 0.37
9.9989996 7.0370002 -1.232 0.37
9.9379997 7.04 -1.226 0.37
9.875 7.0430002 -1.22 0.37
9.8120003 7.0450001 -1.214 0.36000001
9.7559996 7.0510001 -1.209 0.37
9.6890001 7.0489998 -1.2029999 0.37
9.6459999 7.0409999 -1.198 0.38999999
9.592 7.0479999 -1.194 0.28999999
9.6450005 7.1339998 -1.205 0.36000001
9.6300001 7.1700001 -1.206 0.40000001
9.6520004 7.2329998 -1.212 0.31999999
9.658 7.2849998 -1.216 0.44999999
9.3549995 7.1030002 -1.175 0.38
9.5439997 7.27 -1.205 0.34
9.2180004 7.0689998 -1.16 0.22
9.4720001 7.3099999 -1.201 0.61000001
9.0970001 7.0669999 -1.149 0.20999999
9.4189997 7.3639998 -1.2 0.60000002
9.2379999 7.27 -1.176 0.23999999
9.3640003 7.4159999 -1.199 0.41
9.3039999 7.3920002 -1.191 0.41999999
8.8760004 7.0999999 -1.131 0.38999999
9.198 7.4029999 -1.182 0.34
8.7019997 7.0510001 -1.1109999 0.43000001
9.1669998 7.474 -1.1849999 0.25999999
9.1389999 7.4990001 -1.184 0.56
9.0799999 7.4980001 -1.179 0.23
9.1379995 7.5710001 -1.189 0.27000001
8.4630003 7.059 -1.09 0.34
9.0190001 7.5679998 -1.179 0.51999998
8.5089998 7.1869998 -1.104 0.30000001
8.6009998 7.3109999 -1.122 0.31
8.9940004 7.6929998 -1.186 0.28999999
8.2040005 7.0640001 -1.068 0.38999999
8.5620003 7.3940001 -1.125 0.47999999
8.6590004 7.5250001 -1.143 0.27000001
8.4790001 7.4169998 -1.119 0.31999999
8.5469999 7.5229998 -1.133 0.38
7.9660001 7.059 -1.046 0.34999999
8.5530005 7.6240001 -1.142 0.38
8.4370003 7.5689998 -1.127 0.41
7.8629999 7.079 -1.039 0.18000001
8.4820004 7.6820002 -1.14 0.56
8.3579998 7.618 -1.124 0.46000001
8.3699999 7.6760001 -1.13 0.27000001
8.3479996 7.7049999 -1.13 0.37
7.6170001 7.0770001 -1.017 0.18000001
8.283 7.717 -1.126 0.56
8.1680002 7.6589999 -1.1109999 0.36000001
7.4780002 7.059 -1.0039999 0.38
7.4549999 7.0809999 -1.0039999 0.34
7.4549999 7.1269999 -1.008 0.38999999
7.355 7.0760002 -0.995 0.23
7.9050002 7.6500001 -1.0880001 0.50999999
7.9460001 7.7140002 -1.097 0.37
7.2270002 7.0630002 -0.98299998 0.27000001
7.9289999 7.7940001 -1.102 0.31999999
7.9169998 7.8309999 -1.104 0.51999998
7.098 7.0689998 -0.97299999 0.28999999
7.862 7.875 -1.103 0.38
7.829 7.8920002 -1.102 0.46000001
6.9790001 7.0609999 -0.963 0.31999999
7.8559999 7.993 -1.112 0.36000001
7.7709999 7.9569998 -1.102 0.31
6.8540001 7.0669999 -0.95300001 0.51999998
7.8699999 8.1599998 -1.127 0.19
7.6129999 7.9439998 -1.0880001 0.28
6.7249999 7.0669999 -0.94199997 0.5
7.052 7.4310002 -0.99900001 0.27000001
7.0359998 7.461 -1.001 0.30000001
6.6220002 7.0689998 -0.93400002 0.34999999
7.2870002 7.823 -1.052 0.25
7.388 7.9809999 -1.073 0.43000001
7.3060002 7.9429998 -1.064 0.31999999
6.467 7.0799999 -0.92299998 0.25
7.566 8.3030005 -1.115 0.37
7.2420001 7.9990001 -1.063 0.28
6.3540001 7.0669999 -0.91299999 0.28999999
7.1869998 8.0380001 -1.063 0.37
7.2459998 8.1560001 -1.077 0.46000001
6.2340002 7.0669999 -0.903 0.36000001
7.21 8.2189999 -1.08 0.23999999
7.145 8.1709995 -1.071 0.54000002
6.1370001 7.0679998 -0.89600003 0.19
6.1090002 7.0809999 -0.89499998 0.28
7.165 8.3500004 -1.0880001 0.28999999
7.1420002 8.3769999 -1.089 0.27000001
5.9829998 7.0689998 -0.884 0.37
7.3860002 8.7720003 -1.143 0.20999999
7.21 8.5909996 -1.113 0.51999998
5.8870001 7.0669999 -0.87699997 0.36000001
7.0630002 8.5249996 -1.096 0.13
6.9039998 8.3879995 -1.072 0.28
6.9229999 8.4650002 -1.08 0.47999999
5.7420001 7.072 -0.86699998 0.37
7.0209999 8.6949997 -1.109 0.38999999
6.823 8.4770002 -1.074 0.31999999
6.473 8.0959997 -1.0140001 0.25
5.6230001 7.0840001 -0.85900003 0.28999999
6.5650001 8.3170004 -1.041 0.14
6.8899999 8.7840004 -1.107 0.49000001
5.5040002 7.0710001 -0.84899998 0.47
6.2529998 8.0790005 -0.99599999 0.20999999
6.7259998 8.7150002 -1.089 0.25
6.7919998 8.8570004 -1.107 0.44999999
5.382 7.073 -0.84100002 0.27000001
6.803 8.9870005 -1.12 0.38999999
6.7690001 9.0019999 -1.119 0.30000001
6.7199998 8.9940004 -1.115 0.55000001
5.256 7.0900002 -0.833 0.19
6.6440001 8.9809999 -1.108 0.49000001
6.5050001 8.8520002 -1.086 0.23999999
6.5619998 8.9879999 -1.103 0.37
5.1389999 7.0949998 -0.82599998 0.15000001
6.4749999 8.9870005 -1.097 0.56
6.3509998 8.875 -1.0779999 0.38
5.0250001 7.0539999 -0.81400001 0.18000001
5.0089998 7.0780001 -0.815 0.14
6.3249998 8.9860001 -1.087 0.49000001
5.7919998 8.2880001 -0.98400003 0
5.7649999 8.4169998 -0.995 0.25
4.7160001 6.9400001 -0.78299999 0.27000001
4.7189999 6.967 -0.78500003 0.25
4.7610002 7.0770001 -0.79900002 0.17
6.0250001 9.0039997 -1.069 0.34
5.9850001 9.0050001 -1.066 0.44999999
5.9419999 9.0019999 -1.063 0.43000001
4.6370001 7.0830002 -0.79100001 0.16
5.8629999 9.0039997 -1.058 0.38999999
5.8410001 9.0019999 -1.056 0.33000001
5.8000002 9 -1.054 0.46000001
4.52 7.0739999 -0.78299999 0.41999999
4.4970002 7.086 -0.78299999 0.31
4.4920001 7.1269999 -0.787 0.23
5.638 8.9969997 -1.043 0.27000001
5.6059999 9.0080004 -1.0420001 0.38999999
4.3280001 6.9899998 -0.76300001 0.18000001
4.2210002 6.914 -0.74900001 0.15000001
4.2080002 6.9429998 -0.75099999 0.12
4.1680002 6.9250002 -0.74699998 0.25
4.1560001 6.9549999 -0.74900001 0.31
5.3639998 9.0249996 -1.029 0.23999999
5.3039999 8.9560003 -1.0190001 0.36000001
4.145 7.0609999 -0.759 0.20999999
4.1350002 7.0949998 -0.76200002 0.16
5.2389998 9.04 -1.023 0.36000001
5.2020001 9.0410004 -1.021 0.31999999
5.1669998 9.0469999 -1.02 0.41
4.0089998 7.0819998 -0.75300002 0.34
5.1090002 9.0439997 -1.016 0.31
5.0770001 9.0530005 -1.015 0.28999999
5.0469999 9.0670004 -1.015 0.49000001
3.9000001 7.0710001 -0.74599999 0.30000001
3.8840001 7.0929999 -0.74699998 0.14
4.9380002 9.0710001 -1.0089999 0.33000001
4.9029999 9.0760002 -1.008 0.34
4.8850002 9.0760002 -1.007 0.38999999
3.7780001 7.085 -0.74000001 0.37
4.802 9.0579996 -1 0.28999999
4.7820001 9.0889997 -1.003 0.20999999
4.7020001 9.0050001 -0.98900002 0.37
4.7199998 9.1099997 -1.001 0.17
3.6429999 7.0970001 -0.73400003 0.28999999
4.6199999 9.0900002 -0.99400002 0.56
4.6059999 9.1339998 -0.99800003 0.25
3.533 7.0749998 -0.72600001 0.38999999
4.474 9.085 -0.986 0.27000001
4.4330001 9.0740004 -0.98299998 0.55000001
4.4330001 9.1090002 -0.986 0.27000001
3.392 7.04 -0.71499997 0.34
6.1360002 12.893 -1.472 0.15000001
4.2870002 9.0979996 -0.97799999 0.56999999
6.0489998 12.918 -1.47 0.20999999
3.2809999 7.0929999 -0.71499997 0.36000001
4.1680002 9.1049995 -0.97299999 0.52999997
4.1399999 9.1199999 -0.97299999 0.38999999
5.8899999 13.055 -1.477 0.23999999
3.164 7.1020002 -0.70999998 0.28
4.105 9.3509998 -0.99599999 0.57999998
5.7550001 13.141 -1.48 0.20999999
5.717 13.166 -1.4809999 0.25
3.043 7.099 -0.704 0.18000001
3.8759999 9.1029997 -0.95899999 0.44999999
3.8529999 9.1269999 -0.95999998 0.23999999
5.5469999 13.226 -1.479 0.50999999
5.527 13.297 -1.4859999 0.18000001
2.9260001 7.1020002 -0.69999999 0.15000001
3.6830001 9.0010004 -0.93900001 0.37
5.4380002 13.376 -1.4910001 0.15000001
5.3969998 13.397 -1.4910001 0.34999999
5.3600001 13.425 -1.492 0.17
2.802 7.1160002 -0.69599998 0.14
3.5650001 9.1190004 -0.94599998 0.52999997
5.25 13.456 -1.4910001 0.17
2.7349999 7.1100001 -0.69199997 0.50999999
3.447 9.1110001 -0.94099998 0.40000001
3.425 9.1409998 -0.94300002 0.38999999
5.0539999 13.579 -1.4960001 0.30000001
4.961 13.459 -1.479 0
1.819 5.006 -0.42399999 0
1.802 5.0089998 -0.42399999 0
1.778 4.9910002 -0.421 0
1.771 5.0209999 -0.42399999 0
1.745 4.9980001 -0.41999999 0
1.727 4.9980001 -0.419 0
1.727 5.0209999 -0.42199999 0
1.712 5.0300002 -0.42199999 0
1.698 5.039 -0.42300001 0
1.696 5.086 -0.428 0.02
2.299 7.0100002 -0.66399997 0
4.4970002 13.928 -1.5140001 0.28999999
4.4759998 13.937 -1.5140001 0.28999999
4.4359999 13.964 -1.515 0.14
2.8559999 9.118 -0.91900003 0.38999999
2.188 7.0830002 -0.66799998 0.49000001
4.3130002 14.034 -1.5190001 0.17
4.2670002 14.042 -1.518 0.28999999
2.724 9.0979996 -0.912 0.15000001
2.7160001 9.1230001 -0.91500002 0.44999999
2.052 6.993 -0.65399998 0
4.0879998 14.169 -1.527 0.30000001
2.5840001 9.0959997 -0.90700001 0.18000001
2.5610001 9.1230001 -0.91000003 0.47
2.6630001 9.5419998 -0.95999998 0.36000001
1.947 7.0869999 -0.66100001 0.20999999
3.8989999 14.266 -1.531 0.23
2.447 9.1020002 -0.90399998 0.18000001
2.421 9.118 -0.90499997 0.47
3.766 14.31 -1.5319999 0.22
3.7019999 14.341 -1.534 0.11
1.825 7.0770001 -0.65600002 0.33000001
2.313 9.1149998 -0.90100002 0.14
2.28 9.1049995 -0.89899999 0.51999998
3.586 14.45 -1.543 0.25999999
1.7180001 7.0749998 -0.653 0.13
1.702 7.1030002 -0.65499997 0.13
2.132 9.1199999 -0.89700001 0.54000002
3.4089999 14.619 -1.557 0.18000001
3.359 14.611 -1.5549999 0.46000001
1.5930001 7.0900002 -0.65100002 0.27000001
1.556 7.0310001 -0.64300001 0
1.561 7.158 -0.65799999 0.12
3.1800001 14.677 -1.558 0.19
3.1329999 14.681 -1.557 0.2
3.1029999 14.655 -1.554 0.50999999
1.546 7.4759998 -0.69400001 0.25999999
1.446 7.1129999 -0.64999998 0.14
1.5700001 7.8379998 -0.736 0.41
1.572 7.9749999 -0.75199997 0.13
2.875 14.715 -1.5549999 0.38
1.5650001 8.1379995 -0.76999998 0.30000001
1.3380001 7.0939999 -0.64499998 0.25
1.5140001 8.1479998 -0.76999998 0.27000001
1.484 8.1289997 -0.76800001 0.34
1.454 8.1070004 -0.764 0.43000001
1.419 8.0620003 -0.759 0.25999999
1.3940001 8.0670004 -0.759 0.41999999
1.211 7.092 -0.64300001 0.2
1.355 8.0670004 -0.75800002 0.36000001
1.329 8.0670004 -0.75700003 0.31
1.3049999 8.0790005 -0.75800002 0.41999999
1.28 8.0869999 -0.759 0.43000001
1.245 8.033 -0.75199997 0.28
1.0779999 7.1220002 -0.64399999 0.12
1.225 8.1540003 -0.76599997 0.47
1.214 8.2539997 -0.77700001 0.16
2.164 14.891 -1.562 0.22
1.2869999 9.1269999 -0.87900001 0.54000002
0.97100002 7.0910001 -0.63800001 0.31
1.969 14.86 -1.5549999 0.28999999
1.939 14.814 -1.549 0.46000001
1.155 9.1219997 -0.87699997 0.52999997
1.85 14.861 -1.553 0.28999999
0.85000002 7.119 -0.63999999 0.31
1.758 14.886 -1.5549999 0.2
1.3430001 11.733 -1.183 0.28
1.01 9.1300001 -0.87599999 0.49000001
0.99599999 9.1350002 -0.87599999 0.19
1.215 11.417 -1.1440001 0.47999999
0.72399998 7.1030002 -0.63599998 0.2
1.057 10.575 -1.044 0.33000001
1.045 10.797 -1.0700001 0.20999999
0.852 9.1440001 -0.875 0.49000001
0.97500002 10.774 -1.067 0.23999999
0.63099998 7.1989999 -0.64600003 0.19
0.84799999 10.291 -1.0089999 0.22
0.72000003 9.1269999 -0.87199998 0.38999999
0.81 10.63 -1.048 0.38999999
0.76700002 10.502 -1.033 0.43000001
0.48800001 7.105 -0.634 0.28
0.71700001 10.508 -1.033 0.14
0.59100002 9.1300001 -0.87099999 0.51999998
0.56400001 9.1540003 -0.87400001 0.16
0.616 10.48 -1.029 0.30000001
0.57800001 10.397 -1.0190001 0.50999999
0.36500001 7.1139998 -0.634 0.28999999
0.51200002 10.39 -1.018 0.16
0.433 9.1309996 -0.87 0.43000001
0.463 10.385 -1.017 0.33000001
0.43200001 10.432 -1.023 0.38999999
0.40000001 10.443 -1.024 0.37
0.242 7.1129999 -0.634 0.2
0.28799999 9.1049995 -0.86699998 0.28999999
0.25999999 9.1099997 -0.86699998 0.54000002
0.28200001 10.326 -1.0089999 0.23999999
0.235 9.8000002 -0.94800001 0.34999999
0.206 9.8760004 -0.95700002 0.36000001
0.119 7.1220002 -0.634 0.28999999
0.142 9.7370005 -0.94 0.16
0.103 9.1389999 -0.87 0.47999999
0.083999999 10.031 -0.97500002 0.23
0.068000004 10.029 -0.97399998 0.44999999
0.037 10.176 -0.99199998 0.33000001
-0.0040000002 7.1069999 -0.63200003 0.14
-0.027000001 9.1359997 -0.87 0.41
-0.059 10.188 -0.99299997 0.38999999
-0.090999998 10.281 -1.0039999 0.25
-0.123 10.17 -0.991 0.56
-0.105 7.105 -0.63200003 0.2
-0.156 9.1239996 -0.86900002 0.14
-0.204 10.244 -1 0.31999999
-0.17200001 7.1269999 -0.63499999 0.28999999
-0.19400001 7.125 -0.63499999 0.20999999
-0.296 10.079 -0.98100001 0.41999999
-0.32499999 10.004 -0.972 0.2
-0.31400001 9.1459999 -0.87199998 0.27000001
-0.38 10.219 -0.99699998 0.38999999
-0.41299999 10.238 -1 0.52999997
-0.31799999 7.1300001 -0.63599998 0.25
-0.47999999 10.289 -1.006 0.23
-0.458 9.1379995 -0.87099999 0.44999999
-0.54299998 10.258 -1.003 0.28
-0.56099999 10.298 -1.008 0.38999999
-0.58999997 10.241 -1.001 0.44999999
-0.44100001 7.1300001 -0.63700002 0.18000001
-0.58700001 9.1409998 -0.87300003 0.38
-0.69099998 10.306 -1.0089999 0.34999999
-0.72399998 10.302 -1.0089999 0.31
-0.75999999 10.357 -1.016 0.54000002
-0.77899998 10.388 -1.02 0.30000001
-0.56699997 7.1490002 -0.63999999 0.12
-0.74699998 9.1470003 -0.875 0.28999999
-0.866 10.249 -1.0039999 0.34
-0.89700001 10.235 -1.003 0.27000001
-0.93000001 10.236 -1.003 0.55000001
-0.67699999 7.1149998 -0.63700002 0.18000001
-0.903 9.4239998 -0.90899998 0.19
-0.78899997 7.9359999 -0.73400003 0.12
-0.80900002 7.8769999 -0.727 0.34
-0.83099997 7.8520002 -0.72500002 0.23999999
