# .PCD v0.7 - Point Cloud Data file format
VERSION 0.7
FIELDS x y z intensity
SIZE 4 4 4 4
TYPE F F F F
COUNT 1 1 1 1
WIDTH 1490
HEIGHT 1
VIEWPOINT 0 0 0 1 0 0 0
POINTS 1490
DATA ascii
7.5110002 -22.997 -1.74 0.25
7.579 -22.962 -1.739 0.13
5.8850002 -17.441 -1.276 0.55000001
5.9320002 -17.398001 -1.274 0.51999998
7.849 -22.93 -1.744 0.27000001
7.9229999 -22.910999 -1.744 0.25999999
8.0030003 -22.909 -1.7460001 0.18000001
8.0690002 -22.867001 -1.744 0.17
8.1379995 -22.834 -1.744 0.16
8.2089996 -22.806 -1.744 0.1
8.2810001 -22.782 -1.744 0.15000001
8.3170004 -22.767 -1.744 0.1
8.3879995 -22.740999 -1.744 0.14
8.4580002 -22.711 -1.743 0.1
8.5240002 -22.671 -1.742 0.16
8.5839996 -22.612 -1.74 0.20999999
8.6260004 -22.511 -1.733 0.2
8.6960001 -22.482 -1.733 0.47
8.7309999 -22.468 -1.733 0.19
8.8140001 -22.472 -1.7359999 0.13
8.8850002 -22.444 -1.7359999 0.17
8.96 -22.427 -1.737 0.12
9.0319996 -22.403 -1.737 0.16
9.1120005 -22.398001 -1.739 0.12
9.1789999 -22.362 -1.738 0.16
9.2209997 -22.364 -1.74 0.27000001
9.2939997 -22.343 -1.74 0.27000001
9.368 -22.320999 -1.7410001 0.25999999
9.4350004 -22.285999 -1.7410001 0.25
9.5059996 -22.257999 -1.7410001 0.25
9.5799999 -22.237 -1.742 0.25999999
9.6169996 -22.226999 -1.742 0.23999999
9.6820002 -22.186001 -1.7410001 0.11
9.7379999 -22.125 -1.738 0.17
9.802 -22.080999 -1.737 0.30000001
9.8699999 -22.048 -1.737 0.2
9.9300003 -21.995001 -1.735 0.18000001
9.9980001 -21.962 -1.735 0.20999999
10.028 -21.937 -1.734 0.17
10.089 -21.888 -1.733 0.33000001
10.144 -21.827 -1.73 0.15000001
10.223 -21.816999 -1.732 0.38999999
10.292 -21.785999 -1.732 0.25
10.365 -21.763 -1.733 0.25
10.38 -21.707001 -1.729 0.25
10.422 -21.618999 -1.724 0.31
10.481 -21.568001 -1.723 0.33000001
10.564 -21.566999 -1.726 0.36000001
10.66 -21.591 -1.7309999 0.34
10.74 -21.582001 -1.733 0.30000001
10.805 -21.541 -1.732 0.31999999
10.861 -21.486 -1.7309999 0.25
10.893 -21.465 -1.73 0.31999999
10.961 -21.431 -1.73 0.18000001
11.043 -21.427 -1.733 0.28999999
11.113 -21.395 -1.733 0
9.974 -18.906 -1.5140001 0.19
9.9560003 -18.799 -1.506 0.18000001
10.007 -18.753 -1.5039999 0.14
10.036 -18.666 -1.499 0
10.04 -18.534 -1.49 0
10.073 -18.455 -1.4859999 0
10.083 -18.336 -1.478 0
10.121 -17.802999 -1.442 0
10.147 -17.719 -1.437 0
10.16 -17.613001 -1.4299999 0
10.156 -17.542 -1.425 0
10.166 -17.431999 -1.418 0
10.185 -17.34 -1.4119999 0
5.8039999 -9.5469999 -0.69499999 0.44999999
5.7870002 -9.4519997 -0.68800002 0.99000001
5.8400002 -9.4709997 -0.69099998 0.99000001
5.8889999 -9.4829998 -0.69400001 0.99000001
5.927 -9.4779997 -0.69599998 0.99000001
5.9590001 -9.4630003 -0.69599998 0.99000001
6.0079999 -9.474 -0.699 0.99000001
6.0479999 -9.5050001 -0.70300001 0.99000001
6.0830002 -9.4949999 -0.70300001 0.99000001
6.2649999 -9.7119999 -0.72600001 0.62
6.2030001 -9.5500002 -0.71200001 0.25999999
10.528 -16.018999 -1.337 0.19
10.402 -15.72 -1.311 0
10.408 -15.675 -1.309 0
10.409 -15.569 -1.301 0
10.421 -15.482 -1.296 0
10.446 -15.414 -1.293 0
10.481 -15.362 -1.291 0.16
10.494 -15.278 -1.286 0.14
10.547 -15.251 -1.2869999 0.36000001
10.563 -15.223 -1.285 0
10.626 -15.211 -1.288 0
10.697 -15.212 -1.291 0
10.768 -15.211 -1.294 0
10.84 -15.211 -1.2970001 0
10.905 -15.201 -1.3 0.050000001
11.077 -15.188 -1.307 0.97000003
11.193 -15.246 -1.316 0.93000001
11.256 -15.232 -1.318 0.92000002
11.336 -15.24 -1.323 0.94
11.435 -15.273 -1.33 0.93000001
11.612 -15.459 -1.35 0.74000001
11.641 -15.397 -1.348 0
11.65 -15.308 -1.342 0
11.81 -15.419 -1.357 0
11.884 -15.415 -1.3609999 0.059999999
12.015 -15.483 -1.3710001 0.2
13.212 -16.92 -1.521 0.12
13.222 -16.877001 -1.5190001 0.34
13.209 -16.753 -1.511 0.36000001
13.23 -16.671 -1.506 0.34
13.286 -16.634001 -1.507 0.34
13.362 -16.621 -1.51 0.40000001
13.397 -16.559 -1.508 0.31
13.447 -16.514 -1.508 0.36000001
13.443 -16.455999 -1.5039999 0.34999999
13.479 -16.395 -1.502 0.38
13.492 -16.306 -1.497 0.30000001
13.475 -16.181 -1.488 0.34999999
13.508 -16.117001 -1.4859999 0.40000001
13.612 -16.139 -1.493 0.33000001
13.626 -16.104 -1.4910001 0.38999999
13.645 -16.024 -1.488 0.31999999
13.702 -15.989 -1.488 0.36000001
13.765 -15.961 -1.49 0.41
13.758 -15.851 -1.483 0.28999999
13.802 -15.802 -1.482 0.33000001
13.885 -15.796 -1.4859999 0.38999999
13.944 -15.813 -1.49 0.33000001
14.024 -15.803 -1.494 0.40000001
14.07 -15.755 -1.494 0.33000001
14.094 -15.682 -1.4910001 0.33000001
14.159 -15.656 -1.493 0.37
14.145 -15.542 -1.485 0.34
14.147 -15.495 -1.482 0.31
13.867 -15.091 -1.443 0.28
14.284 -15.449 -1.487 0.34
14.314 -15.384 -1.485 0.36000001
14.366 -15.343 -1.485 0.33000001
14.422 -15.307 -1.4859999 0.33000001
14.448 -15.238 -1.484 0.38999999
14.493 -15.237 -1.4859999 0.34
14.528 -15.179 -1.485 0.28999999
14.695 -15.257 -1.498 0.36000001
14.623 -15.087 -1.485 0.43000001
14.308 -14.668 -1.443 0.28999999
14.525 -14.798 -1.4630001 0.27000001
14.495 -14.674 -1.454 0.31999999
14.557 -14.691 -1.4579999 0.47
14.502 -14.544 -1.447 0.23999999
14.503 -14.453 -1.442 0.30000001
14.529 -14.389 -1.4400001 0.25999999
14.593 -14.362 -1.442 0.36000001
14.605 -14.284 -1.438 0.18000001
14.693 -14.279 -1.443 0.19
14.69 -14.231 -1.4400001 0.60000002
14.789 -14.238 -1.446 0.27000001
14.859 -14.216 -1.449 0.30000001
14.878 -14.145 -1.446 0.34999999
14.956 -14.129 -1.45 0.31
14.977 -14.06 -1.447 0.34999999
14.929 -13.971 -1.439 0.28999999
14.745 -13.712 -1.414 0.31999999
14.957 -13.822 -1.433 0.27000001
14.969 -13.746 -1.429 0.30000001
15.017 -13.703 -1.4299999 0.34999999
15.046 -13.644 -1.429 0.38
15.126 -13.63 -1.433 0.33000001
15.125 -13.586 -1.4299999 0.38
15.204 -13.571 -1.434 0.36000001
15.248 -13.524 -1.434 0.34999999
15.28 -13.467 -1.433 0.30000001
15.317 -13.415 -1.433 0.33000001
15.386 -13.39 -1.4349999 0.38999999
15.428 -13.342 -1.4349999 0.33000001
15.377 -13.255 -1.428 0.41999999
15.541 -13.312 -1.441 0.34
15.645 -13.316 -1.447 0.31
15.734 -13.307 -1.452 0.38
15.711 -13.203 -1.4450001 0.28999999
15.753 -13.154 -1.4450001 0.38999999
15.82 -13.126 -1.448 0.31999999
15.761 -13.035 -1.4400001 0.40000001
15.799 -12.983 -1.4400001 0.34999999
15.867 -12.956 -1.442 0.37
15.903 -12.902 -1.442 0.34999999
15.972 -12.875 -1.4450001 0.36000001
16.037001 -12.844 -1.447 0.36000001
16.087 -12.843 -1.45 0.40000001
16.194 -12.846 -1.457 0.33000001
16.325001 -12.866 -1.467 0.44999999
16.415001 -12.854 -1.472 0.31999999
16.489 -12.829 -1.475 0.46000001
16.511999 -12.763 -1.473 0.25
16.518 -12.686 -1.47 0.19
16.523001 -12.648 -1.4680001 0.41
16.542999 -12.581 -1.466 0.23999999
16.562 -12.514 -1.464 0.19
16.615999 -12.472 -1.466 0.41
16.666 -12.428 -1.467 0.23
16.698 -12.371 -1.466 0.18000001
16.763 -12.338 -1.469 0.41
16.797001 -12.322 -1.47 0.23999999
16.832001 -12.267 -1.47 0.23
16.875 -12.217 -1.47 0.16
16.881001 -12.141 -1.467 0.47
16.945 -12.106 -1.47 0.16
17.011 -12.073 -1.473 0.43000001
17.023001 -12.041 -1.472 0.23999999
17.046 -11.977 -1.47 0.16
17.094 -11.931 -1.471 0.43000001
17.125 -11.872 -1.471 0.23
17.134001 -11.799 -1.4680001 0.17
17.195999 -11.762 -1.47 0.43000001
17.226 -11.704 -1.47 0.23
17.229 -11.667 -1.4680001 0.17
17.287001 -11.627 -1.47 0.41999999
17.319 -11.569 -1.47 0.23
17.34 -11.505 -1.469 0.19
17.382999 -11.455 -1.469 0.41999999
17.417 -11.399 -1.469 0.23
17.451 -11.343 -1.469 0.16
17.482 -11.324 -1.47 0.43000001
17.493999 -11.254 -1.4680001 0.23
17.521 -11.194 -1.467 0.2
17.565001 -11.144 -1.4680001 0.41999999
17.587999 -11.081 -1.467 0.23
17.624001 -11.027 -1.467 0.2
17.674 -10.981 -1.4680001 0.41999999
15.591 -9.6490002 -1.27 0.16
15.581 -9.5749998 -1.266 0.20999999
15.589 -9.5129995 -1.2640001 0.51999998
17.784 -10.78 -1.467 0.19
17.775999 -10.699 -1.464 0.17
17.83 -10.656 -1.465 0.44
17.84 -10.624 -1.465 0.25
17.874001 -10.567 -1.465 0.16
17.924 -10.521 -1.466 0.43000001
17.952 -10.462 -1.466 0.23
17.9 -10.357 -1.4579999 0.28999999
17.988001 -10.332 -1.4630001 0.17
18.032 -10.282 -1.464 0.44
18.028999 -10.243 -1.4630001 0.25
18.044001 -10.177 -1.461 0.2
18.09 -10.128 -1.462 0.41999999
18.118 -10.069 -1.462 0.23
18.143999 -10.009 -1.461 0.19
18.177 -9.9530001 -1.462 0.41999999
18.193001 -9.8870001 -1.46 0.23
18.186001 -9.8459997 -1.4579999 0.18000001
18.229 -9.7959995 -1.459 0.38999999
18.243999 -9.7299995 -1.4579999 0.23
18.254999 -9.6619997 -1.456 0.16
18.294001 -9.6099997 -1.457 0.43000001
18.311001 -9.5459995 -1.456 0.25
18.334999 -9.5209999 -1.457 0.23
18.341999 -9.4519997 -1.454 0.17
18.388 -9.4020004 -1.456 0.43000001
18.419001 -9.3459997 -1.456 0.25
18.464001 -9.2959995 -1.457 0.23
18.475 -9.2290001 -1.456 0.18000001
18.533001 -9.1850004 -1.4579999 0.44
18.528999 -9.1470003 -1.457 0.25
18.570999 -9.0950003 -1.4579999 0.25999999
18.597 -9.0360003 -1.4579999 0.25
18.608999 -8.9689999 -1.456 0.17
18.674999 -8.9289999 -1.46 0.43000001
18.695999 -8.8669996 -1.459 0.25
18.729 -8.8100004 -1.46 0.23
18.747 -8.783 -1.46 0.18000001
18.799 -8.7360001 -1.462 0.44
18.816 -8.6709995 -1.461 0.25
18.849001 -8.6149998 -1.462 0.25999999
18.872 -8.5539999 -1.461 0.27000001
18.917 -8.5030003 -1.4630001 0.25
18.91 -8.4639997 -1.461 0.17
18.986 -8.4259996 -1.465 0.43000001
19.011999 -8.3669996 -1.465 0.25
19.058001 -8.316 -1.467 0.23
19.09 -8.2580004 -1.4680001 0.17
19.152 -8.2139997 -1.471 0.43000001
19.167 -8.1490002 -1.47 0.25
19.198 -8.1269999 -1.472 0.25999999
19.238001 -8.073 -1.473 0.17
19.291 -8.0240002 -1.475 0.44
19.306999 -7.9590001 -1.474 0.25
19.351 -7.9060001 -1.476 0.27000001
19.392 -7.8520002 -1.477 0.23
18.166 -7.2880001 -1.369 0.15000001
18.132999 -7.2410002 -1.365 0.34
18.238001 -7.217 -1.373 0.20999999
19.538 -7.6620002 -1.483 0.25999999
19.608999 -7.619 -1.487 0.25
19.638 -7.5599999 -1.487 0.18000001
19.705 -7.5139999 -1.4910001 0.46000001
19.724001 -7.4510002 -1.4910001 0.25
19.733999 -7.4190001 -1.49 0.25999999
19.775999 -7.3639998 -1.492 0.25999999
19.818001 -7.309 -1.494 0.25
19.85 -7.25 -1.494 0.25
19.878 -7.1900001 -1.495 0.25
19.908001 -7.1300001 -1.4960001 0.17
19.952999 -7.1110001 -1.498 0.43000001
19.976 -7.0479999 -1.498 0.25
20.018 -6.993 -1.5 0.17
20.073999 -6.941 -1.503 0.43000001
20.108999 -6.8829999 -1.5039999 0.23999999
20.164 -6.8309999 -1.507 0.25
20.195 -6.7709999 -1.508 0.16
20.243999 -6.7519999 -1.511 0.43000001
20.275999 -6.6919999 -1.512 0.25
20.302999 -6.6300001 -1.513 0.17
20.360001 -6.5780001 -1.516 0.44
20.405001 -6.5219998 -1.518 0.23
20.427 -6.4580002 -1.518 0.16
20.490999 -6.408 -1.521 0.43000001
20.52 -6.382 -1.523 0.23999999
20.552999 -6.3210001 -1.524 0.19
20.621 -6.2709999 -1.528 0.41
20.658001 -6.2119999 -1.53 0.23999999
20.712999 -6.158 -1.533 0.23
20.75 -6.098 -1.534 0.18000001
20.82 -6.0830002 -1.539 0.41999999
20.862 -6.0240002 -1.541 0.23
20.914 -5.9679999 -1.544 0.27000001
20.996 -5.9200001 -1.549 0.22
21.073999 -5.8709998 -1.554 0.27000001
21.080999 -5.8010001 -1.553 0.2
21.118 -5.7399998 -1.5549999 0.20999999
21.163 -5.717 -1.558 0.36000001
21.118 -5.6339998 -1.553 0.16
21.155001 -5.572 -1.554 0.38999999
21.162001 -5.5029998 -1.553 0.19
21.18 -5.4369998 -1.553 0.38
21.188999 -5.368 -1.553 0.19
21.205999 -5.302 -1.553 0.36000001
21.198 -5.2639999 -1.551 0.19
21.216999 -5.198 -1.552 0.23999999
21.237 -5.1329999 -1.552 0.18000001
21.247 -5.0640001 -1.551 0.23
21.249001 -4.994 -1.55 0.19
21.275 -4.9299998 -1.551 0.22
21.274 -4.8590002 -1.55 0.18000001
21.280001 -4.8260002 -1.55 0.14
21.27 -4.7529998 -1.548 0.17
21.292999 -4.6880002 -1.548 0.28999999
21.295 -4.618 -1.5470001 0.19
21.283001 -4.546 -1.545 0.18000001
21.308001 -4.4809999 -1.546 0.30000001
21.32 -4.414 -1.546 0.20999999
21.298 -4.3740001 -1.543 0.18000001
21.304001 -4.3060002 -1.543 0.20999999
21.292 -4.2340002 -1.541 0.18000001
21.295 -4.165 -1.54 0.20999999
21.299 -4.0960002 -1.539 0.18000001
21.296 -4.026 -1.538 0.31
21.285999 -3.99 -1.5369999 0.20999999
21.281 -3.9200001 -1.535 0.18000001
21.292999 -3.8529999 -1.535 0.30000001
21.278 -3.7809999 -1.533 0.19
21.242001 -3.7060001 -1.529 0.15000001
21.24 -3.6370001 -1.528 0.13
21.242001 -3.5680001 -1.527 0.17
21.250999 -3.536 -1.527 0.28
21.264 -3.4690001 -1.528 0.27000001
21.283001 -3.404 -1.528 0.25999999
21.285999 -3.335 -1.528 0.27000001
21.296 -3.2690001 -1.528 0.25
21.309999 -3.2019999 -1.528 0.25
21.302999 -3.1670001 -1.527 0.23999999
21.315001 -3.0999999 -1.527 0.25999999
21.313 -3.0320001 -1.526 0.25
21.316 -2.964 -1.526 0.25
21.318001 -2.8959999 -1.525 0.25999999
21.306999 -2.826 -1.523 0.25999999
21.304001 -2.7579999 -1.522 0.27000001
21.298 -2.723 -1.522 0.27000001
21.285 -2.6530001 -1.52 0.2
21.277 -2.5840001 -1.5190001 0.16
21.268999 -2.516 -1.517 0.14
21.242001 -2.4449999 -1.5140001 0.18000001
21.229 -2.3759999 -1.513 0.30000001
21.202999 -2.3050001 -1.51 0.20999999
21.167 -2.2679999 -1.507 0.18000001
21.17 -2.201 -1.507 0.20999999
21.167 -2.1329999 -1.506 0.18000001
21.18 -2.0669999 -1.506 0.30000001
21.186001 -2.0009999 -1.506 0.2
21.200001 -1.9349999 -1.507 0.16
21.195 -1.901 -1.506 0.13
21.197001 -1.834 -1.506 0.17
21.223 -1.7690001 -1.508 0.12
21.216 -1.701 -1.507 0.17
21.223 -1.635 -1.507 0.12
21.219999 -1.568 -1.506 0.16
21.223 -1.501 -1.506 0.12
21.226999 -1.4680001 -1.506 0.16
21.233999 -1.401 -1.506 0.12
21.218 -1.3329999 -1.505 0.16
21.224001 -1.266 -1.505 0.12
21.212 -1.199 -1.5039999 0.17
21.222 -1.133 -1.5039999 0.30000001
21.224001 -1.066 -1.5039999 0.2
21.205 -1.031 -1.502 0.18000001
21.204 -0.96499997 -1.502 0.30000001
21.198999 -0.898 -1.501 0.2
21.18 -0.82999998 -1.5 0.18000001
21.183001 -0.764 -1.5 0.20999999
21.181 -0.69700003 -1.499 0.18000001
21.179001 -0.63 -1.499 0.20999999
21.17 -0.597 -1.498 0.17
21.166 -0.52999997 -1.498 0.31
21.157 -0.463 -1.497 0.20999999
21.153 -0.39700001 -1.4960001 0.18000001
21.142 -0.33000001 -1.495 0.13
21.132999 -0.26300001 -1.495 0.17
21.115999 -0.197 -1.493 0.12
21.106001 -0.164 -1.492 0.16
21.104 -0.097000003 -1.492 0.12
21.083 -0.030999999 -1.49 0.16
19.721001 0.037 -1.494 0.38
19.716999 0.098999999 -1.494 0.18000001
19.707001 0.161 -1.493 0.38
19.705999 0.222 -1.493 0.18000001
19.708 0.25299999 -1.493 0.38
19.695 0.315 -1.492 0.22
19.694 0.377 -1.492 0.18000001
19.677999 0.43900001 -1.4910001 0.40000001
19.667 0.5 -1.49 0.25
19.660999 0.56199998 -1.49 0.27000001
19.652 0.59200001 -1.489 0.25
19.652 0.65399998 -1.489 0.28
19.634001 0.71499997 -1.488 0.27000001
19.632 0.77700001 -1.488 0.27000001
19.614 0.838 -1.487 0.28999999
19.601 0.89899999 -1.4859999 0.30000001
19.59 0.95999998 -1.485 0.28
19.582001 0.991 -1.485 0.28999999
19.577 1.052 -1.484 0.31
19.576 1.114 -1.485 0.30000001
19.554001 1.174 -1.483 0.28999999
19.559 1.2359999 -1.484 0.28999999
19.572001 1.299 -1.485 0.30000001
19.517 1.357 -1.4809999 0.27000001
19.504999 1.387 -1.48 0.28
19.483999 1.447 -1.479 0.28999999
19.436001 1.5039999 -1.475 0.28999999
19.429001 1.5650001 -1.475 0.28999999
19.431999 1.627 -1.475 0.28
19.410999 1.687 -1.474 0.28999999
19.407 1.748 -1.474 0.28
19.421 1.78 -1.476 0.28999999
19.433001 1.842 -1.477 0.25999999
19.413 1.902 -1.476 0.27000001
19.409 1.9630001 -1.476 0.27000001
19.377001 2.0209999 -1.474 0.27000001
19.384001 2.0840001 -1.475 0.19
18.782 2.0780001 -1.423 0.33000001
18.749001 2.1040001 -1.421 0.28999999
18.114 2.0899999 -1.367 0.19
18.636 2.21 -1.4119999 0.51999998
18.690001 2.276 -1.418 0.51999998
19.32 2.415 -1.473 0.25
19.377001 2.484 -1.478 0.27000001
19.393 2.517 -1.48 0.27000001
19.410999 2.582 -1.482 0.25999999
19.485001 2.654 -1.49 0.25
19.499001 2.7179999 -1.4910001 0.22
19.496 2.78 -1.492 0.34
19.448 2.836 -1.489 0.28999999
19.464001 2.901 -1.4910001 0.31999999
19.452 2.9300001 -1.49 0.30000001
19.445999 2.9920001 -1.49 0.30000001
19.433001 3.052 -1.49 0.28999999
19.445 3.1170001 -1.492 0.31999999
19.452999 3.181 -1.493 0.28
19.451 3.243 -1.494 0.31
19.450001 3.306 -1.495 0.31
19.466 3.3399999 -1.497 0.30000001
19.462 3.4030001 -1.497 0.28999999
19.447001 3.4630001 -1.497 0.31999999
19.458 3.5280001 -1.499 0.28999999
19.455999 3.5910001 -1.5 0.27000001
19.468 3.6559999 -1.502 0.28
19.457001 3.7179999 -1.502 0.28999999
19.459 3.75 -1.503 0.28999999
19.459 3.813 -1.5039999 0.28
19.441 3.8729999 -1.503 0.27000001
19.450001 3.938 -1.505 0.28
19.438999 4 -1.505 0.28999999
19.441999 4.0640001 -1.507 0.28999999
19.445999 4.0970001 -1.507 0.28
19.437 4.1589999 -1.508 0.28
19.431 4.2220001 -1.508 0.28999999
19.431 4.2859998 -1.51 0.28
19.426001 4.348 -1.51 0.28999999
19.422001 4.4120002 -1.511 0.28999999
19.41 4.473 -1.511 0.30000001
19.406 4.5040002 -1.512 0.30000001
19.392 4.5650001 -1.512 0.28
19.375999 4.6259999 -1.511 0.28999999
19.351999 4.684 -1.511 0.28999999
19.354 4.7490001 -1.512 0.37
19.374001 4.8189998 -1.515 0.28999999
19.370001 4.8829999 -1.516 0.25
19.363001 4.9130001 -1.516 0.28999999
19.351 4.9749999 -1.517 0.31999999
19.351 5.04 -1.518 0.31999999
19.356001 5.1059999 -1.52 0.34
19.358999 5.1719999 -1.522 0.31999999
19.364 5.2389998 -1.523 0.31999999
19.353001 5.3010001 -1.524 0.30000001
19.341 5.3299999 -1.524 0.31
19.316 5.3889999 -1.523 0.28
19.311001 5.4530001 -1.524 0.27000001
19.290001 5.5120001 -1.524 0.28
19.288 5.5770001 -1.525 0.27000001
19.287001 5.6430001 -1.527 0.28999999
19.275999 5.6729999 -1.526 0.28
19.26 5.7340002 -1.527 0.28
19.259001 5.7989998 -1.528 0.28999999
19.222 5.8540001 -1.526 0.28999999
19.207001 5.9159999 -1.527 0.28999999
19.212 5.9829998 -1.529 0.28999999
19.184999 6.0409999 -1.528 0.28999999
19.176001 6.0710001 -1.528 0.28
19.17 6.1360002 -1.529 0.28
19.153999 6.197 -1.53 0.28999999
19.143999 6.2600002 -1.53 0.28
19.136999 6.3249998 -1.5319999 0.27000001
19.125 6.3870001 -1.5319999 0.25
19.099001 6.4460001 -1.5319999 0.18000001
19.118999 6.4860001 -1.535 0.44999999
19.099001 6.546 -1.535 0.25
19.077999 6.6059999 -1.535 0.19
19.073999 6.6719999 -1.536 0.40000001
19.063 6.7350001 -1.5369999 0.20999999
19.034 6.7919998 -1.536 0.25
19.027 6.823 -1.5369999 0.20999999
19.007 6.8839998 -1.5369999 0.18000001
18.993 6.9460001 -1.538 0.41
18.983999 7.0110002 -1.539 0.19
18.959999 7.0700002 -1.539 0.36000001
18.934 7.1279998 -1.538 0.18000001
18.926001 7.1929998 -1.54 0.34999999
18.915001 7.223 -1.54 0.19
18.893999 7.283 -1.54 0.23999999
18.881001 7.3460002 -1.541 0.20999999
18.878 7.4130001 -1.5420001 0.17
18.865 7.4770002 -1.544 0.38999999
18.837999 7.5339999 -1.543 0.23
18.822001 7.5960002 -1.544 0.16
17.105 6.9949999 -1.388 0.60000002
16.919001 6.9809999 -1.372 0.18000001
16.860001 7.0180001 -1.369 0.14
16.806999 7.0580001 -1.3660001 0.23
16.759001 7.0999999 -1.364 0.11
16.65 7.1160002 -1.3559999 0.28999999
16.641001 7.1430001 -1.3559999 0.37
16.613001 7.1929998 -1.355 0.34
16.583 7.2410002 -1.355 0.41999999
16.556 7.2919998 -1.354 0.43000001
16.555 7.3540001 -1.3559999 0.38
16.541 7.4099998 -1.357 0.34999999
16.523001 7.4640002 -1.358 0.28999999
16.468 7.4699998 -1.354 0.18000001
16.566 7.5780001 -1.365 0.14
16.558001 7.6370001 -1.367 0.1
16.587999 7.7140002 -1.372 0
16.563999 7.7659998 -1.372 0
16.572001 7.8340001 -1.375 0
16.596001 7.8769999 -1.378 0
16.634001 7.9590001 -1.3839999 0
16.643999 8.0290003 -1.388 0
16.65 8.0959997 -1.391 0
16.631001 8.1520004 -1.391 0.11
16.622999 8.2130003 -1.393 0.20999999
16.577999 8.2550001 -1.391 0.2
16.615 8.3059998 -1.396 0
16.632999 8.3809996 -1.4 0
16.697001 8.4790001 -1.409 0
16.813999 8.6049995 -1.423 0.07
16.882 8.7080002 -1.432 0.18000001
18.33 9.5299997 -1.575 0.25
18.334999 9.5690002 -1.577 0.25
18.315001 9.632 -1.5779999 0.25
18.299 9.6969995 -1.579 0.25
18.27 9.7550001 -1.579 0.2
18.257 9.8219995 -1.581 0.41999999
18.229 9.8809996 -1.582 0.23999999
18.211 9.9449997 -1.5829999 0.18000001
18.239 9.9980001 -1.587 0.40000001
18.221001 10.063 -1.5880001 0.2
18.221001 10.138 -1.591 0.38
18.201 10.202 -1.5930001 0.23
18.191 10.272 -1.595 0.18000001
18.169001 10.335 -1.596 0.38999999
18.142 10.395 -1.596 0.23
18.129 10.425 -1.597 0.19
18.106001 10.488 -1.598 0.38999999
18.082001 10.55 -1.599 0.19
18.052 10.609 -1.599 0.36000001
18.014999 10.663 -1.599 0.18000001
17.98 10.719 -1.599 0.36000001
17.941 10.772 -1.598 0.18000001
17.924 10.8 -1.598 0.36000001
17.889 10.856 -1.598 0.19
17.851 10.91 -1.597 0.36000001
17.813 10.964 -1.597 0.19
17.777 11.018 -1.597 0.37
17.750999 11.079 -1.598 0.18000001
17.737 11.109 -1.598 0.36000001
17.724001 11.179 -1.6 0.18000001
17.688 11.235 -1.6 0.14
17.676001 11.305 -1.603 0.17
17.649 11.366 -1.604 0.12
17.607 11.417 -1.603 0.16
17.594 11.488 -1.605 0.20999999
17.598 11.529 -1.608 0.18000001
17.577999 11.596 -1.609 0.13
17.563 11.665 -1.612 0.16
17.556 11.74 -1.615 0.28
17.544001 11.812 -1.617 0.25999999
17.52 11.876 -1.619 0.27000001
17.496 11.94 -1.62 0.25999999
17.49 11.977 -1.6210001 0.27000001
17.465 12.041 -1.623 0.27000001
17.424 12.093 -1.622 0.11
17.388 12.149 -1.622 0.16
17.361 12.212 -1.624 0.12
17.329 12.271 -1.624 0.16
17.292 12.326 -1.625 0.12
17.268999 12.351 -1.624 0.17
17.237 12.41 -1.625 0.28999999
17.188 12.457 -1.624 0.2
17.146999 12.51 -1.624 0.18000001
17.103001 12.56 -1.623 0.34
17.041 12.597 -1.6210001 0.18000001
17.007 12.613 -1.619 0.36000001
16.958 12.659 -1.618 0.16
16.899 12.698 -1.6160001 0.40000001
16.83 12.729 -1.613 0.23
16.787001 12.78 -1.613 0.19
16.74 12.828 -1.612 0.41
16.705 12.884 -1.613 0.22
16.719 12.937 -1.6160001 0.18000001
16.691 12.999 -1.618 0.40000001
16.67 13.068 -1.62 0.23
16.665001 13.148 -1.624 0.16
16.638 13.212 -1.625 0.41999999
16.607 13.273 -1.627 0.25
16.586 13.341 -1.6289999 0.25999999
16.582001 13.381 -1.631 0.25
16.552 13.443 -1.632 0.23
16.530001 13.511 -1.6339999 0.28
16.49 13.566 -1.635 0
12.794 10.585 -1.226 0.029999999
12.794 10.653 -1.23 0.13
12.623 10.612 -1.217 0.56999999
12.503 10.578 -1.207 0.25
12.415 10.57 -1.201 0.31999999
12.381 10.608 -1.201 0.22
12.284 10.592 -1.193 0.090000004
12.21 10.595 -1.189 0
12.174 10.598 -1.186 0
11.708 10.585 -1.156 0
10.352 10.612 -1.073 0
10.158 10.611 -1.062 0
10.215 10.739 -1.073 0
10.207 10.798 -1.076 0
10.192 10.816 -1.077 0
10.164 10.855 -1.077 0
10.145 10.903 -1.079 0
10.076 10.897 -1.075 0
9.9390001 10.817 -1.062 0
9.6260004 10.608 -1.03 0
9.6140003 10.628 -1.031 0
9.5839996 10.663 -1.031 0
9.5200005 10.726 -1.0319999 0.28
9.4980001 10.769 -1.033 0
9.4779997 10.815 -1.035 0
9.5810003 11.003 -1.053 0
9.6230001 11.157 -1.066 0.13
9.5939999 11.195 -1.066 0
9.4029999 11.041 -1.046 0
9.401 11.108 -1.05 0
9.4440002 11.231 -1.0599999 0
9.4720001 11.373 -1.071 0.15000001
9.4589996 11.504 -1.079 0
9.4300003 11.543 -1.08 0
9.3570004 11.527 -1.075 0
9.4300003 11.692 -1.09 0
9.3940001 11.685 -1.0880001 0
9.4099998 11.934 -1.105 0
12.717 16.461 -1.587 0.54000002
12.852 16.688999 -1.61 0.23
13.064 17.076 -1.647 0.2
13.03 17.143 -1.65 0.43000001
12.971 17.177 -1.649 0.23999999
12.916 17.216 -1.649 0.19
12.855 17.249001 -1.648 0.41
12.791 17.275 -1.647 0.23999999
12.76 17.290001 -1.646 0.19
12.716 17.344 -1.648 0.41999999
12.674 17.402 -1.65 0.23999999
12.626 17.450001 -1.651 0.16
12.587 17.511999 -1.653 0.41999999
12.539 17.561001 -1.654 0.25
12.501 17.625 -1.6569999 0.23999999
12.478 17.650999 -1.6569999 0.17
12.438 17.712999 -1.66 0.43000001
12.394 17.768 -1.661 0.23999999
12.353 17.829 -1.664 0.2
12.315 17.893999 -1.666 0.36000001
12.279 17.962 -1.669 0.20999999
12.22 17.997 -1.669 0.33000001
12.218 18.056 -1.673 0.20999999
12.174 18.112 -1.675 0.25
12.111 18.142 -1.674 0.2
12.063 18.194 -1.676 0.23
12.017 18.247999 -1.677 0.19
12.001 18.349001 -1.684 0.16
12.039 18.471001 -1.694 0.44999999
11.991 18.524 -1.696 0.25
11.91 18.527 -1.692 0.19
11.805 18.49 -1.6849999 0.18000001
11.765 18.556 -1.688 0.25
11.704 18.589001 -1.687 0.20999999
11.656 18.643 -1.689 0.23
11.589 18.666 -1.688 0.18000001
11.565 18.691999 -1.689 0.31
11.502 18.722 -1.688 0.2
11.446 18.763 -1.688 0.18000001
11.402 18.823 -1.691 0.20999999
11.342 18.857 -1.691 0.19
11.288 18.902 -1.692 0.23
11.267 18.934 -1.693 0.18000001
11.225 18.997999 -1.696 0.20999999
11.175 19.051001 -1.698 0.17
11.118 19.091 -1.698 0.23
11.055 19.121 -1.698 0.18000001
11.014 19.188 -1.701 0.22
10.95 19.216999 -1.7 0.2
10.933 19.257 -1.7029999 0.23
10.868 19.284 -1.702 0.2
10.817 19.334 -1.704 0.28999999
10.764 19.384001 -1.705 0.2
10.802 19.597 -1.723 0.2
10.697 19.551001 -1.715 0.20999999
10.609 19.535 -1.71 0.18000001
10.568 19.532 -1.7079999 0.33000001
10.51 19.573 -1.709 0.16
10.47 19.646 -1.7130001 0.34999999
10.418 19.695999 -1.714 0.2
10.348 19.715 -1.7130001 0.34
10.298 19.77 -1.715 0.2
10.248 19.826 -1.7180001 0.38
10.227 19.861 -1.719 0.19
10.176 19.916 -1.722 0.37
10.129 19.978001 -1.725 0.23999999
10.068 20.014 -1.725 0.19
10.017 20.07 -1.727 0.41
9.9580002 20.108999 -1.728 0.23
9.9040003 20.16 -1.73 0.2
9.8780003 20.188 -1.7309999 0.38
9.8260002 20.242001 -1.733 0.2
9.7589998 20.264999 -1.733 0.37
9.7180004 20.343 -1.737 0
9.6929998 20.455999 -1.745 0.07
9.6239996 20.476999 -1.744 0.23
9.526 20.433001 -1.737 0.18000001
9.4849997 20.43 -1.735 0.23
9.4469995 20.518 -1.7410001 0.36000001
9.3780003 20.537001 -1.74 0.30000001
9.3129997 20.563999 -1.74 0.38999999
9.2559996 20.612 -1.7410001 0.33000001
9.1969995 20.653 -1.743 0.2
9.191 20.728001 -1.748 0.16
9.1400003 20.788 -1.751 0
3.197 7.2919998 -0.48300001 0
3.1489999 7.244 -0.47799999 0
3.1240001 7.2480001 -0.477 0.07
3.089 7.2290001 -0.47499999 0.079999998
3.0580001 7.2199998 -0.47299999 0.090000004
3.1170001 7.4569998 -0.49399999 0
1.123 7.2220001 -0.42699999 0.079999998
1.101 7.2280002 -0.42699999 0
1.0779999 7.2270002 -0.42699999 0
1.054 7.2199998 -0.426 0
1.033 7.2360001 -0.42699999 0
2.2980001 24.045 -1.876 0.11
2.2609999 24.055 -1.876 0.17
2.1900001 24.115 -1.881 0.12
2.118 24.17 -1.885 0.16
2.0439999 24.200001 -1.887 0.28
1.972 24.252001 -1.891 0.27000001
1.899 24.294001 -1.8940001 0.27000001
1.864 24.343 -1.898 0.25999999
1.795 24.452 -1.9069999 0.25999999
1.722 24.517 -1.9119999 0.25999999
1.649 24.577999 -1.9170001 0.25999999
1.574 24.618999 -1.92 0.25999999
1.497 24.631001 -1.92 0.25999999
1.42 24.646 -1.921 0.18000001
1.382 24.652 -1.9220001 0.16
1.304 24.66 -1.9220001 0.31999999
1.228 24.68 -1.923 0.19
1.151 24.690001 -1.924 0.34999999
1.074 24.707001 -1.925 0.18000001
0.99699998 24.743999 -1.928 0.36000001
0.92000002 24.771 -1.9299999 0.23
0.84500003 24.836 -1.9349999 0.17
0.80699998 24.882999 -1.939 0.40000001
0.72799999 24.858999 -1.937 0.25
0.64700001 24.742001 -1.927 0.27000001
0.56599998 24.587 -1.913 0.27000001
0.486 24.434999 -1.9 0.23999999
0.40599999 24.261 -1.885 0.18000001
0.366 24.112 -1.872 0.46000001
0.28799999 23.948 -1.858 0.25
0.212 23.792999 -1.845 0.25
0.13600001 23.646 -1.832 0.27000001
0.061999999 23.525 -1.821 0.25
-0.012 23.466999 -1.816 0.25
-0.086000003 23.461 -1.816 0.22
-0.122 23.363001 -1.808 0.30000001
-0.19400001 23.226999 -1.796 0.38
-0.266 23.135 -1.788 0.31999999
-0.336 22.993 -1.776 0.40000001
-0.40599999 22.851999 -1.7640001 0.38
-0.47600001 22.801001 -1.76 0.36000001
-0.54100001 22.538 -1.737 0.38
-0.579 22.605 -1.743 0.31
-0.648 22.541 -1.738 0.44
-0.71100003 22.294001 -1.717 0.40000001
-0.77899998 22.254 -1.7130001 0.28
-0.852 22.319 -1.719 0.34999999
-0.90399998 21.886 -1.682 0.31999999
-0.96499997 21.726 -1.669 0.25999999
-0.991 21.556999 -1.654 0.36000001
-1.053 21.424999 -1.643 0.43000001
-1.124 21.503 -1.65 0.36000001
-1.205 21.726 -1.67 0.34999999
-1.28 21.837999 -1.6799999 0.36000001
-1.346 21.798 -1.676 0.33000001
-1.416 21.815001 -1.678 0.40000001
-1.4119999 21.242001 -1.6289999 0.38999999
-1.51 21.683001 -1.668 0.25
-1.579 21.690001 -1.669 0.41
-1.661 21.860001 -1.684 0.28
-1.719 21.722 -1.6720001 0.36000001
-1.8049999 21.929001 -1.691 0.25
-1.847 21.617001 -1.664 0.44999999
-1.875 21.542999 -1.658 0.34
-1.939 21.495001 -1.654 0.23
-1.992 21.337999 -1.641 0.33000001
-2.0309999 21.046 -1.617 0.38
-2.1259999 21.323 -1.641 0.38999999
-2.175 21.15 -1.627 0.31999999
-2.352 22.169001 -1.716 0.31
-2.2820001 21.202999 -1.632 0.30000001
-2.313 20.881001 -1.605 0.31999999
-2.3740001 20.83 -1.601 0.33000001
-2.4300001 20.747 -1.595 0.38999999
-2.523 20.969 -1.615 0.34999999
-2.586 20.938999 -1.613 0.34
-2.6530001 20.937 -1.613 0.46000001
-2.71 21.118 -1.6289999 0.36000001
-2.7720001 21.076 -1.626 0.23
-2.842 21.099001 -1.6289999 0.5
-2.9100001 21.101999 -1.63 0.37
-2.9690001 21.041 -1.626 0.28
-3.075 21.308001 -1.65 0.38999999
-3.1459999 21.322001 -1.652 0.41999999
-3.184 21.35 -1.655 0.30000001
-3.21 21.07 -1.631 0.54000002
-3.2720001 21.034 -1.6289999 0.27000001
-3.326 20.948999 -1.622 0.36000001
-3.457 21.336 -1.6569999 0.34
-3.5350001 21.393999 -1.663 0.27000001
-3.598 21.563 -1.678 0.36000001
-3.6589999 21.507999 -1.675 0.31999999
-3.724 21.485001 -1.674 0.40000001
-3.8039999 21.542 -1.6799999 0.38999999
-3.8570001 21.447001 -1.6720001 0.44
-3.9189999 21.406 -1.67 0.38999999
-3.9230001 21.059999 -1.641 0.34
-3.9820001 21.188999 -1.652 0.33000001
-4.0749998 21.312 -1.664 0.41
-4.1370001 21.273001 -1.6619999 0.34999999
-4.2020001 21.253 -1.661 0.36000001
-4.2519999 21.157 -1.654 0.38999999
-4.263 20.872 -1.63 0.34999999
-4.3309999 20.875 -1.632 0.30000001
-4.381 20.948 -1.6390001 0.36000001
-4.4699998 21.042999 -1.648 0.38999999
-4.5359998 21.028999 -1.648 0.44999999
-4.632 21.150999 -1.66 0.43000001
-4.7649999 21.431999 -1.686 0.19
-4.7659998 21.127001 -1.661 0.56
-3.8729999 16.941 -1.293 0.17
-3.8959999 16.919001 -1.2920001 0.47
-3.947 16.900999 -1.291 0.27000001
-5.0799999 21.414 -1.691 0.25999999
-5.2090001 21.653999 -1.714 0.23999999
-5.2519999 21.535 -1.705 0.25999999
-5.3410001 21.607 -1.712 0.46000001
-5.3959999 21.538 -1.7079999 0.31999999
-5.461 21.650999 -1.719 0.2
-5.421 21.212999 -1.681 0.55000001
-5.5180001 21.313999 -1.692 0.19
-6.678 25.443001 -2.0599999 0.18000001
-5.6929998 21.434999 -1.706 0.25999999
-6.8299999 25.372 -2.0580001 0.38
-6.9070001 25.341 -2.0569999 0.19
-6.9499998 25.341 -2.0580001 0.38
-7.0339999 25.337 -2.0599999 0.2
-7.112 25.311001 -2.059 0.25
-7.1859999 25.268999 -2.0569999 0.20999999
-7.2659998 25.247999 -2.0580001 0.18000001
-7.3460002 25.226999 -2.0580001 0.38999999
-7.4250002 25.202 -2.0580001 0.2
-7.4640002 25.188 -2.0569999 0.38
-7.5489998 25.184 -2.059 0.19
-7.6240001 25.149 -2.0580001 0.38
-7.7030001 25.125 -2.0580001 0.22
-7.7820001 25.1 -2.0580001 0.18000001
-7.8600001 25.072001 -2.0580001 0.38999999
-7.9400001 25.051001 -2.0580001 0.2
-7.9770002 25.033001 -2.0580001 0.14
-8.0439997 24.971001 -2.0539999 0.5
-8.1379995 24.993 -2.059 0.23
-8.2180004 24.973 -2.059 0.18000001
-8.2969999 24.947001 -2.059 0.41
-8.3769999 24.927 -2.0599999 0.2
-8.4329996 24.836 -2.0539999 0.23999999
-8.3590002 24.493 -2.0239999 0.2
-8.3610001 24.25 -2.0039999 0.28999999
-8.6300001 24.773001 -2.0539999 0.2
-8.7030001 24.735001 -2.053 0.25999999
-8.7519999 24.625999 -2.046 0.16
-8.4020004 23.412001 -1.937 0.17
-8.4320002 23.266001 -1.926 0.34
-8.4370003 23.166 -1.919 0.22
-8.4860001 23.073999 -1.913 0.19
-8.5450001 23.011999 -1.909 0.41
-8.599 22.937 -1.905 0.23999999
-8.6639996 22.891001 -1.903 0.22
-8.724 22.832001 -1.9 0.19
-8.7950001 22.804001 -1.9 0.47999999
-8.8260002 22.777 -1.899 0.25
-8.8999996 22.754999 -1.9 0.19
-8.9809999 22.750999 -1.902 0.38999999
-9.0469999 22.709999 -1.901 0.23
-9.132 22.715 -1.904 0.18000001
-9.2180004 22.723 -1.9069999 0.38999999
-9.3050003 22.731001 -1.91 0.17
-9.3620005 22.768999 -1.915 0.36000001
-9.4650002 22.815001 -1.9220001 0.2
-9.5719995 22.870001 -1.9299999 0.33000001
-9.7060003 22.985001 -1.944 0.16
-10.236 24.025999 -2.0439999 0.38
-10.31 23.99 -2.0439999 0.23
-10.387 23.962999 -2.0439999 0.18000001
-10.428 23.954 -2.0450001 0.38999999
-10.498 23.908001 -2.0439999 0.20999999
-10.576 23.882999 -2.0439999 0.17
-10.653 23.855 -2.0450001 0.38999999
-10.726 23.816 -2.0439999 0.23
-10.8 23.780001 -2.0439999 0.2
-10.874 23.746 -2.0439999 0.38
-10.907 23.718 -2.043 0.23
-10.981 23.684 -2.043 0.18000001
-11.055 23.646999 -2.043 0.38999999
-11.119 23.591 -2.0409999 0.23
-11.192 23.554001 -2.0409999 0.18000001
-11.271 23.528999 -2.0420001 0.38999999
-11.338 23.48 -2.04 0.23
-11.383 23.48 -2.0420001 0.18000001
-11.46 23.448999 -2.043 0.38999999
-11.525 23.395 -2.0409999 0.22
-11.605 23.372999 -2.0420001 0.18000001
-11.676 23.330999 -2.0420001 0.38999999
-11.744 23.284 -2.0409999 0.12
-7.4330001 14.645 -1.211 0.22
-7.4460001 14.614 -1.209 0.38999999
-7.5050001 14.615 -1.211 0.47999999
-11.975 23.107 -2.036 0.20999999
-12.036 23.046 -2.0339999 0.18000001
-12.114 23.021 -2.0350001 0.38999999
-12.19 22.99 -2.036 0.19
-12.259 22.944 -2.0350001 0.25999999
-12.285 22.907 -2.0339999 0.20999999
-12.362 22.878 -2.0339999 0.18000001
-12.436 22.841999 -2.0350001 0.41
-12.504 22.796 -2.0339999 0.18000001
-12.574 22.754999 -2.0339999 0.38
-12.632 22.691 -2.0320001 0.19
-12.696 22.636999 -2.03 0.36000001
-12.738 22.629 -2.0309999 0.2
-12.799 22.572001 -2.03 0.25
-12.867 22.525999 -2.029 0.20999999
-12.949 22.504999 -2.0309999 0.17
-13.032 22.486 -2.033 0.38999999
-13.101 22.441999 -2.033 0.23
-13.185 22.424999 -2.0350001 0.12
-10.356 17.559999 -1.552 0.18000001
-10.486 17.653 -1.564 0.16
-10.814 17.945999 -1.6 0.40000001
-10.43 17.188999 -1.527 0.40000001
-10.818 17.701 -1.582 0.18000001
-10.541 17.128 -1.528 0.5
-10.451 16.924 -1.5089999 0.27000001
-10.035 16.138 -1.433 0.25999999
-10.054 16.056 -1.428 0.41999999
-10.27 16.287001 -1.454 0.30000001
-10.229 16.110001 -1.4400001 0.41
-10.058 15.732 -1.404 0.33000001
-10.08 15.657 -1.4 0.23999999
-10.105 15.643 -1.4 0.44999999
-10.223 15.716 -1.411 0.34999999
-10.298 15.722 -1.415 0.20999999
-10.235 15.52 -1.397 0.43000001
-10.261 15.455 -1.3940001 0.51999998
-10.551 15.782 -1.431 0.16
-10.433 15.554 -1.409 0.44
-10.464 15.494 -1.406 0.36000001
-10.483 15.419 -1.402 0.20999999
-10.32 15.077 -1.37 0.57999998
-10.704 15.531 -1.421 0.25999999
-10.41 15.005 -1.369 0.28999999
-10.489 15.018 -1.374 0.31
-10.571 15.085 -1.382 0.38
-10.655 15.104 -1.388 0.47999999
-10.716 15.089 -1.39 0.30000001
-10.735 15.015 -1.386 0.44
-10.95 15.214 -1.41 0.38999999
-10.781 14.881 -1.3789999 0.27000001
-10.807 14.82 -1.376 0.25
-10.759 14.705 -1.365 0.49000001
-10.906 14.807 -1.38 0.23
-10.863 14.653 -1.367 0.58999997
-11.002 14.743 -1.38 0.25999999
-11.187 14.893 -1.4 0.23
-11.164 14.766 -1.39 0.50999999
-11.23 14.756 -1.393 0.23
-11.312 14.816 -1.401 0.55000001
-11.499 14.962 -1.421 0.27000001
-11.536 14.913 -1.42 0.25999999
-11.654 14.968 -1.4299999 0.5
-11.702 14.933 -1.4299999 0.23999999
-11.645 14.765 -1.416 0.41
-11.768 14.825 -1.426 0.43000001
-12.121 15.219 -1.472 0.34999999
-12.127 15.128 -1.466 0.20999999
-12.291 15.234 -1.482 0.38
-12.369 15.232 -1.4859999 0.2
-12.349 15.112 -1.477 0.50999999
-12.303 14.959 -1.464 0.31999999
-12.117 14.64 -1.433 0.5
-12.559 15.076 -1.4859999 0.22
-12.764 15.273 -1.51 0.30000001
-12.833 15.257 -1.513 0.25
-12.487 14.753 -1.461 0.36000001
-12.592 14.782 -1.4680001 0.36000001
-12.558 14.649 -1.4579999 0.23
-12.575 14.576 -1.454 0.41
-12.62 14.582 -1.457 0.28
-12.777 14.67 -1.471 0.31999999
-12.875 14.688 -1.478 0.37
-12.764 14.47 -1.4579999 0.28999999
-12.745 14.358 -1.449 0.43000001
-12.828 14.36 -1.454 0.28999999
-12.845 14.288 -1.451 0.41
-13.362 14.815 -1.5140001 0.30000001
-13.418 14.783 -1.515 0.37
-13.463 14.739 -1.515 0.33000001
-13.494 14.681 -1.513 0.40000001
-13.536 14.634 -1.513 0.34999999
-13.527 14.533 -1.506 0.44
-13.563 14.48 -1.505 0.31
-13.526 14.395 -1.497 0.44999999
-13.636 14.421 -1.505 0.28999999
-13.663 14.359 -1.503 0.5
-13.62 14.224 -1.492 0.25
-13.765 14.286 -1.5039999 0.51999998
-13.862 14.295 -1.511 0.31
-13.849 14.193 -1.5039999 0.41
-13.768 14.066 -1.4910001 0.19
-13.982 14.195 -1.512 0.54000002
-14.118 14.242 -1.523 0.28999999
-14.184 14.219 -1.526 0.41
-14.293 14.239 -1.533 0.34999999
-14.348 14.204 -1.535 0.36000001
-14.448 14.213 -1.541 0.46000001
-14.487 14.207 -1.543 0.33000001
-14.56 14.189 -1.5470001 0.28999999
-14.602 14.141 -1.546 0.38999999
-14.656 14.105 -1.548 0.34999999
-14.656 14.016 -1.5420001 0.34
-14.758 14.025 -1.549 0.36000001
-14.71 13.892 -1.538 0.37
-14.503 13.653 -1.511 0.34999999
-14.892 13.931 -1.552 0.31
-14.576 13.551 -1.51 0.44999999
-14.562 13.453 -1.503 0.25
-15.048 13.813 -1.5549999 0.40000001
-15.101 13.775 -1.556 0.31999999
-15.182 13.761 -1.5599999 0.37
-15.165 13.703 -1.556 0.23
-15.341 13.775 -1.571 0.41
-15.268 13.623 -1.558 0.36000001
-15.348 13.608 -1.562 0.23999999
-15.267 13.45 -1.548 0.51999998
-15.425 13.503 -1.561 0.36000001
-15.608 13.578 -1.577 0.27000001
-15.717 13.629 -1.587 0.41999999
-15.835 13.644 -1.596 0.38
-15.865 13.583 -1.594 0.37
-15.865 13.497 -1.59 0.31
-16.009001 13.533 -1.601 0.38999999
-16.061001 13.49 -1.602 0.33000001
-16.164 13.491 -1.609 0.43000001
-16.195 13.473 -1.61 0.31999999
-16.285999 13.463 -1.615 0.38
-16.362 13.439 -1.619 0.43000001
-16.361 13.352 -1.614 0.31999999
-16.518999 13.395 -1.627 0.34999999
-16.552 13.335 -1.626 0.28999999
-16.707001 13.374 -1.6390001 0.36000001
-16.747 13.363 -1.641 0.37
-16.684 13.227 -1.6289999 0.31999999
-16.893 13.307 -1.648 0.34
-16.987 13.294 -1.653 0.38
-17.032 13.243 -1.654 0.36000001
-17.15 13.249 -1.6619999 0.34
-17.132 13.192 -1.658 0.30000001
-17.17 13.135 -1.6569999 0.40000001
-17.305 13.152 -1.668 0.41
-17.302999 13.066 -1.663 0.34
-17.437 13.08 -1.673 0.23999999
-17.448999 13.004 -1.67 0.47999999
-17.677 13.088 -1.6900001 0.31999999
-17.754 13.101 -1.696 0.36000001
-17.825001 13.068 -1.699 0.44
-17.91 13.043 -1.704 0.28999999
-18.014999 13.034 -1.711 0.41999999
-18.115999 13.02 -1.717 0.44
-7.9120002 5.6669998 -0.63599998 0.12
-7.9439998 5.652 -0.63700002 0.23
-7.9159999 5.6129999 -0.63300002 0.99000001
-7.8130002 5.5040002 -0.62 0.99000001
-7.809 5.4640002 -0.61799997 0.99000001
-7.8010001 5.4229999 -0.616 0.99000001
-7.8000002 5.3860002 -0.61400002 0.99000001
-7.7820001 5.3379998 -0.61000001 0.99000001
-7.7839999 5.303 -0.60900003 0.99000001
-8.0570002 5.4689999 -0.63599998 0.66000003
-7.928 5.3460002 -0.62099999 0.28
-7.9070001 5.296 -0.61699998 0.12
-19.372 12.842 -1.7970001 0.34999999
-19.455 12.81 -1.802 0.43000001
-19.552 12.786 -1.807 0.33000001
-19.663 12.77 -1.8150001 0.37
-19.731001 12.77 -1.8200001 0.38999999
-19.857 12.763 -1.8279999 0.30000001
-20.004 12.769 -1.839 0.38
-20.087999 12.734 -1.844 0.38
-20.202 12.717 -1.851 0.31999999
-20.332001 12.71 -1.86 0.38999999
-20.426001 12.679 -1.8660001 0.36000001
-20.492001 12.675 -1.87 0.31999999
-20.615999 12.663 -1.8789999 0.38
-20.716999 12.635 -1.885 0.30000001
-20.847 12.625 -1.8940001 0.38
-20.969999 12.61 -1.903 0.33000001
-21.167 12.637 -1.918 0.27000001
-21.304001 12.673 -1.9299999 0.38999999
-21.381001 12.629 -1.934 0.27000001
-21.445 12.575 -1.936 0.50999999
-21.577 12.562 -1.9450001 0.30000001
-21.573999 12.469 -1.941 0.31
-21.716 12.461 -1.951 0.44999999
-9.5950003 5.4819999 -0.74900001 0.13
-9.585 5.4569998 -0.74699998 0.2
-9.5790005 5.414 -0.745 0.46000001
-9.6079998 5.3899999 -0.74599999 0.34
-9.9390001 5.493 -0.77499998 0.57999998
-9.7670002 5.3590002 -0.75700003 0.25999999
-22.106001 12.001 -1.961 0.19
-22.164 11.943 -1.9630001 0.19
-22.202 11.918 -1.965 0.20999999
-22.263 11.86 -1.9680001 0.18000001
-22.320999 11.802 -1.97 0.13
-10.33 5.4359999 -0.80199999 0.2
-10.324 5.3920002 -0.80000001 0.44999999
-10.325 5.3509998 -0.79900002 0.58999997
-10.375 5.336 -0.80199999 0.38
-10.417 5.3369999 -0.80500001 0.46000001
-10.409 5.2909999 -0.80299997 0.44
-10.429 5.2600002 -0.80299997 0.5
-10.464 5.2360001 -0.80500001 0.34999999
-10.526 5.2259998 -0.80900002 0.46000001
-10.554 5.1989999 -0.81 0.63999999
-10.676 5.217 -0.81999999 0.20999999
-10.634 5.1760001 -0.81599998 0.49000001
-10.693 5.1630001 -0.81999999 0.34
-10.754 5.151 -0.824 0.25
-23.26 11.017 -2.0120001 0.1
-23.337 10.965 -2.016 0.14
-23.386 10.898 -2.017 0.1
-23.445 10.88 -2.0209999 0.14
-23.492001 10.812 -2.0220001 0.090000004
-23.594 10.77 -2.029 0
-23.635 10.699 -2.029 0
-23.672001 10.626 -2.03 0
-23.731001 10.563 -2.0320001 0
-23.77 10.491 -2.033 0
-23.815001 10.467 -2.0350001 0
-23.879 10.405 -2.0380001 0
-23.91 10.329 -2.0380001 0
-23.972 10.267 -2.0409999 0
-24.039 10.206 -2.0439999 0
-24.069 10.13 -2.0439999 0
-24.134001 10.068 -2.0469999 0
-24.191999 10.048 -2.0510001 0
-24.250999 9.9829998 -2.0539999 0
-24.297001 9.9130001 -2.0550001 0
-24.372 9.8540001 -2.059 0
-24.436001 9.7910004 -2.062 0
-24.497 9.7259998 -2.0650001 0
-24.568001 9.665 -2.069 0
-24.605 9.6350002 -2.0710001 0
-24.653999 9.5649996 -2.072 0
-24.721001 9.5010004 -2.076 0
-24.745001 9.4219999 -2.075 0
-24.780001 9.3459997 -2.076 0
-24.836 9.2779999 -2.0780001 0
-24.855 9.1960001 -2.0769999 0
-24.870001 9.1569996 -2.0769999 0
-24.91 9.0830002 -2.0780001 0
-24.929001 9.0010004 -2.0769999 0
-24.955 8.9219999 -2.0769999 0
-24.996 8.849 -2.079 0
-25.052 8.7799997 -2.0810001 0
-25.106001 8.71 -2.0829999 0
-25.148001 8.6800003 -2.086 0
-25.197001 8.6090002 -2.0880001 0
-25.221001 8.5290003 -2.0880001 0
-25.278999 8.46 -2.0910001 0
-25.320999 8.3859997 -2.092 0
-25.357 8.309 -2.0929999 0
-25.396 8.2779999 -2.095 0
-25.445 8.2049999 -2.0969999 0
-25.490999 8.132 -2.099 0
-25.545 8.0609999 -2.102 0
-25.572001 7.9809999 -2.102 0
-25.625999 7.9099998 -2.105 0
-25.684999 7.8400002 -2.108 0
-25.709 7.803 -2.109 0
-25.743 7.7249999 -2.1099999 0
-25.782 7.6479998 -2.1110001 0
-25.823 7.572 -2.112 0
-25.843 7.4899998 -2.112 0
-25.875999 7.4120002 -2.1129999 0
-25.909 7.3330002 -2.1140001 0
-25.93 7.2509999 -2.1140001 0
-25.959999 7.2160001 -2.115 0
-26.002001 7.1389999 -2.1170001 0
-26.048 7.0640001 -2.119 0
-26.094999 6.9889998 -2.1210001 0
-26.132 6.9109998 -2.1229999 0
-26.181999 6.836 -2.125 0
-26.233999 6.8049998 -2.1289999 0
-26.268 6.7259998 -2.1300001 0
-26.302999 6.6469998 -2.131 0
-26.351 6.5710001 -2.1340001 0
-26.398001 6.4949999 -2.1359999 0
-26.445999 6.4190001 -2.138 0
-26.51 6.3460002 -2.142 0
-26.545 6.3099999 -2.145 0
-26.584999 6.2319999 -2.1459999 0
-26.614 6.1500001 -2.1470001 0
-26.652 6.0710001 -2.1489999 0
-26.667 5.9860001 -2.1489999 0
-26.739 5.914 -2.1530001 0
-21.191 4.6230001 -1.664 0.1
-24.450001 5.29 -1.95 0.12
-23.788 4.9910002 -1.8890001 0.57999998
-23.642 4.8829999 -1.874 0.20999999
-23.695999 4.816 -1.878 0.27000001
-23.899 4.7789998 -1.8940001 0.33000001
-23.822001 4.6859999 -1.886 0.28999999
-24.033001 4.6880002 -1.904 0.28999999
-24.122999 4.6269999 -1.911 0.38999999
-24.177 4.559 -1.914 0.23
-23.931 4.4349999 -1.891 0.37
-23.986 4.3670001 -1.895 0.28
-24.153999 4.3189998 -1.908 0.31999999
-24.209 4.2509999 -1.9119999 0.34
-24.337 4.2340002 -1.923 0.38999999
-24.547001 4.1900001 -1.9400001 0.38
-24.67 4.132 -1.949 0.30000001
-24.948 4.0970001 -1.972 0.31999999
-25.108999 4.0430002 -1.985 0.34
-25.250999 3.984 -1.997 0.34999999
-25.341999 3.9170001 -2.003 0.33000001
-25.552999 3.908 -2.0209999 0.37
-25.743 3.8540001 -2.0369999 0.38
-25.851999 3.7869999 -2.0450001 0.38999999
-26.065001 3.7349999 -2.063 0.28
-26.325001 3.687 -2.0840001 0.16
-26.662001 3.6489999 -2.112 0.43000001
-26.997 3.608 -2.141 0.20999999
-27.316999 3.6070001 -2.168 0.18000001
-27.506001 3.5439999 -2.1830001 0.16
-27.533001 3.4590001 -2.1849999 0.18000001
-27.573 3.3759999 -2.187 0.28
-27.586 3.29 -2.187 0.25999999
-27.58 3.2019999 -2.1860001 0.11
-27.601999 3.1159999 -2.187 0.15000001
-27.615 3.0739999 -2.188 0.1
-27.605 2.9849999 -2.1860001 0
-27.632 2.9000001 -2.187 0
-27.641001 2.813 -2.187 0
-27.674999 2.7290001 -2.1900001 0
-27.729 2.6459999 -2.194 0
-27.721001 2.6010001 -2.1930001 0
-27.726999 2.5139999 -2.1919999 0
-27.716999 2.4260001 -2.191 0
-27.726999 2.339 -2.191 0.079999998
-27.732 2.2509999 -2.191 0.079999998
-27.743 2.165 -2.191 0.079999998
-27.752001 2.0780001 -2.191 0.090000004
-27.782 1.992 -2.1930001 0.090000004
-27.809 1.95 -2.1960001 0.14
-27.825001 1.863 -2.1960001 0.20999999
-34.194 2.122 -2.744 0
-34.209999 2.0150001 -2.7449999 0
-34.237999 1.909 -2.747 0
-34.263 1.8559999 -2.7490001 0
-34.261002 1.748 -2.7479999 0
-34.290001 1.642 -2.75 0
-34.306999 1.535 -2.7509999 0
-34.319 1.427 -2.7520001 0
-34.327999 1.319 -2.7520001 0
-34.349998 1.212 -2.7539999 0
-34.362999 1.159 -2.7550001 0
-34.384998 1.051 -2.756 0
-34.388 0.94300002 -2.756 0
-34.417 0.83600003 -2.7590001 0
-34.449001 0.72799999 -2.7609999 0
-34.466999 0.62 -2.763 0
-34.502998 0.51200002 -2.7650001 0
-34.525002 0.458 -2.767 0
-34.553001 0.34999999 -2.77 0
-34.557999 0.242 -2.77 0
-34.568001 0.133 -2.7709999 0
-34.598 0.025 -2.773 0
-34.596001 -0.083999999 -2.773 0
-34.632 -0.193 -2.776 0
-34.660999 -0.248 -2.779 0
-34.703999 -0.35699999 -2.783 0.16
-34.944 -0.579 -2.8039999 0
-18.506001 -0.35299999 -1.39 0
-18.473 -0.41 -1.387 0
-18.336 -0.551 -1.376 0
-18.292 -0.60699999 -1.372 0
-18.308001 -0.66500002 -1.374 0
-18.294001 -0.722 -1.373 0.11
-18.274 -0.77899998 -1.3710001 0.23
-18.259001 -0.83600003 -1.37 0.11
-18.246 -0.86400002 -1.369 0.16
-18.240999 -0.921 -1.369 0.28999999
-18.233999 -0.97799999 -1.369 0.2
-18.216999 -1.035 -1.368 0
-18.224001 -1.092 -1.368 0
-18.226 -1.15 -1.369 0
-18.215 -1.207 -1.368 0
-18.233 -1.237 -1.37 0
-18.216999 -1.293 -1.369 0
-18.238001 -1.352 -1.3710001 0
-18.243999 -1.41 -1.372 0
-18.243 -1.4680001 -1.372 0
-18.268 -1.528 -1.375 0
-18.298 -1.559 -1.378 0
-18.385 -1.742 -1.387 0
-18.596001 -1.821 -1.405 0
-19.219 -1.944 -1.46 0
-35.055 -3.678 -2.829 0
-35.035999 -3.7320001 -2.8280001 0
-35.077 -3.848 -2.8329999 0
-35.125999 -3.9649999 -2.8380001 0
-35.133999 -4.0780001 -2.8399999 0.12
-35.078999 -4.1830001 -2.836 0.13
-35.175999 -4.3070002 -2.846 0
-35.037998 -4.402 -2.835 0
-35.077 -4.4619999 -2.839 0
-35.09 -4.5760002 -2.8410001 0
-35.169998 -4.6989999 -2.849 0
-35.284 -4.8270001 -2.8610001 0
-35.395 -4.9559999 -2.872 0
-35.436001 -5.0749998 -2.8770001 0
-35.469002 -5.1939998 -2.881 0
-35.438999 -5.2459998 -2.8789999 0
-35.375999 -5.3499999 -2.875 0
-35.300999 -5.4530001 -2.8699999 0
-35.158001 -5.5440001 -2.859 0
-35.037998 -5.638 -2.8499999 0
-34.985001 -5.7420001 -2.8469999 0
-35.083 -5.8709998 -2.8570001 0
-35.138 -5.9369998 -2.8629999 0
-35.167 -6.0560002 -2.8670001 0
-35.195999 -6.1750002 -2.8710001 0
-35.245998 -6.2979999 -2.8770001 0
-35.298 -6.4219999 -2.8829999 0
-35.314999 -6.539 -2.8870001 0
-35.383999 -6.6669998 -2.8940001 0
-35.435001 -6.7340002 -2.9000001 0
-35.403 -6.8439999 -2.8989999 0
-35.380001 -6.9549999 -2.8989999 0
-35.346001 -7.0630002 -2.898 0
-35.306 -7.171 -2.8959999 0
-35.352001 -7.296 -2.902 0
-35.414001 -7.3670001 -2.9089999 0
-35.442001 -7.4889998 -2.9130001 0
-35.455002 -7.6079998 -2.9159999 0
-35.500999 -7.7350001 -2.9230001 0
-35.536999 -7.8600001 -2.928 0
-33.956001 -7.7329998 -2.793 0
-16.197001 -3.7550001 -1.228 0
-15.855 -3.7279999 -1.199 0
-13.867 -3.697 -1.033 0
-13.851 -3.763 -1.033 0
-14.875 -4.1430001 -1.126 0
-14.875 -4.1939998 -1.128 0
-14.804 -4.224 -1.122 0
-14.439 -4.1680002 -1.091 0
-14.355 -4.1929998 -1.085 0
-14.364 -4.2199998 -1.086 0
-13.919 -4.184 -1.048 0
-13.917 -4.2309999 -1.049 0
-13.917 -4.2789998 -1.051 0
-15.045 -5.072 -1.164 0
-15.036 -5.0949998 -1.164 0
-14.959 -5.1209998 -1.158 0
-14.083 -5.0430002 -1.085 0
-13.99 -5.059 -1.0779999 0
-13.761 -5.0250001 -1.058 0
-30.267 -11.574 -2.585 0.19
-30.370001 -11.723 -2.598 0.23
-30.441999 -11.861 -2.608 0.17
-30.032 -11.81 -2.573 0.31999999
-30.261999 -12.01 -2.598 0.27000001
-30.503 -12.217 -2.6240001 0.2
-30.497999 -12.326 -2.6270001 0.17
-30.596001 -12.422 -2.638 0.34
-30.625 -12.546 -2.6440001 0.2
-30.497999 -12.606 -2.6359999 0.23999999
-30.746 -12.822 -2.6630001 0.19
-30.614 -12.88 -2.654 0.14
-30.372 -12.89 -2.635 0.43000001
-30.368 -13.001 -2.6389999 0.23999999
-29.961 -12.994 -2.6070001 0.19
-30.351999 -13.278 -2.6470001 0.14
-30.513 -13.463 -2.6659999 0.25999999
-30.431999 -13.541 -2.6630001 0.25999999
-16.763 -7.5089998 -1.378 0.20999999
-16.698999 -7.5440001 -1.374 0.31999999
-16.695 -7.573 -1.375 0.43000001
-16.702 -7.6399999 -1.378 0
-19.275999 -8.8950005 -1.624 0.11
-19.212 -8.9390001 -1.6210001 0.12
-19.177999 -8.9969997 -1.62 0.41
-19.153999 -9.059 -1.62 0.13
-19.184 -9.1470003 -1.626 0.19
-29.813 -14.288 -2.641 0.12
-29.656 -14.328 -2.6300001 0.44999999
-29.549999 -14.392 -2.625 0.20999999
-29.646 -14.554 -2.638 0.34
-29.601999 -14.648 -2.638 0.19
-30.413 -15.169 -2.721 0.090000004
-28.763 -14.401 -2.5639999 0.15000001
-28.723 -14.494 -2.5650001 0.14
-28.193001 -14.337 -2.5179999 0
-28.582001 -14.649 -2.5599999 0
-28.625999 -14.785 -2.569 0.11
-15.653 -8.1960001 -1.318 0
-15.435 -8.1129999 -1.298 0
-28.237 -14.979 -2.5469999 0
-30.169001 -16.128 -2.74 0
