# .PCD v0.7 - Point Cloud Data file format
VERSION 0.7
FIELDS x y z intensity
SIZE 4 4 4 4
TYPE F F F F
COUNT 1 1 1 1
WIDTH 1463
HEIGHT 1
VIEWPOINT 0 0 0 1 0 0 0
POINTS 1463
DATA ascii
-4.0219998 -8.0880003 -1.545 0.12
-3.983 -8.0719995 -1.539 0.18000001
-3.961 -8.0609999 -1.535 0.25
-3.9400001 -8.0799999 -1.5369999 0.050000001
-3.905 -8.073 -1.533 0.18000001
-3.8959999 -8.1210003 -1.54 0.20999999
-3.862 -8.1149998 -1.536 0.20999999
-3.8440001 -8.1420002 -1.539 0.22
-3.812 -8.1409998 -1.5369999 0.1
-3.7780001 -8.1350002 -1.533 0.2
-3.7750001 -8.1610003 -1.5369999 0.11
-3.7449999 -8.1639996 -1.535 0.18000001
-3.714 -8.165 -1.533 0.050000001
-3.6889999 -8.1780005 -1.533 0.17
-3.6630001 -8.1879997 -1.533 0.19
-3.628 -8.1800003 -1.529 0.18000001
-3.6029999 -8.1569996 -1.523 0.19
-3.586 -8.1879997 -1.527 0.13
-3.562 -8.2040005 -1.528 0.17
-3.5350001 -8.2119999 -1.528 0.20999999
-3.5109999 -8.2259998 -1.528 0.18000001
-3.4779999 -8.2209997 -1.525 0.050000001
-3.444 -8.2139997 -1.521 0.17
-3.441 -8.243 -1.526 0.2
-3.4070001 -8.2340002 -1.522 0.20999999
-3.3829999 -8.2480001 -1.523 0.2
-3.3559999 -8.257 -1.522 0.1
-3.326 -8.2580004 -1.521 0.2
-3.303 -8.2740002 -1.522 0.11
-3.273 -8.2749996 -1.52 0.20999999
-3.2490001 -8.2889996 -1.521 0.11
-3.2279999 -8.276 -1.517 0.18000001
-3.207 -8.2989998 -1.52 0.11
-3.1800001 -8.3050003 -1.5190001 0.2
-3.161 -8.3339996 -1.522 0.2
-3.1370001 -8.349 -1.524 0.18000001
-3.109 -8.3549995 -1.523 0.050000001
-3.0739999 -8.3409996 -1.518 0.18000001
-3.0699999 -8.3710003 -1.523 0.2
-3.0439999 -8.3809996 -1.523 0.1
-3.02 -8.3959999 -1.524 0.090000004
-2.993 -8.4040003 -1.524 0.16
-2.96 -8.3950005 -1.52 0.22
-2.9319999 -8.3999996 -1.52 0.20999999
-2.921 -8.4119997 -1.521 0.20999999
-2.8929999 -8.4160004 -1.52 0.18000001
-2.8599999 -8.4060001 -1.516 0.059999999
-2.832 -8.4099998 -1.515 0.17
-2.8069999 -8.4219999 -1.516 0.050000001
-2.7739999 -8.4119997 -1.512 0.17
-2.7620001 -8.4639997 -1.521 0.19
-2.74 -8.4420004 -1.516 0.090000004
-2.7160001 -8.4580002 -1.517 0.14
-2.6930001 -8.4779997 -1.5190001 0.12
-2.655 -8.4519997 -1.513 0.17
-2.6300001 -8.4659996 -1.5140001 0.20999999
-2.608 -8.4899998 -1.517 0.1
-2.5769999 -8.4809999 -1.513 0.18000001
-2.5580001 -8.5150003 -1.518 0.2
-2.5439999 -8.5170002 -1.518 0.090000004
-2.5079999 -8.4949999 -1.512 0.2
-2.4879999 -8.526 -1.517 0.2
-2.464 -8.5430002 -1.518 0.18000001
-2.4300001 -8.526 -1.5140001 0.090000004
-2.404 -8.5349998 -1.5140001 0.18000001
-2.3870001 -8.5790005 -1.521 0.20999999
-2.3659999 -8.5559998 -1.516 0.1
-2.336 -8.552 -1.5140001 0.19
-2.316 -8.5839996 -1.518 0
-2.283 -8.5690002 -1.5140001 0.14
-2.2650001 -8.6079998 -1.52 0.2
-2.237 -8.6129999 -1.52 0.20999999
-2.2190001 -8.5979996 -1.516 0.20999999
-2.1889999 -8.5950003 -1.5140001 0.1
-2.164 -8.6099997 -1.516 0.15000001
-2.1370001 -8.6160002 -1.516 0.22
-2.1110001 -8.6269999 -1.517 0.1
-2.0829999 -8.6309996 -1.516 0.17
-2.053 -8.625 -1.5140001 0.050000001
-2.0350001 -8.6110001 -1.51 0.16
-2.0179999 -8.6569996 -1.518 0.050000001
-1.983 -8.6309996 -1.512 0.16
-1.959 -8.6499996 -1.5140001 0.050000001
-1.931 -8.6549997 -1.5140001 0.17
-1.905 -8.6660004 -1.515 0.2
-1.875 -8.6590004 -1.513 0.090000004
-1.854 -8.6920004 -1.518 0.18000001
-1.8380001 -8.6850004 -1.516 0.12
-1.8099999 -8.6870003 -1.515 0.16
-1.781 -8.6870003 -1.5140001 0.050000001
-1.752 -8.6809998 -1.512 0.17
-1.729 -8.7069998 -1.516 0.050000001
-1.696 -8.6859999 -1.511 0.16
-1.674 -8.7159996 -1.516 0.11
-1.66 -8.7209997 -1.516 0.2
-1.636 -8.7410002 -1.5190001 0.2
-1.604 -8.7250004 -1.515 0.1
-1.576 -8.7259998 -1.5140001 0.19
-1.556 -8.7700005 -1.521 0.11
-1.52 -8.7299995 -1.513 0.15000001
-1.512 -8.7620001 -1.518 0.23
-1.4809999 -8.7489996 -1.515 0.090000004
-1.451 -8.7340002 -1.512 0.16
-1.426 -8.7559996 -1.515 0.22
-1.399 -8.7629995 -1.515 0.1
-1.369 -8.7530003 -1.513 0.16
-1.3430001 -8.7670002 -1.5140001 0.050000001
-1.326 -8.75 -1.511 0.17
-1.303 -8.7790003 -1.516 0.11
-1.272 -8.7600002 -1.511 0.2
-1.248 -8.7889996 -1.516 0.2
-1.22 -8.7889996 -1.515 0.090000004
-1.189 -8.776 -1.512 0.16
-1.163 -8.7869997 -1.513 0.050000001
-1.146 -8.7629995 -1.5089999 0.16
-1.119 -8.7749996 -1.51 0.20999999
-1.0930001 -8.79 -1.512 0.090000004
-1.0650001 -8.7880001 -1.511 0.17
-1.038 -8.7950001 -1.512 0.12
-1.006 -8.7650003 -1.506 0.2
-0.97899997 -8.7700005 -1.506 0.11
-0.94999999 -8.7609997 -1.5039999 0.18000001
-0.94 -8.7939997 -1.51 0.11
-0.91100001 -8.783 -1.507 0.19
-0.88300002 -8.7860003 -1.507 0.1
-0.85500002 -8.7849998 -1.506 0.079999998
-0.82800001 -8.7930002 -1.508 0.039999999
-0.801 -8.8039999 -1.5089999 0.17
-0.78899997 -8.8210001 -1.512 0.19
-0.76300001 -8.8450003 -1.516 0.17
-0.736 -8.8529997 -1.517 0.090000004
-0.70599997 -8.8319998 -1.513 0.18000001
-0.67900002 -8.8450003 -1.515 0.11
-0.64999998 -8.8260002 -1.511 0.2
-0.62300003 -8.8459997 -1.5140001 0.2
-0.60900003 -8.8470001 -1.5140001 0.17
-0.57999998 -8.8290005 -1.51 0.039999999
-0.551 -8.8030005 -1.505 0.14
-0.52499998 -8.8319998 -1.51 0.19
-0.49599999 -8.8199997 -1.508 0.17
-0.46799999 -8.8219995 -1.508 0.17
-0.43900001 -8.802 -1.5039999 0.17
-0.426 -8.8000002 -1.5039999 0.1
-0.39700001 -8.776 -1.499 0.2
-0.36899999 -8.7849998 -1.5 0.11
-0.34200001 -8.7779999 -1.499 0.18000001
-0.315 -8.7989998 -1.502 0.050000001
-0.28600001 -8.7740002 -1.498 0.17
-0.25999999 -8.8149996 -1.505 0
-0.23100001 -8.79 -1.5 0
-0.21799999 -8.8079996 -1.5039999 0
-0.19 -8.8009996 -1.502 0.059999999
-0.163 -8.8129997 -1.5039999 0
-0.134 -8.7539997 -1.493 0
-0.106 -8.7229996 -1.488 0
-0.079000004 -8.7370005 -1.49 0
-0.066 -8.8459997 -1.51 0
-0.037999999 -8.8520002 -1.511 0.02
-0.011 -8.8319998 -1.508 0.14
0.017000001 -8.8030005 -1.502 0.11
0.045000002 -8.7589998 -1.494 0.2
0.071999997 -8.724 -1.488 0.050000001
0.098999999 -8.6940002 -1.482 0
0.113 -8.6820002 -1.48 0
0.141 -8.7410002 -1.4910001 0
0.168 -8.7440004 -1.492 0
0.19599999 -8.7390003 -1.4910001 0.050000001
0.223 -8.7349997 -1.49 0.15000001
0.25 -8.6969995 -1.483 0.16
0.27599999 -8.6800003 -1.48 0.039999999
0.30399999 -8.6750002 -1.48 0.17
0.317 -8.6750002 -1.48 0.050000001
0.345 -8.6820002 -1.4809999 0.07
0.37200001 -8.6920004 -1.483 0.090000004
0.398 -8.6420002 -1.474 0.039999999
0.426 -8.6560001 -1.477 0.07
0.45500001 -8.6940002 -1.484 0.14
0.48199999 -8.6850004 -1.483 0.16
0.49399999 -8.6689997 -1.48 0.16
0.523 -8.6850004 -1.483 0.18000001
0.54799998 -8.6590004 -1.479 0.16
0.57599998 -8.6619997 -1.48 0.039999999
0.60399997 -8.6660004 -1.4809999 0.16
0.63 -8.658 -1.48 0.18000001
0.64399999 -8.665 -1.4809999 0.1
0.671 -8.6590004 -1.48 0.18000001
0.69800001 -8.6490002 -1.479 0.050000001
0.72399998 -8.6370001 -1.477 0.17
0.75400001 -8.6639996 -1.482 0.1
0.778 -8.6199999 -1.475 0.19
0.80599999 -8.6309996 -1.477 0.050000001
0.81800002 -8.6110001 -1.474 0.18000001
0.847 -8.6289997 -1.478 0.19
0.87599999 -8.6499996 -1.482 0.090000004
0.89999998 -8.618 -1.477 0.18000001
0.92699999 -8.6070004 -1.475 0.050000001
0.95499998 -8.6160002 -1.477 0.16
0.98299998 -8.625 -1.48 0.050000001
0.99400002 -8.5939999 -1.474 0.17
1.023 -8.6160002 -1.479 0.050000001
1.05 -8.6049995 -1.477 0.14
1.079 -8.6230001 -1.4809999 0.18000001
1.105 -8.6059999 -1.479 0.1
1.13 -8.5930004 -1.477 0.18000001
1.16 -8.6129999 -1.4809999 0.2
1.173 -8.6070004 -1.4809999 0.1
1.2029999 -8.625 -1.485 0.090000004
1.228 -8.6009998 -1.4809999 0.079999998
1.2539999 -8.5900002 -1.48 0.16
1.2819999 -8.5970001 -1.482 0.16
1.3049999 -8.5620003 -1.476 0.039999999
1.331 -8.552 -1.475 0.14
1.348 -8.5719995 -1.479 0.19
1.372 -8.5500002 -1.476 0.18000001
1.399 -8.5489998 -1.476 0.18000001
1.427 -8.5489998 -1.477 0.039999999
1.45 -8.5249996 -1.473 0.17
1.479 -8.5340004 -1.476 0.18000001
1.51 -8.552 -1.48 0.090000004
1.523 -8.5480003 -1.48 0.15000001
1.5549999 -8.5679998 -1.485 0.23999999
1.582 -8.5629997 -1.485 0.1
1.6059999 -8.5469999 -1.482 0.090000004
1.636 -8.559 -1.4859999 0.090000004
1.666 -8.5690002 -1.489 0.090000004
1.693 -8.5620003 -1.488 0.090000004
1.707 -8.5629997 -1.489 0.090000004
1.732 -8.5459995 -1.487 0.039999999
1.765 -8.5740004 -1.493 0
1.7869999 -8.5450001 -1.489 0
1.8150001 -8.5430002 -1.489 0
1.839 -8.526 -1.487 0
1.868 -8.5299997 -1.489 0
1.886 -8.5459995 -1.493 0
1.919 -8.5710001 -1.498 0
1.947 -8.5670004 -1.499 0
1.979 -8.585 -1.5039999 0
2.0020001 -8.5600004 -1.5 0
2.0220001 -8.5270004 -1.495 0
2.05 -8.526 -1.4960001 0
2.066 -8.5319996 -1.498 0
2.099 -8.5509996 -1.502 0
2.1389999 -8.6000004 -1.513 0
2.1619999 -8.5740004 -1.5089999 0.02
2.181 -8.5380001 -1.5039999 0.12
2.201 -8.5030003 -1.498 0.12
2.224 -8.4820004 -1.4960001 0.18000001
2.2379999 -8.4829998 -1.497 0.11
2.2639999 -8.4720001 -1.4960001 0.2
2.29 -8.4610004 -1.495 0.11
2.319 -8.4630003 -1.497 0.090000004
2.3440001 -8.4499998 -1.4960001 0.090000004
2.3670001 -8.4300003 -1.493 0.18000001
2.4000001 -8.4449997 -1.498 0.2
2.418 -8.46 -1.501 0.090000004
2.4400001 -8.4370003 -1.498 0.16
2.4630001 -8.4139996 -1.4960001 0.20999999
2.4920001 -8.4160004 -1.497 0.1
2.516 -8.4020004 -1.4960001 0.18000001
2.5469999 -8.408 -1.499 0.12
2.569 -8.3859997 -1.4960001 0.18000001
2.586 -8.3940001 -1.498 0.2
2.6059999 -8.3669996 -1.495 0.14
2.6400001 -8.3809996 -1.499 0.25999999
2.664 -8.3669996 -1.498 0.2
2.6900001 -8.3570004 -1.498 0.23
2.711 -8.3330002 -1.495 0.19
2.7360001 -8.3190002 -1.494 0.22
2.75 -8.3190002 -1.494 0.15000001
2.7780001 -8.316 -1.4960001 0.27000001
2.793 -8.2729998 -1.489 0.23999999
2.823 -8.276 -1.4910001 0.20999999
2.8510001 -8.2740002 -1.493 0.25
2.8699999 -8.2449999 -1.489 0.19
2.8929999 -8.2279997 -1.487 0.23
2.901 -8.2089996 -1.484 0.22
2.928 -8.2030001 -1.485 0.12
2.951 -8.1870003 -1.484 0.17
2.9790001 -8.1829996 -1.485 0.23
2.9920001 -8.1400003 -1.478 0.18000001
3.016 -8.125 -1.477 0.18000001
3.0469999 -8.1300001 -1.48 0.31
3.0450001 -8.085 -1.472 0.23
3.0669999 -8.066 -1.47 0.25999999
3.095 -8.066 -1.472 0.20999999
3.1240001 -8.0649996 -1.474 0.25
3.1429999 -8.0389996 -1.47 0.2
3.1700001 -8.033 -1.471 0.12
3.187 -8.0030003 -1.467 0.20999999
3.2030001 -8.0050001 -1.469 0.22
3.233 -8.0080004 -1.471 0.23999999
3.2420001 -7.9569998 -1.4630001 0.25
3.276 -7.9689999 -1.4680001 0.16
3.3080001 -7.9770002 -1.471 0.28999999
3.3169999 -7.9260001 -1.4630001 0.23
3.339 -7.9099998 -1.462 0.18000001
3.365 -7.9359999 -1.4680001 0.14
3.381 -7.9050002 -1.464 0.2
3.402 -7.8860002 -1.462 0.20999999
3.4349999 -7.8930001 -1.466 0.13
3.451 -7.862 -1.462 0.18000001
3.4809999 -7.8639998 -1.465 0.22
3.506 -7.8530002 -1.465 0.19
3.517 -7.8460002 -1.464 0.23999999
3.533 -7.8150001 -1.46 0.2
3.5699999 -7.8309999 -1.466 0.25
3.5899999 -7.8109999 -1.464 0.20999999
3.612 -7.7940001 -1.4630001 0.23
3.641 -7.7909999 -1.465 0.20999999
3.6530001 -7.7529998 -1.459 0.31999999
3.6589999 -7.7350001 -1.457 0.28
3.6930001 -7.7449999 -1.461 0.18000001
3.714 -7.724 -1.459 0.27000001
3.733 -7.7020001 -1.457 0.23
3.756 -7.6880002 -1.457 0.16
3.7820001 -7.6799998 -1.457 0.28999999
3.796 -7.6490002 -1.4529999 0.25
3.8199999 -7.6659999 -1.4579999 0.2
3.8499999 -7.6659999 -1.461 0.25
3.8729999 -7.652 -1.46 0.19
3.8970001 -7.6399999 -1.46 0.12
3.9059999 -7.598 -1.454 0.19
3.9460001 -7.6170001 -1.461 0.25
3.971 -7.6059999 -1.461 0.27000001
3.9790001 -7.5929999 -1.46 0.28
4.0029998 -7.5809999 -1.46 0.27000001
4.0250001 -7.5640001 -1.459 0.20999999
4.0419998 -7.54 -1.456 0.22
4.0710001 -7.5370002 -1.4579999 0.28
4.0999999 -7.533 -1.46 0.19
4.1209998 -7.5170002 -1.46 0.23
4.132 -7.5089998 -1.459 0.20999999
4.165 -7.513 -1.4630001 0.23
4.1760001 -7.4759998 -1.4579999 0.16
4.2129998 -7.4879999 -1.4630001 0.25999999
4.2379999 -7.4770002 -1.464 0.23
4.243 -7.4310002 -1.457 0.2
4.2659998 -7.4450002 -1.461 0.28
4.2919998 -7.4349999 -1.462 0.22
4.3189998 -7.428 -1.4630001 0.28
4.336 -7.4039998 -1.461 0.13
4.3520002 -7.3769999 -1.4579999 0.20999999
4.3759999 -7.3649998 -1.4579999 0.17
4.401 -7.3540001 -1.459 0.28
4.4169998 -7.3559999 -1.461 0.2
4.441 -7.342 -1.461 0.23
4.4710002 -7.3400002 -1.464 0.2
4.5019999 -7.3390002 -1.466 0.23
4.5229998 -7.322 -1.466 0.19
4.5419998 -7.3010001 -1.464 0.2
4.5679998 -7.2909999 -1.465 0.28999999
4.579 -7.2589998 -1.461 0.1
4.592 -7.2529998 -1.462 0.16
4.631 -7.2649999 -1.4680001 0.23
4.645 -7.2360001 -1.464 0.16
4.6690001 -7.224 -1.465 0.23
4.691 -7.2080002 -1.465 0.090000004
4.717 -7.198 -1.466 0.18000001
4.7350001 -7.177 -1.464 0.050000001
4.7490001 -7.1729999 -1.465 0.16
4.7820001 -7.1739998 -1.469 0.20999999
4.7880001 -7.1339998 -1.4630001 0.18000001
4.8140001 -7.1240001 -1.464 0.23
4.8260002 -7.0939999 -1.461 0.20999999
4.8520002 -7.0840001 -1.462 0.25
4.8629999 -7.0770001 -1.462 0.13
4.8829999 -7.0580001 -1.461 0.2
4.9219999 -7.0669999 -1.467 0.11
4.9349999 -7.0380001 -1.464 0.18000001
4.9489999 -7.0120001 -1.461 0.23
4.9689999 -6.993 -1.461 0.18000001
5.0029998 -6.9949999 -1.465 0.1
5.007 -6.9770002 -1.462 0.18000001
5.039 -6.974 -1.465 0.12
5.0500002 -6.9439998 -1.462 0.17
5.0749998 -6.9330001 -1.4630001 0.23
5.1090002 -6.9330001 -1.467 0.1
5.1360002 -6.9250002 -1.469 0.15000001
5.1490002 -6.8959999 -1.466 0.050000001
5.1500001 -6.875 -1.4630001 0.16
5.1750002 -6.8639998 -1.464 0.2
5.2049999 -6.8579998 -1.466 0.25
5.21 -6.8200002 -1.461 0.23999999
5.2350001 -6.8080001 -1.462 0.17
5.2690001 -6.809 -1.466 0.25999999
5.29 -6.7909999 -1.466 0.19
5.316 -6.803 -1.471 0.23
5.3299999 -6.777 -1.469 0.23999999
5.362 -6.7740002 -1.472 0.25
5.3639998 -6.7319999 -1.466 0.050000001
5.3790002 -6.7080002 -1.464 0.15000001
5.421 -6.717 -1.47 0.2
5.441 -6.698 -1.47 0.16
5.4520001 -6.691 -1.47 0.059999999
5.4619999 -6.6599998 -1.467 0.17
5.5009999 -6.665 -1.472 0.050000001
5.5040002 -6.6259999 -1.467 0.15000001
5.5469999 -6.6360002 -1.474 0.11
5.5539999 -6.6020002 -1.47 0.20999999
5.5840001 -6.5949998 -1.472 0.11
5.5960002 -6.5879998 -1.473 0.079999998
5.6199999 -6.5749998 -1.474 0.16
5.632 -6.546 -1.471 0.12
5.6500001 -6.526 -1.47 0.17
5.6830001 -6.5229998 -1.474 0.20999999
5.7010002 -6.5019999 -1.473 0.17
5.7210002 -6.4840002 -1.473 0.090000004
5.7340002 -6.4780002 -1.474 0.18000001
5.7480001 -6.4520001 -1.472 0.050000001
5.7680001 -6.434 -1.472 0.17
5.8080001 -6.4380002 -1.478 0.25
5.8140001 -6.4039998 -1.474 0.2
5.8330002 -6.3839998 -1.473 0.28999999
5.8610001 -6.3740001 -1.476 0.23999999
5.8769999 -6.3730001 -1.477 0.23
5.8940001 -6.3509998 -1.477 0.12
5.9089999 -6.3270001 -1.475 0.20999999
5.9419999 -6.323 -1.479 0.050000001
5.9580002 -6.3000002 -1.478 0.14
5.9860001 -6.289 -1.48 0.19
5.9949999 -6.2589998 -1.477 0.18000001
6.0139999 -6.2600002 -1.48 0.059999999
6.0409999 -6.2480001 -1.4809999 0.16
6.053 -6.2220001 -1.48 0.11
6.0560002 -6.1859999 -1.475 0.20999999
6.0970001 -6.1880002 -1.4809999 0.23999999
6.0939999 -6.1459999 -1.475 0.22
6.1370001 -6.151 -1.4809999 0.28999999
6.1529999 -6.1479998 -1.483 0.19
6.1700001 -6.1259999 -1.482 0.25
6.1810002 -6.098 -1.48 0.18000001
6.2210002 -6.0999999 -1.485 0.23
6.224 -6.0650001 -1.4809999 0.20999999
6.2519999 -6.053 -1.484 0.22
6.2670002 -6.0300002 -1.482 0.22
6.2849998 -6.0279999 -1.485 0.17
6.303 -6.0079999 -1.485 0.27000001
6.3099999 -5.9759998 -1.4809999 0.23
6.3270001 -5.9549999 -1.4809999 0.2
6.3730001 -5.961 -1.488 0.13
6.3779998 -5.9289999 -1.485 0.2
6.3940001 -5.9060001 -1.484 0.11
6.395 -5.888 -1.482 0.18000001
6.4190001 -5.8730001 -1.483 0.25
6.4460001 -5.8610001 -1.485 0.22
6.4780002 -5.8520002 -1.489 0.19
6.487 -5.8239999 -1.4859999 0.050000001
6.5009999 -5.8000002 -1.485 0.17
6.5240002 -5.783 -1.4859999 0.19
6.533 -5.7729998 -1.4859999 0.23
6.5609999 -5.7620001 -1.489 0.23
6.5809999 -5.7420001 -1.489 0.16
6.5970001 -5.7199998 -1.489 0.23999999
6.6020002 -5.6880002 -1.4859999 0.19
6.6269999 -5.6729999 -1.488 0.20999999
6.6490002 -5.6560001 -1.489 0.039999999
6.6550002 -5.6430001 -1.488 0.029999999
6.6939998 -5.6399999 -1.493 0.07
6.704 -5.6129999 -1.4910001 0.17
6.704 -5.5770001 -1.487 0.20999999
6.7259998 -5.559 -1.488 0.25999999
6.763 -5.5549998 -1.493 0.17
6.7989998 -5.5479999 -1.497 0.18000001
6.8010001 -5.533 -1.4960001 0.1
6.8169999 -5.5100002 -1.495 0.079999998
6.836 -5.4899998 -1.4960001 0.16
6.848 -5.4650002 -1.494 0.1
6.8610001 -5.4390001 -1.493 0.18000001
6.8759999 -5.4169998 -1.493 0.25
6.901 -5.401 -1.495 0.2
6.9060001 -5.388 -1.494 0.1
6.9159999 -5.3600001 -1.492 0.18000001
6.9590001 -5.3590002 -1.498 0.2
6.9899998 -5.348 -1.502 0.13
7.0029998 -5.323 -1.501 0.18000001
7.0229998 -5.3039999 -1.502 0.15000001
7.052 -5.2909999 -1.505 0.28999999
7.0479999 -5.27 -1.502 0.22
7.0799999 -5.2600002 -1.505 0.050000001
7.0939999 -5.2350001 -1.505 0.16
7.1399999 -5.2350001 -1.512 0.2
7.1469998 -5.2059999 -1.5089999 0.039999999
7.1430001 -5.1680002 -1.505 0.14
7.1799998 -5.1609998 -1.5089999 0.11
7.1880002 -5.1500001 -1.5089999 0.20999999
7.223 -5.1409998 -1.5140001 0.2
7.2329998 -5.1129999 -1.512 0.1
7.2600002 -5.099 -1.515 0.19
7.276 -5.0760002 -1.515 0.19
7.277 -5.0430002 -1.512 0.090000004
7.322 -5.04 -1.518 0.039999999
7.303 -5.0089998 -1.512 0.14
7.3569999 -5.013 -1.521 0.19
7.3709998 -4.9889998 -1.52 0.039999999
7.402 -4.9759998 -1.524 0.07
7.4109998 -4.948 -1.522 0.18000001
7.4310002 -4.928 -1.523 0.12
7.4450002 -4.9039998 -1.523 0.18000001
7.4660001 -4.901 -1.526 0.2
7.4910002 -4.8839998 -1.528 0.1
7.513 -4.8639998 -1.529 0.090000004
7.513 -4.8309999 -1.526 0.2
7.5570002 -4.8249998 -1.5319999 0.11
7.5700002 -4.8010001 -1.5319999 0.18000001
7.5949998 -4.783 -1.534 0.050000001
7.6139998 -4.7789998 -1.5369999 0.13
7.6430001 -4.763 -1.54 0.12
7.651 -4.7350001 -1.538 0.18000001
7.6939998 -4.7280002 -1.544 0.22
7.6939998 -4.6950002 -1.541 0.25
7.7220001 -4.6789999 -1.544 0.11
7.7350001 -4.6539998 -1.544 0.19
7.7639999 -4.6550002 -1.548 0.050000001
7.7579999 -4.618 -1.544 0.16
7.8130002 -4.618 -1.553 0.11
7.8039999 -4.579 -1.548 0.18000001
7.8319998 -4.5630002 -1.55 0.050000001
7.8309999 -4.5289998 -1.5470001 0.16
7.8709998 -4.5359998 -1.554 0.2
7.9000001 -4.52 -1.557 0.090000004
7.9190001 -4.4980001 -1.558 0.17
7.927 -4.4689999 -1.557 0.20999999
7.9369998 -4.4419999 -1.556 0.1
7.934 -4.408 -1.553 0.18000001
7.98 -4.401 -1.5599999 0.11
7.987 -4.388 -1.5599999 0.19
8.0129995 -4.3699999 -1.562 0.11
8.0319996 -4.3470001 -1.563 0.079999998
8.0349998 -4.316 -1.561 0.19
8.0679998 -4.3010001 -1.5650001 0.2
8.1000004 -4.2859998 -1.569 0.1
8.1029997 -4.2550001 -1.567 0
8.1239996 -4.25 -1.5700001 0.13
8.1479998 -4.23 -1.572 0.2
8.1590004 -4.2030001 -1.572 0.16
8.1859999 -4.1849999 -1.574 0.17
8.2049999 -4.1620002 -1.576 0.16
8.2209997 -4.138 -1.576 0.16
8.2399998 -4.1149998 -1.577 0.18000001
8.2589998 -4.092 -1.579 0.039999999
8.2779999 -4.085 -1.581 0
8.2609997 -4.0440001 -1.575 0
8.283 -4.0229998 -1.577 0.029999999
8.2860003 -3.9920001 -1.575 0.039999999
8.3170004 -3.9749999 -1.579 0.13
8.3470001 -3.957 -1.582 0.18000001
8.3459997 -3.941 -1.581 0
8.3649998 -3.918 -1.582 0.029999999
8.3830004 -3.8940001 -1.5829999 0.14
8.3929996 -3.8670001 -1.5829999 0.2
8.4090004 -3.842 -1.584 0.1
8.4320002 -3.8210001 -1.586 0.090000004
8.4440002 -3.7939999 -1.586 0.079999998
8.4560003 -3.7679999 -1.586 0.19
8.4779997 -3.7620001 -1.589 0.2
8.4770002 -3.7290001 -1.587 0.039999999
8.4919996 -3.704 -1.587 0.039999999
8.5310001 -3.6889999 -1.5930001 0.15000001
8.54 -3.6619999 -1.5930001 0.2
8.5539999 -3.6359999 -1.5930001 0.18000001
8.5670004 -3.625 -1.594 0.16
8.5889997 -3.6029999 -1.597 0.17
8.6040001 -3.5769999 -1.597 0.17
8.6199999 -3.553 -1.598 0.039999999
8.6350002 -3.527 -1.599 0.079999998
8.6549997 -3.5039999 -1.601 0.19
8.677 -3.4809999 -1.603 0.11
8.6879997 -3.454 -1.603 0.19
8.7049999 -3.444 -1.605 0.19
8.7349997 -3.425 -1.609 0.039999999
8.7370005 -3.3940001 -1.607 0.17
8.7679996 -3.3740001 -1.6109999 0.050000001
8.7749996 -3.345 -1.6109999 0.14
8.7779999 -3.3150001 -1.609 0.050000001
8.783 -3.3010001 -1.609 0.16
8.8149996 -3.2820001 -1.614 0.18000001
8.8479996 -3.2620001 -1.618 0.1
8.8339996 -3.2260001 -1.613 0.20999999
8.868 -3.207 -1.618 0.20999999
8.8710003 -3.1760001 -1.617 0.1
8.8769999 -3.1470001 -1.6160001 0.18000001
8.915 -3.1289999 -1.6210001 0.050000001
8.9119997 -3.112 -1.62 0.15000001
8.9440002 -3.092 -1.624 0.18000001
8.9540005 -3.0639999 -1.624 0.14
8.9750004 -3.039 -1.626 0.27000001
8.9820004 -3.0109999 -1.626 0.18000001
9.0010004 -2.9860001 -1.628 0.090000004
9.0080004 -2.957 -1.627 0.090000004
9.0319996 -2.9489999 -1.631 0.090000004
9.0469999 -2.9219999 -1.632 0.039999999
9.0579996 -2.8940001 -1.633 0.07
9.0740004 -2.868 -1.6339999 0.16
9.1020002 -2.846 -1.638 0.17
9.118 -2.819 -1.6390001 0.18000001
9.1239996 -2.806 -1.6390001 0.17
9.1330004 -2.777 -1.6390001 0.039999999
9.1339998 -2.7460001 -1.638 0.15000001
9.1809998 -2.7279999 -1.645 0.19
9.1929998 -2.701 -1.646 0.039999999
9.2130003 -2.675 -1.648 0.07
9.217 -2.645 -1.647 0.039999999
9.2349997 -2.6340001 -1.65 0.07
9.243 -2.605 -1.65 0.079999998
9.2620001 -2.5799999 -1.652 0.079999998
9.2889996 -2.556 -1.656 0.079999998
9.3050003 -2.529 -1.6569999 0.090000004
9.3030005 -2.497 -1.655 0.090000004
9.3280001 -2.4719999 -1.659 0.079999998
9.3450003 -2.461 -1.661 0.079999998
9.368 -2.4360001 -1.664 0.079999998
9.3929996 -2.411 -1.6670001 0.079999998
9.3950005 -2.3800001 -1.666 0.079999998
9.3990002 -2.349 -1.666 0.079999998
9.4189997 -2.323 -1.668 0.079999998
9.4300003 -2.2939999 -1.669 0.039999999
9.4510002 -2.2839999 -1.6720001 0.07
9.4770002 -2.2590001 -1.676 0.079999998
9.4770002 -2.227 -1.674 0.090000004
9.5050001 -2.2019999 -1.678 0.079999998
9.533 -2.177 -1.682 0.16
9.507 -2.1400001 -1.676 0.12
9.4689999 -2.0999999 -1.668 0.2
9.5170002 -2.095 -1.676 0.11
9.5080004 -2.062 -1.673 0.18000001
9.5389996 -2.0369999 -1.678 0.22
9.5769997 -2.0139999 -1.684 0.22
9.5690002 -1.9809999 -1.681 0.13
9.6739998 -1.971 -1.7 0.07
9.5950003 -1.923 -1.684 0.17
9.5939999 -1.908 -1.683 0.2
9.5909996 -1.876 -1.681 0.18000001
9.5930004 -1.845 -1.681 0.039999999
9.5439997 -1.804 -1.67 0.16
9.5880003 -1.781 -1.678 0.050000001
9.5959997 -1.752 -1.678 0.17
9.6110001 -1.723 -1.6799999 0.2
9.6309996 -1.711 -1.683 0.090000004
9.6440001 -1.682 -1.6849999 0.16
9.6440001 -1.651 -1.683 0.050000001
9.6470003 -1.62 -1.683 0.18000001
9.6870003 -1.596 -1.6900001 0.050000001
9.6669998 -1.561 -1.6849999 0.16
9.6969995 -1.535 -1.6900001 0.050000001
9.7049999 -1.521 -1.691 0.17
9.7349997 -1.494 -1.6950001 0.18000001
9.7609997 -1.467 -1.699 0.090000004
9.7709999 -1.437 -1.701 0.090000004
9.7720003 -1.406 -1.7 0.090000004
9.7700005 -1.374 -1.699 0.079999998
9.802 -1.347 -1.704 0.079999998
9.7889996 -1.33 -1.701 0.039999999
9.7910004 -1.299 -1.701 0.07
9.8009996 -1.2690001 -1.702 0.039999999
9.8030005 -1.238 -1.701 0.07
9.8280001 -1.21 -1.705 0.15000001
9.8199997 -1.177 -1.7029999 0.039999999
9.8269997 -1.147 -1.704 0.07
9.8120003 -1.1289999 -1.701 0.039999999
9.8210001 -1.099 -1.702 0.07
9.809 -1.067 -1.699 0.039999999
9.8100004 -1.036 -1.698 0.07
9.8070002 -1.0039999 -1.697 0.039999999
9.8219995 -0.97500002 -1.699 0.07
9.823 -0.94400001 -1.699 0.079999998
9.8330002 -0.92900002 -1.701 0.079999998
9.8240004 -0.89700001 -1.698 0.079999998
9.8360004 -0.86699998 -1.7 0.079999998
9.8330002 -0.83499998 -1.699 0.039999999
9.8380003 -0.80500001 -1.699 0.079999998
9.8520002 -0.77499998 -1.702 0.079999998
9.8559999 -0.74400002 -1.702 0.079999998
9.8649998 -0.72899997 -1.7029999 0.079999998
9.8660002 -0.69800001 -1.7029999 0.090000004
9.8620005 -0.667 -1.702 0.079999998
9.8640003 -0.63599998 -1.702 0.039999999
9.8800001 -0.60500002 -1.705 0.079999998
9.8809996 -0.574 -1.705 0.039999999
9.8889999 -0.54400003 -1.706 0.079999998
9.8859997 -0.528 -1.705 0.15000001
9.8920002 -0.49700001 -1.706 0.039999999
9.8889999 -0.46599999 -1.705 0.07
9.8979998 -0.435 -1.706 0.15000001
9.9250002 -0.405 -1.711 0.16
9.9130001 -0.373 -1.709 0.16
9.9119997 -0.34200001 -1.7079999 0.039999999
9.9280005 -0.32699999 -1.711 0
9.9569998 -0.29699999 -1.716 0
9.9540005 -0.26499999 -1.715 0.029999999
9.9169998 -0.233 -1.709 0.029999999
9.8920002 -0.20200001 -1.704 0.15000001
9.9200001 -0.171 -1.709 0.2
9.934 -0.14 -1.711 0.18000001
10.002 -0.125 -1.724 0.13
10.016 -0.093999997 -1.726 0.2
10.053 -0.063000001 -1.733 0.19
10.059 -0.030999999 -1.734 0.039999999
9.507 0.025 -1.716 0.07
9.4969997 0.039999999 -1.714 0.039999999
9.4969997 0.07 -1.714 0.07
9.5030003 0.1 -1.715 0.039999999
9.5059996 0.13 -1.716 0.039999999
9.5120001 0.16 -1.717 0.039999999
9.5019999 0.189 -1.715 0.029999999
9.5150003 0.219 -1.7180001 0.029999999
9.5240002 0.235 -1.72 0.029999999
9.5430002 0.26499999 -1.724 0.029999999
9.5480003 0.29499999 -1.725 0.029999999
9.559 0.32600001 -1.727 0.029999999
9.5670004 0.35600001 -1.729 0.029999999
9.5679998 0.38600001 -1.73 0.029999999
9.573 0.417 -1.7309999 0.029999999
9.5839996 0.43200001 -1.733 0.029999999
9.5939999 0.463 -1.735 0.029999999
9.6049995 0.49399999 -1.738 0.029999999
9.5970001 0.52399999 -1.7359999 0.029999999
9.6129999 0.55500001 -1.74 0.029999999
9.6269999 0.58600003 -1.743 0.029999999
9.6110001 0.61500001 -1.74 0.029999999
9.632 0.63200003 -1.744 0.029999999
9.6280003 0.662 -1.744 0.029999999
9.6379995 0.69300002 -1.7460001 0.029999999
9.6409998 0.72399998 -1.747 0.029999999
9.6450005 0.755 -1.749 0.039999999
9.6440001 0.78500003 -1.749 0.039999999
9.6689997 0.81800002 -1.7539999 0.07
9.6639996 0.833 -1.753 0.039999999
9.6789999 0.86500001 -1.757 0.07
9.6739998 0.89499998 -1.757 0.039999999
9.665 0.92500001 -1.755 0.07
9.684 0.95700002 -1.76 0.039999999
9.6890001 0.98799998 -1.761 0.079999998
9.6739998 1.018 -1.7589999 0.15000001
9.6739998 1.033 -1.7589999 0.039999999
9.6730003 1.064 -1.76 0.079999998
9.691 1.096 -1.7640001 0.039999999
9.6870003 1.127 -1.7640001 0.079999998
9.7030001 1.16 -1.768 0.079999998
9.6879997 1.189 -1.765 0
9.6820002 1.219 -1.765 0
9.6669998 1.232 -1.762 0
9.7390003 1.273 -1.777 0
9.717 1.301 -1.774 0.02
9.7010002 1.33 -1.771 0.029999999
9.691 1.36 -1.77 0.07
9.7010002 1.392 -1.773 0.039999999
9.6960001 1.4220001 -1.773 0.07
9.698 1.438 -1.774 0.039999999
9.7069998 1.471 -1.776 0.039999999
9.7119999 1.503 -1.778 0.07
9.7130003 1.534 -1.779 0.039999999
9.7139997 1.566 -1.78 0.07
9.6969995 1.594 -1.778 0.039999999
9.71 1.628 -1.7819999 0.07
9.7010002 1.642 -1.78 0.039999999
9.71 1.675 -1.783 0.07
9.7019997 1.705 -1.783 0.039999999
9.7030001 1.7359999 -1.784 0
9.7069998 1.7690001 -1.786 0
9.6969995 1.799 -1.785 0
9.7030001 1.831 -1.7869999 0.059999999
9.6999998 1.846 -1.7869999 0.039999999
9.71 1.88 -1.79 0
9.6890001 1.9069999 -1.7869999 0
9.6899996 1.939 -1.789 0
9.6879997 1.971 -1.79 0
9.6820002 2.0009999 -1.79 0
9.6890001 2.0339999 -1.7920001 0
9.6890001 2.05 -1.793 0
9.6829996 2.0810001 -1.793 0
9.6859999 2.1129999 -1.795 0
9.6750002 2.1429999 -1.794 0
9.6879997 2.178 -1.798 0
9.6809998 2.2079999 -1.798 0
9.6829996 2.2409999 -1.8 0
9.71 2.263 -1.806 0
9.6689997 2.2850001 -1.799 0
9.6660004 2.3169999 -1.8 0
9.6680002 2.349 -1.802 0
9.6829996 2.385 -1.806 0
9.6780005 2.4159999 -1.807 0.02
9.6809998 2.45 -1.809 0.029999999
9.6700001 2.4630001 -1.807 0.029999999
9.6639996 2.494 -1.808 0.029999999
9.6669998 2.527 -1.8099999 0.029999999
9.6669998 2.559 -1.812 0.029999999
9.6700001 2.5929999 -1.814 0.029999999
9.6719999 2.6259999 -1.816 0.039999999
9.6520004 2.6530001 -1.814 0.039999999
9.6590004 2.671 -1.816 0.039999999
9.6619997 2.7049999 -1.818 0.039999999
9.6610003 2.737 -1.8200001 0.029999999
9.6520004 2.7679999 -1.8200001 0.029999999
9.6610003 2.803 -1.823 0.039999999
9.6479998 2.832 -1.822 0.039999999
9.6789999 2.8740001 -1.83 0
9.6420002 2.8800001 -1.824 0
9.6269999 2.908 -1.823 0
9.6219997 2.9400001 -1.823 0
9.6450005 2.98 -1.83 0
9.691 3.0280001 -1.841 0
9.6800003 3.0580001 -1.841 0
9.6549997 3.0829999 -1.8380001 0
9.665 3.1029999 -1.841 0
9.6520004 3.1329999 -1.84 0
9.6809998 3.1760001 -1.848 0
9.6859999 3.211 -1.851 0
9.6829996 3.244 -1.853 0
9.6529999 3.2679999 -1.849 0
9.6739998 3.309 -1.855 0
9.6499996 3.3180001 -1.851 0
9.677 3.3610001 -1.859 0
9.6359997 3.381 -1.853 0
9.6440001 3.418 -1.857 0
9.6370001 3.4489999 -1.857 0
9.6470003 3.487 -1.8609999 0
9.6389999 3.5179999 -1.862 0
9.6450005 3.5380001 -1.864 0
9.6499996 3.5739999 -1.868 0
9.6440001 3.6070001 -1.869 0
9.6289997 3.635 -1.868 0
9.6269999 3.6689999 -1.87 0
9.6370001 3.7079999 -1.875 0
9.6330004 3.7409999 -1.876 0
9.6269999 3.756 -1.876 0
9.6190004 3.7880001 -1.877 0
9.6219997 3.8239999 -1.88 0
9.6440001 3.868 -1.887 0
9.6280003 3.8970001 -1.887 0
9.6210003 3.9289999 -1.888 0
9.6239996 3.9660001 -1.891 0
9.6049995 3.9749999 -1.888 0
9.6280003 4.0209999 -1.896 0
9.6190004 4.053 -1.896 0
9.6169996 4.0869999 -1.899 0
9.6040001 4.118 -1.899 0
9.5699997 4.138 -1.8940001 0
9.5439997 4.1630001 -1.891 0
9.5559998 4.1859999 -1.895 0
9.5550003 4.2210002 -1.898 0
9.5340004 4.2480001 -1.896 0
9.5299997 4.2820001 -1.898 0
9.5220003 4.3140001 -1.899 0
9.5100002 4.3449998 -1.9 0
9.5050001 4.3790002 -1.902 0
9.507 4.3979998 -1.904 0
9.4989996 4.4310002 -1.905 0
9.5039997 4.4699998 -1.909 0.059999999
9.4899998 4.4990001 -1.909 0.15000001
9.4849997 4.533 -1.911 0.039999999
9.4709997 4.5630002 -1.911 0.14
9.46 4.5949998 -1.9119999 0.22
9.4440002 4.605 -1.91 0.22
9.3780003 4.6100001 -1.899 0.20999999
9.3620005 4.638 -1.898 0.15000001
9.3369999 4.6620002 -1.896 0.2
9.2690001 4.665 -1.885 0.18000001
9.2180004 4.6750002 -1.877 0.090000004
9.1560001 4.6799998 -1.8660001 0.090000004
9.1210003 4.6799998 -1.86 0.090000004
9.0819998 4.6960001 -1.855 0.039999999
9.0550003 4.7179999 -1.852 0
9.04 4.7459998 -1.852 0
9.1190004 4.8249998 -1.873 0
9.2679996 4.941 -1.909 0.050000001
9.3920002 5.046 -1.9400001 0.11
9.5600004 5.1560001 -1.979 0.23999999
9.5349998 5.1820002 -1.977 0.22
9.5979996 5.2550001 -1.994 0.27000001
9.5699997 5.2789998 -1.9910001 0.23
9.6059999 5.3379998 -2.003 0.28
9.5979996 5.3730001 -2.0050001 0.20999999
9.7040005 5.473 -2.033 0.11
9.6780005 5.4790001 -2.029 0.17
9.7089996 5.5370002 -2.039 0.22
9.7659998 5.6100001 -2.056 0.18000001
9.7860003 5.6630001 -2.0639999 0.18000001
9.802 5.7129998 -2.072 0.16
9.809 5.7589998 -2.0780001 0.18000001
9.7980003 5.7729998 -2.0769999 0.090000004
9.7840004 5.8060002 -2.0780001 0.079999998
9.8009996 5.8579998 -2.086 0.15000001
9.7869997 5.8920002 -2.0869999 0.039999999
9.7639999 5.9190001 -2.086 0.13
9.7799997 5.9720001 -2.0940001 0.050000001
9.7449999 5.9920001 -2.0899999 0.15000001
9.757 6.0209999 -2.095 0.19
9.7600002 6.0650001 -2.0999999 0.18000001
9.7299995 6.0890002 -2.098 0.090000004
9.7150002 6.1220002 -2.099 0.15000001
9.6999998 6.1560001 -2.0999999 0.23
9.6459999 6.164 -2.092 0.20999999
9.5900002 6.171 -2.0829999 0.28999999
9.5710001 6.2010002 -2.0829999 0.19
9.5939999 6.237 -2.0910001 0.27000001
9.573 6.2659998 -2.0910001 0.20999999
9.54 6.2880001 -2.0880001 0.14
9.5430002 6.3330002 -2.0929999 0.28
9.5150003 6.3569999 -2.0910001 0.23
9.4759998 6.3740001 -2.086 0.18000001
9.4639997 6.4089999 -2.0880001 0.27000001
9.441 6.415 -2.085 0.23
9.4029999 6.4330001 -2.0810001 0.2
9.3839998 6.4629998 -2.082 0.13
9.3430004 6.4780002 -2.0769999 0.18000001
9.2980003 6.4899998 -2.0710001 0.22
9.2360001 6.4899998 -2.0610001 0.18000001
9.2010002 6.5089998 -2.0580001 0.090000004
9.1520004 6.4959998 -2.0480001 0.079999998
9.1000004 6.5019999 -2.0409999 0.090000004
9.0240002 6.4899998 -2.0280001 0.15000001
8.9809999 6.5019999 -2.0220001 0.090000004
8.9160004 6.4980001 -2.0120001 0.090000004
8.868 6.5050001 -2.0050001 0.090000004
8.8210001 6.4920001 -1.9960001 0.090000004
8.7740002 6.5 -1.99 0.090000004
8.7119999 6.4970002 -1.98 0.090000004
8.6540003 6.4959998 -1.971 0
8.6140003 6.507 -1.966 0
8.6149998 6.5510001 -1.971 0
9.2869997 7.1110001 -2.1400001 0
9.3809996 7.2069998 -2.1659999 0.02
9.3509998 7.23 -2.164 0.13
9.3219995 7.2550001 -2.1630001 0.090000004
9.3249998 7.3049998 -2.1689999 0.090000004
9.2620001 7.302 -2.1589999 0.14
9.2629995 7.3499999 -2.165 0.050000001
9.2460003 7.3839998 -2.1659999 0.16
9.2309999 7.3959999 -2.1659999 0.050000001
9.2110004 7.427 -2.1659999 0.16
9.1870003 7.4559999 -2.1659999 0.1
9.1520004 7.4749999 -2.1630001 0.14
9.1190004 7.4959998 -2.161 0.18000001
9.1000004 7.5289998 -2.1619999 0.19
9.0780001 7.5580001 -2.1630001 0.20999999
9.066 7.573 -2.1630001 0.17
9.0570002 7.6139998 -2.1659999 0.17
9.026 7.6360002 -2.164 0.16
8.9700003 7.6370001 -2.1559999 0.039999999
8.9399996 7.6599998 -2.155 0.14
8.9280005 7.6989999 -2.158 0.050000001
8.8889999 7.7140002 -2.154 0.16
8.8900003 7.7389998 -2.158 0.19
8.8760004 7.776 -2.1600001 0.090000004
8.8100004 7.7680001 -2.1500001 0.15000001
8.7639999 7.776 -2.1440001 0.20999999
8.7469997 7.8099999 -2.1459999 0.050000001
8.7250004 7.8400002 -2.1470001 0.15000001
8.7110004 7.8769999 -2.1489999 0.2
8.6949997 7.9120002 -2.151 0.34999999
8.6890001 7.9320002 -2.1530001 0.13
8.6239996 7.9219999 -2.1429999 0.13
8.5860004 7.9369998 -2.1389999 0.23999999
8.5760002 7.9770002 -2.1429999 0.23
8.5220003 7.9770002 -2.1359999 0.1
8.474 7.9829998 -2.1289999 0.19
8.441 7.9770002 -2.1240001 0
8.3249998 7.9169998 -2.0999999 0
8.323 7.9650002 -2.1059999 0.059999999
8.3140001 8.0059996 -2.1099999 0.15000001
8.283 8.026 -2.109 0.17
8.2410002 8.0360003 -2.1040001 0.17
8.2010002 8.0480003 -2.0999999 0.17
8.1730003 8.0459995 -2.096 0.17
8.1190004 8.0419998 -2.0880001 0.17
8.0690002 8.0430002 -2.0810001 0.17
8.0279999 8.0530005 -2.0769999 0.17
7.9770002 8.0509996 -2.0699999 0.17
7.9330001 8.0579996 -2.0650001 0.16
7.8850002 8.059 -2.0580001 0.16
7.8520002 8.0500002 -2.053 0.17
7.8109999 8.059 -2.0480001 0.16
7.763 8.0600004 -2.0420001 0.16
7.7090001 8.0539999 -2.0339999 0.16
7.6570001 8.0500002 -2.026 0.17
7.6160002 8.0579996 -2.0220001 0.18000001
7.5630002 8.052 -2.0139999 0.18000001
7.5380001 8.0509996 -2.0109999 0.18000001
7.4850001 8.0439997 -2.003 0.17
7.4380002 8.0450001 -1.997 0.039999999
7.4219999 8.0780001 -1.999 0
7.369 8.0710001 -1.9910001 0
7.3540001 8.1059999 -1.994 0
7.4219999 8.2320004 -2.0209999 0
7.724 8.5970001 -2.1129999 0
7.7979999 8.7340002 -2.142 0.029999999
7.8049998 8.7980003 -2.1530001 0.039999999
7.7420001 8.7810001 -2.142 0.15000001
7.7189999 8.8109999 -2.1440001 0.2
7.6849999 8.8280001 -2.142 0.18000001
7.6529999 8.8479996 -2.1400001 0.25
7.6420002 8.8629999 -2.141 0.23
7.6079998 8.8789997 -2.1389999 0.31
7.5669999 8.8879995 -2.1359999 0.28999999
7.5229998 8.8920002 -2.131 0.28
7.4959998 8.9180002 -2.131 0.25
7.46 8.9320002 -2.1289999 0.28
7.421 8.9420004 -2.125 0.28
7.4070001 8.9530001 -2.125 0.31
7.3649998 8.96 -2.1210001 0.28999999
7.3099999 8.9490004 -2.1129999 0.28
7.2909999 8.9849997 -2.1159999 0.30000001
7.2989998 9.052 -2.1270001 0.28
7.2750001 9.0810003 -2.128 0.27000001
7.2490001 9.1070004 -2.1289999 0.30000001
7.224 9.1040001 -2.1259999 0.30000001
7.2059999 9.1409998 -2.1289999 0.28
7.152 9.1309996 -2.1210001 0.2
7.132 9.1639996 -2.1240001 0.28
7.1040001 9.1879997 -2.1240001 0.090000004
7.0640001 9.1960001 -2.1210001 0.16
7.04 9.2250004 -2.122 0.23
7.0279999 9.2390003 -2.1229999 0.2
7.006 9.2700005 -2.125 0.12
6.9770002 9.2919998 -2.125 0.2
6.948 9.3140001 -2.125 0.11
6.9070001 9.3199997 -2.1210001 0.090000004
6.822 9.2659998 -2.1029999 0.039999999
6.7449999 9.2220001 -2.0880001 0.07
6.6919999 9.1789999 -2.075 0.039999999
6.6329999 9.158 -2.0650001 0.07
6.5710001 9.1330004 -2.0539999 0.079999998
6.526 9.1309996 -2.0480001 0.079999998
6.4819999 9.1289997 -2.043 0.090000004
6.4429998 9.1350002 -2.04 0.079999998
6.3979998 9.132 -2.0339999 0.039999999
6.381 9.1379995 -2.033 0.07
6.3270001 9.1219997 -2.0250001 0.11
3.777 5.4640002 -1.1619999 0.16
3.7839999 5.5120001 -1.17 0.28999999
3.78 5.5430002 -1.175 0.55000001
3.779 5.579 -1.1799999 0.73000002
3.773 5.6069999 -1.184 0.75
3.773 5.6469998 -1.1900001 0.56
3.7739999 5.6680002 -1.194 0.11
6.1750002 9.3669996 -2.0480001 0.14
6.1430001 9.382 -2.0469999 0.039999999
6.1009998 9.3830004 -2.0420001 0.07
6.0640001 9.3900003 -2.04 0.039999999
6.0300002 9.401 -2.0380001 0.07
5.9899998 9.4029999 -2.0339999 0.039999999
5.9770002 9.4160004 -2.0350001 0.07
5.9439998 9.4300003 -2.0339999 0.079999998
5.9169998 9.4519997 -2.0339999 0.16
5.8860002 9.4689999 -2.0339999 0.16
5.868 9.507 -2.039 0.16
5.8439999 9.5340004 -2.04 0.16
5.8189998 9.5609999 -2.0420001 0.039999999
5.8070002 9.5749998 -2.0439999 0.07
5.7750001 9.5900002 -2.043 0.15000001
5.7459998 9.6110001 -2.0439999 0.039999999
5.7160001 9.6289997 -2.0439999 0.07
5.6919999 9.6569996 -2.046 0.15000001
5.6669998 9.6850004 -2.0480001 0.16
5.6370001 9.7030001 -2.0480001 0.17
5.6209998 9.71 -2.0480001 0.16
5.5939999 9.7340002 -2.049 0.039999999
5.5770001 9.776 -2.0550001 0.079999998
5.5440001 9.79 -2.0539999 0.039999999
5.5209999 9.8210001 -2.0569999 0.07
5.487 9.8310003 -2.0550001 0.079999998
5.4580002 9.8520002 -2.056 0.090000004
5.4369998 9.8520002 -2.0539999 0.090000004
5.4109998 9.8780003 -2.056 0.079999998
5.3670001 9.8699999 -2.0510001 0.079999998
5.3340001 9.8839998 -2.05 0.079999998
5.3049998 9.9040003 -2.0510001 0.079999998
5.2690001 9.9119997 -2.049 0.039999999
5.2329998 9.9200001 -2.0469999 0
5.2319999 9.9560003 -2.053 0
5.2049999 9.9790001 -2.0550001 0.059999999
5.1760001 10.001 -2.056 0.15000001
5.1360002 10.001 -2.052 0.16
5.105 10.017 -2.052 0.050000001
5.086 10.058 -2.0580001 0
5.1589999 10.283 -2.1029999 0
5.1919999 10.391 -2.125 0
5.1869998 10.464 -2.1370001 0
5.1560001 10.484 -2.1370001 0
5.1430001 10.54 -2.1459999 0
5.0910001 10.517 -2.138 0
5.046 10.509 -2.132 0
5.0450001 10.592 -2.1470001 0
5.0430002 10.632 -2.154 0
5.0120001 10.651 -2.155 0
4.9819999 10.674 -2.1559999 0
4.849 10.475 -2.1099999 0
4.8829999 10.635 -2.141 0
4.8860002 10.733 -2.1589999 0
4.8569999 10.757 -2.161 0
4.8369999 10.759 -2.1589999 0
4.7839999 10.73 -2.1500001 0
4.6240001 10.459 -2.0899999 0
4.4790001 10.216 -2.0350001 0
4.6440001 10.686 -2.131 0
4.6820002 10.867 -2.1659999 0
4.6469998 10.879 -2.1659999 0
4.6329999 10.894 -2.1670001 0
4.5949998 10.899 -2.1659999 0
4.5630002 10.919 -2.1670001 0
4.5310001 10.939 -2.168 0
4.4980001 10.957 -2.1689999 0
4.4640002 10.973 -2.1689999 0
4.428 10.983 -2.168 0
4.3959999 11.004 -2.1700001 0
4.382 11.018 -2.171 0
4.349 11.037 -2.1719999 0
4.3150001 11.051 -2.1719999 0
4.2789998 11.061 -2.1719999 0
4.2480001 11.085 -2.174 0
4.21 11.091 -2.1719999 0
4.1760001 11.106 -2.1730001 0
4.1620002 11.122 -2.175 0
4.1259999 11.131 -2.174 0
4.098 11.163 -2.178 0
4.0609999 11.172 -2.177 0
4.0250001 11.181 -2.1760001 0
3.9960001 11.21 -2.1800001 0
3.96 11.221 -2.1789999 0
3.9419999 11.227 -2.1789999 0
3.904 11.23 -2.177 0
3.872 11.253 -2.1800001 0
3.839 11.271 -2.181 0
3.8010001 11.277 -2.1800001 0
3.77 11.302 -2.1819999 0
3.734 11.312 -2.1819999 0
3.717 11.32 -2.1819999 0
3.684 11.339 -2.184 0
3.648 11.351 -2.184 0
3.612 11.36 -2.1830001 0
3.5810001 11.386 -2.1860001 0
3.546 11.401 -2.187 0
3.5120001 11.418 -2.188 0
3.4909999 11.412 -2.1860001 0
3.461 11.446 -2.191 0
3.4219999 11.443 -2.188 0
3.3859999 11.456 -2.188 0
3.3529999 11.476 -2.1900001 0
3.3150001 11.481 -2.1889999 0
3.28 11.493 -2.1900001 0
3.2679999 11.521 -2.194 0
3.23 11.524 -2.1930001 0
3.1919999 11.528 -2.191 0
3.1559999 11.538 -2.191 0
3.1240001 11.565 -2.1949999 0
3.0910001 11.588 -2.197 0
3.0539999 11.594 -2.197 0
3.0179999 11.605 -2.197 0
2.9960001 11.597 -2.194 0
2.961 11.61 -2.1949999 0
2.924 11.619 -2.1949999 0
2.892 11.645 -2.1989999 0
2.8529999 11.647 -2.197 0
2.8169999 11.658 -2.197 0
2.7969999 11.654 -2.1960001 0
2.7609999 11.667 -2.197 0
2.727 11.687 -2.1989999 0
2.6889999 11.69 -2.198 0
2.652 11.696 -2.197 0
2.6159999 11.708 -2.198 0
2.5799999 11.718 -2.1989999 0
2.562 11.722 -2.1989999 0
2.5209999 11.715 -2.1960001 0
2.487 11.733 -2.197 0
2.447 11.725 -2.194 0
2.4130001 11.75 -2.198 0
2.3789999 11.769 -2.2 0
2.3410001 11.773 -2.1989999 0
2.302 11.768 -2.197 0
2.2850001 11.78 -2.1989999 0
2.247 11.781 -2.197 0
2.211 11.796 -2.1989999 0
2.174 11.801 -2.1989999 0
2.135 11.802 -2.197 0
2.098 11.808 -2.197 0
2.063 11.822 -2.1989999 0
2.0420001 11.816 -2.197 0
2.0039999 11.813 -2.1949999 0
1.971 11.844 -2.2 0
1.9299999 11.831 -2.1960001 0
1.895 11.85 -2.1989999 0
1.857 11.849 -2.197 0
1.8200001 11.856 -2.198 0
1.801 11.857 -2.197 0
1.765 11.874 -2.2 0
1.726 11.864 -2.197 0
1.689 11.874 -2.197 0
1.653 11.889 -2.1989999 0
1.613 11.876 -2.1960001 0
1.5779999 11.897 -2.1989999 0
1.5599999 11.903 -2.2 0
1.521 11.894 -2.197 0
1.483 11.899 -2.197 0
1.447 11.91 -2.198 0
1.408 11.9 -2.1960001 0
1.3710001 11.909 -2.1960001 0
1.335 11.925 -2.1989999 0
1.313 11.901 -2.194 0
1.277 11.917 -2.1960001 0
1.239 11.913 -2.194 0
1.199 11.898 -2.191 0
1.163 11.915 -2.1930001 0
1.126 11.918 -2.1930001 0
1.086 11.897 -2.188 0
1.05 11.912 -2.191 0
1.031 11.915 -2.191 0
0.99400002 11.916 -2.191 0
0.95499998 11.902 -2.187 0
0.91799998 11.915 -2.1889999 0
0.88 11.91 -2.188 0
0.84299999 11.914 -2.188 0
0.80599999 11.931 -2.191 0
0.787 11.926 -2.1900001 0
0.75 11.928 -2.1900001 0
0.71200001 11.919 -2.187 0
0.67400002 11.925 -2.188 0
0.63700002 11.925 -2.188 0
0.60000002 11.933 -2.1889999 0
0.56199998 11.935 -2.1889999 0
0.54299998 11.936 -2.1889999 0
0.505 11.926 -2.1860001 0
0.46799999 11.923 -2.1860001 0
0.43099999 11.936 -2.188 0
0.39300001 11.938 -2.188 0
0.35499999 11.923 -2.1849999 0
0.31799999 11.942 -2.188 0
0.29899999 11.94 -2.188 0
0.26199999 11.941 -2.188 0
0.22400001 11.942 -2.188 0
0.18700001 11.941 -2.188 0
0.149 11.935 -2.1860001 0
0.112 11.924 -2.184 0
0.074000001 11.94 -2.187 0
0.056000002 11.916 -2.1830001 0
0.017999999 11.924 -2.184 0
-0.018999999 11.924 -2.184 0
-0.057 11.92 -2.1830001 0
-0.093999997 11.926 -2.1849999 0
-0.132 11.92 -2.1830001 0
-0.169 11.913 -2.1819999 0
-0.18799999 11.911 -2.1819999 0
-0.22499999 11.909 -2.1819999 0
-0.26199999 11.906 -2.181 0
-0.30000001 11.907 -2.1819999 0
-0.33700001 11.898 -2.1800001 0
-0.37400001 11.897 -2.1800001 0
-0.412 11.894 -2.1800001 0
-0.43000001 11.881 -2.177 0
-0.46700001 11.884 -2.178 0
-0.50599998 11.906 -2.1830001 0
-0.54299998 11.906 -2.1830001 0
-0.57999998 11.887 -2.1800001 0
-0.61799997 11.891 -2.181 0
-0.65499997 11.885 -2.1800001 0
-0.69099998 11.869 -2.177 0
-0.71100003 11.889 -2.1819999 0
-0.74699998 11.871 -2.178 0
-0.78500003 11.869 -2.178 0
-0.82200003 11.868 -2.1789999 0
-0.85900003 11.856 -2.177 0
-0.89600003 11.851 -2.177 0
-0.93400002 11.854 -2.178 0
-0.95099998 11.833 -2.174 0
-0.99000001 11.852 -2.178 0
-1.026 11.845 -2.177 0
-1.062 11.826 -2.174 0
-1.1 11.824 -2.175 0
-1.136 11.815 -2.174 0
-1.173 11.809 -2.1730001 0
-1.193 11.821 -2.1760001 0
-1.227 11.792 -2.171 0
-1.266 11.8 -2.1730001 0
-1.301 11.776 -2.1689999 0
-1.339 11.782 -2.171 0
-1.375 11.772 -2.1700001 0
-1.414 11.781 -2.1730001 0
-1.431 11.773 -2.1719999 0
-1.466 11.747 -2.1670001 0
-1.502 11.74 -2.1670001 0
-1.539 11.734 -2.1670001 0
-1.577 11.74 -2.1689999 0
-1.613 11.724 -2.1670001 0
-1.649 11.717 -2.1659999 0
-1.669 11.722 -2.168 0
-1.704 11.703 -2.165 0
-1.74 11.696 -2.165 0
-1.774 11.675 -2.1619999 0
-1.812 11.677 -2.1630001 0
-1.849 11.671 -2.1630001 0
-1.885 11.659 -2.1619999 0
-1.923 11.661 -2.164 0
-1.938 11.642 -2.161 0
-1.973 11.625 -2.158 0
-2.01 11.622 -2.1589999 0
-2.046 11.614 -2.1589999 0
-2.085 11.621 -2.161 0
-2.119 11.601 -2.1589999 0
-2.1570001 11.6 -2.1600001 0
-2.1700001 11.573 -2.155 0
-2.2079999 11.574 -2.1570001 0
-2.243 11.562 -2.1559999 0
-2.279 11.549 -2.155 0
-2.316 11.547 -2.1559999 0
-2.352 11.54 -2.1559999 0
-2.3840001 11.511 -2.151 0
-2.4030001 11.509 -2.152 0
-2.4400001 11.508 -2.1530001 0
-2.473 11.486 -2.1500001 0
-2.5109999 11.488 -2.152 0
-2.5469999 11.48 -2.152 0
-2.5810001 11.463 -2.1500001 0
-2.6199999 11.464 -2.152 0
-2.6340001 11.446 -2.1500001 0
-2.671 11.442 -2.1500001 0
-2.707 11.434 -2.1500001 0
-2.7390001 11.408 -2.1470001 0
-2.7780001 11.411 -2.1489999 0
-2.809 11.385 -2.1459999 0
-2.8469999 11.385 -2.148 0
-2.882 11.372 -2.1470001 0
-2.8989999 11.364 -2.1459999 0
-2.9360001 11.361 -2.1470001 0
-2.971 11.348 -2.1470001 0
-3.007 11.34 -2.1470001 0
-3.04 11.321 -2.145 0
-3.076 11.312 -2.145 0
-3.0899999 11.295 -2.1429999 0
-3.1270001 11.289 -2.1440001 0
-3.165 11.291 -2.1459999 0
-3.1949999 11.262 -2.142 0
-3.2320001 11.257 -2.1429999 0
-3.266 11.24 -2.142 0
-3.299 11.222 -2.1400001 0
-3.3180001 11.222 -2.141 0
-3.355 11.219 -2.1429999 0
-3.3859999 11.194 -2.1400001 0
-3.421 11.181 -2.1389999 0
-3.4579999 11.176 -2.1400001 0
-3.4849999 11.141 -2.1359999 0
-3.5250001 11.145 -2.1389999 0
-3.559 11.13 -2.138 0
-3.573 11.115 -2.1359999 0
-3.6040001 11.091 -2.1329999 0
-3.6429999 11.092 -2.1359999 0
-3.6719999 11.064 -2.132 0
-3.7060001 11.051 -2.132 0
-3.7409999 11.041 -2.132 0
-3.7739999 11.023 -2.131 0
-3.7880001 11.008 -2.1289999 0
-3.8210001 10.991 -2.128 0
-3.858 10.986 -2.1300001 0
-3.888 10.961 -2.1270001 0
-3.924 10.954 -2.128 0
-3.9579999 10.94 -2.128 0
-3.9920001 10.927 -2.128 0
-4.0100002 10.921 -2.128 0
-4.0380001 10.892 -2.125 0
-4.0770001 10.892 -2.1270001 0
-4.112 10.883 -2.128 0
-4.145 10.866 -2.1270001 0
-4.1799998 10.855 -2.128 0
-4.2129998 10.84 -2.1270001 0
-4.2290001 10.83 -2.1259999 0
-4.2610002 10.813 -2.1259999 0
-4.3000002 10.81 -2.128 0
-4.3299999 10.787 -2.1259999 0
-4.362 10.768 -2.125 0
-4.402 10.771 -2.128 0
-4.4289999 10.741 -2.125 0
-4.448 10.737 -2.1259999 0
-4.4879999 10.74 -2.1289999 0
-4.5170002 10.715 -2.1270001 0
-4.552 10.702 -2.1270001 0
-4.592 10.704 -2.131 0
-4.6149998 10.664 -2.125 0
-4.6560001 10.668 -2.1289999 0
-4.6869998 10.646 -2.128 0
-4.7020001 10.637 -2.1270001 0
-4.7399998 10.631 -2.1289999 0
-4.7709999 10.611 -2.128 0
-4.7979999 10.581 -2.125 0
-4.8400002 10.586 -2.1289999 0
-4.8720002 10.569 -2.1289999 0
-4.9050002 10.553 -2.1289999 0
-4.9289999 10.56 -2.132 0
-4.9559999 10.532 -2.1289999 0
-5.0029998 10.545 -2.135 0
-5.0320001 10.522 -2.1340001 0
-5.053 10.481 -2.128 0
-5.0900002 10.472 -2.1300001 0.059999999
-5.1290002 10.469 -2.132 0.039999999
-5.1529999 10.476 -2.1359999 0.07
-5.1830001 10.455 -2.135 0.039999999
-5.217 10.44 -2.135 0.07
-5.256 10.436 -2.138 0.039999999
-5.283 10.409 -2.1359999 0.07
-5.316 10.392 -2.1359999 0.039999999
-5.3530002 10.384 -2.1370001 0.07
-5.3660002 10.369 -2.1359999 0.039999999
-5.3969998 10.35 -2.1359999 0.07
-5.427 10.328 -2.1340001 0.039999999
-5.4569998 10.306 -2.1329999 0.07
-5.4949999 10.299 -2.1359999 0.039999999
-5.5279999 10.283 -2.1359999 0.07
-5.5549998 10.256 -2.1340001 0.039999999
-5.5879998 10.24 -2.1340001 0.07
-5.6009998 10.226 -2.1329999 0.039999999
-5.6290002 10.201 -2.131 0.07
-5.6589999 10.18 -2.131 0.039999999
-5.6859999 10.154 -2.1289999 0.07
-5.7129998 10.127 -2.1270001 0.039999999
-5.743 10.106 -2.1259999 0.07
-5.7529998 10.087 -2.1240001 0.039999999
-5.7810001 10.062 -2.122 0.07
-5.8109999 10.04 -2.1210001 0.079999998
-5.8460002 10.029 -2.1229999 0.15000001
-5.8740001 10.004 -2.1210001 0.16
-5.901 9.9779997 -2.1199999 0.16
-5.921 9.941 -2.1159999 0.039999999
-5.9460001 9.9119997 -2.1129999 0.07
-5.9640002 9.9060001 -2.1140001 0.039999999
-5.9860001 9.8730001 -2.1110001 0.07
-6.0089998 9.8400002 -2.108 0.039999999
-6.0310001 9.8079996 -2.105 0.07
-6.0539999 9.776 -2.102 0.039999999
-6.079 9.7480001 -2.0999999 0.07
-6.1020002 9.7180004 -2.0969999 0.15000001
-6.1139998 9.7010002 -2.096 0.039999999
-6.1259999 9.6540003 -2.089 0.07
-6.1589999 9.6400003 -2.0899999 0.039999999
-6.1900001 9.6199999 -2.0899999 0.07
-6.2049999 9.5780001 -2.085 0.039999999
-6.2319999 9.5530005 -2.0840001 0
-6.2589998 9.5290003 -2.0829999 0
-6.263 9.5019999 -2.079 0.059999999
-6.283 9.4680004 -2.075 0.039999999
-6.3039999 9.4350004 -2.072 0.07
-6.3270001 9.4060001 -2.0699999 0.039999999
-6.3499999 9.3760004 -2.0680001 0.07
-6.3740001 9.349 -2.066 0.039999999
-6.3850002 9.302 -2.0599999 0.07
-6.3979998 9.29 -2.0599999 0.039999999
-6.4219999 9.2620001 -2.0580001 0
-6.4450002 9.2340002 -2.056 0.059999999
-6.4710002 9.2089996 -2.0550001 0.039999999
-6.494 9.1800003 -2.053 0.07
-6.513 9.1450005 -2.049 0.039999999
-6.5450001 9.1300001 -2.05 0.07
-6.5489998 9.1049995 -2.0469999 0.039999999
-6.5799999 9.0880003 -2.0480001 0.07
-6.5970001 9.0509996 -2.0439999 0.039999999
-6.6240001 9.0290003 -2.0439999 0.07
-6.6440001 8.9969997 -2.0409999 0.039999999
-6.671 8.974 -2.04 0.07
-6.6999998 8.9549999 -2.0409999 0.039999999
-6.7199998 8.9230003 -2.0380001 0.039999999
-6.7259998 8.901 -2.036 0.07
-6.75 8.8760004 -2.0339999 0.039999999
-6.7670002 8.8400002 -2.0309999 0.07
-6.796 8.8210001 -2.0309999 0.039999999
-6.8280001 8.8039999 -2.033 0.07
-6.8509998 8.7779999 -2.0309999 0.039999999
-6.8850002 8.7639999 -2.033 0.07
