# .PCD v0.7 - Point Cloud Data file format
VERSION 0.7
FIELDS x y z intensity
SIZE 4 4 4 4
TYPE F F F F
COUNT 1 1 1 1
WIDTH 1449
HEIGHT 1
VIEWPOINT 0 0 0 1 0 0 0
POINTS 1449
DATA ascii
-2.2720001 -4.0700002 -1.76 0.40000001
-2.266 -4.0890002 -1.765 0.36000001
-2.2539999 -4.0970001 -1.766 0.36000001
-2.2449999 -4.0960002 -1.763 0.33000001
-2.227 -4.0949998 -1.76 0.34
-2.221 -4.1149998 -1.766 0.38
-2.2060001 -4.1170001 -1.763 0.36000001
-2.1919999 -4.1220002 -1.763 0.31
-2.178 -4.1279998 -1.762 0.34
-2.1619999 -4.1279998 -1.7589999 0.36000001
-2.155 -4.131 -1.7589999 0.34
-2.1530001 -4.1589999 -1.7690001 0.38
-2.1300001 -4.1459999 -1.76 0.36000001
-2.1159999 -4.151 -1.7589999 0.34999999
-2.1070001 -4.1659999 -1.763 0.31999999
-2.086 -4.1560001 -1.755 0.34999999
-2.079 -4.1739998 -1.76 0.36000001
-2.076 -4.1859999 -1.7640001 0.34
-2.0599999 -4.1859999 -1.761 0.38
-2.043 -4.1859999 -1.758 0.36000001
-2.0380001 -4.2090001 -1.766 0.31999999
-2.0190001 -4.2020001 -1.76 0.36000001
-2.0050001 -4.2080002 -1.76 0.34999999
-1.995 -4.2210002 -1.763 0.34
-1.9809999 -4.2069998 -1.755 0.38
-1.971 -4.2199998 -1.758 0.36000001
-1.961 -4.2350001 -1.762 0.34
-1.947 -4.2389998 -1.761 0.38
-1.931 -4.2389998 -1.758 0.36000001
-1.9170001 -4.2449999 -1.758 0.33000001
-1.903 -4.2470002 -1.757 0.34
-1.898 -4.2550001 -1.7589999 0.38
-1.888 -4.2680001 -1.762 0.34999999
-1.8710001 -4.2659998 -1.758 0.37
-1.8559999 -4.2680001 -1.757 0.34
-1.845 -4.2789998 -1.7589999 0.37
-1.83 -4.2810001 -1.757 0.34
-1.8150001 -4.2849998 -1.757 0.33000001
-1.8150001 -4.302 -1.763 0.41
-1.796 -4.296 -1.757 0.36000001
-1.784 -4.3049998 -1.7589999 0.34999999
-1.77 -4.309 -1.758 0.34
-1.7539999 -4.309 -1.756 0.37
-1.744 -4.323 -1.76 0.34999999
-1.733 -4.3150001 -1.755 0.37
-1.722 -4.3280001 -1.758 0.37
-1.707 -4.3299999 -1.757 0.36000001
-1.693 -4.3330002 -1.756 0.34
-1.683 -4.349 -1.76 0.36000001
-1.668 -4.3509998 -1.7589999 0.36000001
-1.653 -4.3530002 -1.757 0.36000001
-1.646 -4.3530002 -1.757 0.36000001
-1.63 -4.3520002 -1.7539999 0.34
-1.618 -4.362 -1.756 0.36000001
-1.605 -4.3699999 -1.757 0.37
-1.59 -4.3699999 -1.755 0.37
-1.577 -4.3769999 -1.756 0.36000001
-1.566 -4.3909998 -1.76 0.36000001
-1.548 -4.3850002 -1.755 0.34999999
-1.5420001 -4.3870001 -1.755 0.34
-1.527 -4.3909998 -1.7539999 0.37
-1.515 -4.3990002 -1.756 0.36000001
-1.5 -4.4000001 -1.7539999 0.37
-1.4859999 -4.4050002 -1.7539999 0.36000001
-1.47 -4.4039998 -1.752 0.36000001
-1.4579999 -4.414 -1.7539999 0.36000001
-1.452 -4.4200001 -1.756 0.34999999
-1.436 -4.4169998 -1.753 0.34999999
-1.4220001 -4.4219999 -1.753 0.36000001
-1.408 -4.4239998 -1.752 0.36000001
-1.395 -4.434 -1.7539999 0.41
-1.38 -4.4330001 -1.752 0.33000001
-1.3660001 -4.4369998 -1.752 0.38
-1.357 -4.434 -1.75 0.34999999
-1.344 -4.4400001 -1.751 0.34999999
-1.33 -4.4450002 -1.751 0.36000001
-1.3200001 -4.4629998 -1.757 0.38999999
-1.303 -4.4559999 -1.752 0.33000001
-1.289 -4.4590001 -1.751 0.36000001
-1.281 -4.4590001 -1.751 0.34999999
-1.2690001 -4.4699998 -1.7539999 0.34
-1.255 -4.4759998 -1.7539999 0.36000001
-1.239 -4.4710002 -1.751 0.34999999
-1.225 -4.4749999 -1.751 0.33000001
-1.212 -4.4840002 -1.753 0.36000001
-1.196 -4.48 -1.75 0.41
-1.183 -4.4860001 -1.751 0.38
-1.178 -4.4990001 -1.755 0.37
-1.1619999 -4.493 -1.751 0.36000001
-1.147 -4.493 -1.75 0.40000001
-1.132 -4.493 -1.748 0.33000001
-1.119 -4.5 -1.75 0.34
-1.107 -4.5149999 -1.7539999 0.36000001
-1.0930001 -4.5159998 -1.7539999 0.31
-1.084 -4.513 -1.751 0.38999999
-1.071 -4.52 -1.753 0.31
-1.056 -4.5209999 -1.752 0.36000001
-1.043 -4.5300002 -1.7539999 0.41999999
-1.029 -4.5310001 -1.7539999 0.37
-1.0140001 -4.5349998 -1.7539999 0.34999999
-1 -4.5359998 -1.753 0.33000001
-0.99299997 -4.539 -1.7539999 0.36000001
-0.97899997 -4.5440001 -1.7539999 0.38999999
-0.96399999 -4.5450001 -1.7539999 0.34
-0.95099998 -4.552 -1.755 0.38
-0.93400002 -4.5440001 -1.751 0.37
-0.92000002 -4.5469999 -1.751 0.38
-0.91600001 -4.5650001 -1.757 0.37
-0.89899999 -4.553 -1.751 0.36000001
-0.88499999 -4.5580001 -1.752 0.34
-0.87 -4.559 -1.751 0.38
-0.85399997 -4.5510001 -1.747 0.38
-0.84100002 -4.559 -1.749 0.37
-0.829 -4.5739999 -1.7539999 0.37
-0.81199998 -4.5619998 -1.748 0.36000001
-0.80500001 -4.5689998 -1.751 0.38
-0.792 -4.579 -1.7539999 0.38
-0.77499998 -4.566 -1.748 0.38
-0.76200002 -4.5739999 -1.75 0.37
-0.75 -4.5879998 -1.7539999 0.36000001
-0.73199999 -4.5700002 -1.7460001 0.36000001
-0.71799999 -4.5760002 -1.748 0.31
-0.71200001 -4.5840001 -1.751 0.38999999
-0.69700003 -4.5830002 -1.749 0.37
-0.68300003 -4.5869999 -1.75 0.36000001
-0.66900003 -4.5939999 -1.752 0.38
-0.65200001 -4.5780001 -1.745 0.33000001
-0.63800001 -4.5819998 -1.745 0.38999999
-0.62699997 -4.6040001 -1.7539999 0.37
-0.61799997 -4.5939999 -1.749 0.38
-0.60299999 -4.592 -1.748 0.37
-0.58899999 -4.598 -1.749 0.38
-0.57300001 -4.5910001 -1.745 0.36000001
-0.55900002 -4.592 -1.745 0.36000001
-0.546 -4.6069999 -1.751 0.34999999
-0.53600001 -4.5879998 -1.742 0.34999999
-0.52200001 -4.5929999 -1.744 0.34
-0.50999999 -4.6129999 -1.751 0.33000001
-0.493 -4.5960002 -1.744 0.41
-0.479 -4.598 -1.744 0.37
-0.46700001 -4.618 -1.751 0.37
-0.44999999 -4.6020002 -1.745 0.36000001
-0.44299999 -4.599 -1.743 0.38
-0.43000001 -4.6170001 -1.75 0.37
-0.414 -4.6059999 -1.745 0.34
-0.39899999 -4.6030002 -1.743 0.34
-0.38600001 -4.619 -1.749 0.36000001
-0.37099999 -4.6110001 -1.745 0.37
-0.35499999 -4.5999999 -1.74 0.36000001
-0.34999999 -4.6259999 -1.751 0.36000001
-0.33500001 -4.6160002 -1.7460001 0.38
-0.31900001 -4.6040001 -1.7410001 0.34999999
-0.30500001 -4.6110001 -1.743 0.34
-0.29100001 -4.6100001 -1.742 0.38999999
-0.27599999 -4.6139998 -1.744 0.37
-0.26199999 -4.6149998 -1.744 0.37
-0.25400001 -4.612 -1.742 0.37
-0.23999999 -4.6110001 -1.742 0.38
-0.226 -4.6149998 -1.743 0.34999999
-0.211 -4.612 -1.742 0.36000001
-0.197 -4.6220002 -1.745 0.34
-0.182 -4.6149998 -1.742 0.34999999
-0.167 -4.612 -1.7410001 0.34999999
-0.16 -4.6139998 -1.742 0.34999999
-0.145 -4.6110001 -1.74 0.34999999
-0.131 -4.6209998 -1.744 0.36000001
-0.117 -4.619 -1.743 0.34999999
-0.102 -4.6069999 -1.738 0.34999999
-0.088 -4.612 -1.74 0.31999999
-0.072999999 -4.6129999 -1.74 0.40000001
-0.066 -4.6170001 -1.742 0.37
-0.050999999 -4.6199999 -1.743 0.31
-0.037 -4.6110001 -1.739 0.36000001
-0.022 -4.6100001 -1.739 0.38999999
-0.0080000004 -4.6110001 -1.739 0.31
0.0070000002 -4.6149998 -1.7410001 0.40000001
0.021 -4.6079998 -1.738 0.31999999
0.028000001 -4.6149998 -1.7410001 0.38999999
0.043000001 -4.6079998 -1.738 0.33000001
0.057 -4.6149998 -1.7410001 0.43000001
0.071999997 -4.605 -1.737 0.33000001
0.086000003 -4.6090002 -1.739 0.31999999
0.101 -4.605 -1.737 0.38999999
0.115 -4.6040001 -1.737 0.34999999
0.123 -4.6100001 -1.739 0.37
0.13699999 -4.6040001 -1.737 0.38999999
0.152 -4.6129999 -1.7410001 0.36000001
0.167 -4.625 -1.7460001 0.31999999
0.18099999 -4.6170001 -1.743 0.41
0.19499999 -4.6110001 -1.7410001 0.34
0.211 -4.6339998 -1.751 0.38
0.21799999 -4.638 -1.752 0.23
0.23199999 -4.6259999 -1.748 0.23
0.24699999 -4.6290002 -1.749 0.090000004
0.26100001 -4.619 -1.745 0.039999999
0.27500001 -4.605 -1.74 0.039999999
0.289 -4.6079998 -1.742 0.07
0.303 -4.598 -1.738 0.16
0.31 -4.5949998 -1.737 0.23
0.324 -4.5799999 -1.7309999 0.25
0.34 -4.6030002 -1.7410001 0.2
0.35499999 -4.605 -1.742 0.25999999
0.36899999 -4.6059999 -1.743 0.22
0.384 -4.612 -1.7460001 0.20999999
0.398 -4.605 -1.744 0.1
0.405 -4.605 -1.744 0.18000001
0.41999999 -4.6020002 -1.743 0.11
0.43599999 -4.619 -1.751 0.19
0.449 -4.6009998 -1.744 0.11
0.46399999 -4.6100001 -1.748 0.18000001
0.477 -4.5890002 -1.74 0.23
0.48800001 -4.5580001 -1.728 0.2
0.49700001 -4.5679998 -1.733 0.27000001
0.51099998 -4.5700002 -1.734 0.28
0.52600002 -4.572 -1.7359999 0.28
0.54000002 -4.5679998 -1.735 0.22
0.55699998 -4.5869999 -1.743 0.30000001
0.57599998 -4.6259999 -1.76 0.22
0.58899999 -4.6090002 -1.7539999 0.050000001
0.597 -4.6139998 -1.756 0
0.61000001 -4.6030002 -1.752 0
0.62400001 -4.5929999 -1.749 0
2.1489999 -4.013 -1.716 0
2.151 -4.0009999 -1.712 0
2.1570001 -3.983 -1.707 0.02
2.1730001 -3.983 -1.71 0.13
2.197 -3.997 -1.719 0.2
2.2 -3.9719999 -1.711 0.27000001
2.2119999 -3.964 -1.71 0.30000001
2.227 -3.9619999 -1.7130001 0.28999999
2.2279999 -3.95 -1.709 0.34999999
2.2390001 -3.9400001 -1.707 0.31999999
2.26 -3.947 -1.714 0.36000001
2.26 -3.9189999 -1.704 0.34
2.2739999 -3.915 -1.706 0.36000001
2.2880001 -3.911 -1.707 0.34
2.296 -3.8959999 -1.704 0.34
2.3050001 -3.8970001 -1.706 0.34
2.322 -3.898 -1.71 0.37
2.326 -3.878 -1.704 0.34999999
2.3410001 -3.8759999 -1.706 0.34
2.358 -3.8759999 -1.71 0.38999999
2.368 -3.8640001 -1.707 0.38
2.3759999 -3.8499999 -1.704 0.37
2.385 -3.8510001 -1.707 0.34
2.3929999 -3.8369999 -1.704 0.38
2.4030001 -3.8269999 -1.702 0.36000001
2.4200001 -3.8269999 -1.706 0.37
2.4260001 -3.8099999 -1.701 0.34999999
2.4360001 -3.799 -1.7 0.37
2.4549999 -3.802 -1.705 0.36000001
2.4549999 -3.789 -1.701 0.36000001
2.467 -3.7809999 -1.701 0.31
2.4849999 -3.783 -1.705 0.38999999
2.4879999 -3.7609999 -1.698 0.38
2.4990001 -3.753 -1.698 0.37
2.5179999 -3.756 -1.704 0.30000001
2.5239999 -3.7390001 -1.699 0.41
2.533 -3.74 -1.701 0.37
2.5450001 -3.7320001 -1.701 0.36000001
2.549 -3.7130001 -1.696 0.34
2.5639999 -3.71 -1.698 0.38999999
2.5810001 -3.7090001 -1.702 0.37
2.5869999 -3.6930001 -1.698 0.38
2.5929999 -3.678 -1.6950001 0.37
2.605 -3.681 -1.698 0.37
2.6140001 -3.6700001 -1.697 0.37
2.6300001 -3.668 -1.7 0.37
2.6429999 -3.6619999 -1.701 0.37
2.6440001 -3.6389999 -1.694 0.38
2.6570001 -3.632 -1.6950001 0.37
2.6730001 -3.631 -1.698 0.33000001
2.675 -3.6210001 -1.6950001 0.38999999
2.691 -3.619 -1.698 0.33000001
2.7 -3.6070001 -1.697 0.38999999
2.71 -3.5969999 -1.696 0.37
2.7160001 -3.5810001 -1.692 0.38
2.7349999 -3.5829999 -1.698 0.37
2.7390001 -3.566 -1.693 0.37
2.7460001 -3.563 -1.694 0.38
2.7579999 -3.556 -1.6950001 0.36000001
2.766 -3.543 -1.692 0.37
2.7780001 -3.5350001 -1.693 0.37
2.7950001 -3.5339999 -1.697 0.36000001
2.7980001 -3.5150001 -1.692 0.36000001
2.8080001 -3.5050001 -1.691 0.34
2.8180001 -3.506 -1.694 0.34999999
2.8280001 -3.4960001 -1.693 0.37
2.8399999 -3.4879999 -1.694 0.34999999
2.8510001 -3.4790001 -1.694 0.27000001
2.8610001 -3.4690001 -1.693 0.44
2.868 -3.4560001 -1.691 0.37
2.8870001 -3.457 -1.696 0.34999999
2.8889999 -3.448 -1.694 0.38
2.902 -3.4419999 -1.6950001 0.36000001
2.9119999 -3.431 -1.6950001 0.38
2.9170001 -3.415 -1.691 0.38
2.9260001 -3.404 -1.6900001 0.38
2.9430001 -3.402 -1.694 0.31
2.951 -3.3900001 -1.692 0.38999999
2.954 -3.382 -1.691 0.36000001
2.9649999 -3.3729999 -1.691 0.33000001
2.9760001 -3.365 -1.692 0.41
2.983 -3.352 -1.689 0.33000001
2.9979999 -3.346 -1.692 0.40000001
3.0009999 -3.329 -1.687 0.37
3.003 -3.3210001 -1.686 0.36000001
3.0250001 -3.3239999 -1.692 0.34
3.029 -3.3080001 -1.689 0.36000001
3.0409999 -3.3 -1.689 0.38
3.052 -3.2909999 -1.6900001 0.38
3.053 -3.2709999 -1.684 0.38
3.0650001 -3.2639999 -1.686 0.37
3.0829999 -3.263 -1.6900001 0.34
3.0869999 -3.256 -1.689 0.40000001
3.0940001 -3.243 -1.687 0.36000001
3.102 -3.2309999 -1.686 0.31
3.1040001 -3.2119999 -1.681 0.38999999
3.119 -3.2079999 -1.684 0.34
3.131 -3.201 -1.686 0.38
3.1389999 -3.1989999 -1.687 0.36000001
3.141 -3.181 -1.683 0.33000001
3.158 -3.177 -1.686 0.40000001
3.1600001 -3.1600001 -1.682 0.31
3.175 -3.155 -1.6849999 0.38999999
3.188 -3.148 -1.686 0.31
3.191 -3.131 -1.683 0.38999999
3.198 -3.1289999 -1.684 0.38
3.2060001 -3.1159999 -1.683 0.31999999
3.214 -3.1040001 -1.682 0.34999999
3.2249999 -3.096 -1.683 0.37
3.2379999 -3.0880001 -1.684 0.34
3.2390001 -3.0699999 -1.6799999 0.36000001
3.2539999 -3.0650001 -1.683 0.38
3.256 -3.0569999 -1.681 0.37
3.266 -3.0469999 -1.681 0.38999999
3.2780001 -3.039 -1.683 0.28999999
3.2850001 -3.027 -1.681 0.41
3.2939999 -3.016 -1.681 0.37
3.3010001 -3.003 -1.6799999 0.37
3.319 -3.0009999 -1.684 0.38
3.3180001 -2.99 -1.681 0.36000001
3.3269999 -2.98 -1.681 0.31
3.3369999 -2.9690001 -1.681 0.38999999
3.3429999 -2.9560001 -1.6799999 0.38
3.358 -2.951 -1.683 0.36000001
3.3740001 -2.9460001 -1.686 0.37
3.365 -2.9200001 -1.677 0.37
3.3740001 -2.918 -1.679 0.36000001
3.388 -2.911 -1.681 0.38
3.392 -2.8970001 -1.679 0.37
3.404 -2.8889999 -1.6799999 0.36000001
3.4189999 -2.8829999 -1.683 0.37
3.4170001 -2.8629999 -1.677 0.31999999
3.4260001 -2.852 -1.677 0.38999999
3.4330001 -2.849 -1.679 0.36000001
3.4389999 -2.836 -1.677 0.34
3.447 -2.8239999 -1.677 0.36000001
3.457 -2.8139999 -1.677 0.34
3.4630001 -2.8010001 -1.676 0.34
3.47 -2.789 -1.675 0.36000001
3.4890001 -2.786 -1.6799999 0.34999999
3.4820001 -2.7709999 -1.674 0.34
3.493 -2.7620001 -1.676 0.36000001
3.5020001 -2.7509999 -1.676 0.34
3.4990001 -2.7309999 -1.67 0.36000001
3.5150001 -2.7260001 -1.674 0.34
3.529 -2.72 -1.677 0.38
3.5309999 -2.7030001 -1.673 0.36000001
3.533 -2.6960001 -1.6720001 0.37
3.5539999 -2.694 -1.678 0.38
3.5550001 -2.677 -1.674 0.36000001
3.5669999 -2.6689999 -1.677 0.31999999
3.5710001 -2.655 -1.674 0.40000001
3.5739999 -2.6389999 -1.671 0.36000001
3.5869999 -2.631 -1.674 0.37
3.5940001 -2.628 -1.675 0.36000001
3.5910001 -2.609 -1.67 0.34
3.612 -2.6059999 -1.676 0.36000001
3.6170001 -2.5929999 -1.674 0.36000001
3.6129999 -2.573 -1.668 0.34999999
3.628 -2.5669999 -1.6720001 0.34
3.6459999 -2.562 -1.677 0.36000001
3.6370001 -2.5469999 -1.671 0.36000001
3.648 -2.5380001 -1.6720001 0.34999999
3.658 -2.5280001 -1.673 0.34
3.6659999 -2.516 -1.673 0.34
3.674 -2.5050001 -1.673 0.34
3.6819999 -2.493 -1.673 0.31999999
3.6800001 -2.4749999 -1.668 0.38999999
3.6930001 -2.4760001 -1.673 0.36000001
3.7 -2.4630001 -1.6720001 0.34
3.704 -2.4489999 -1.671 0.34999999
3.7160001 -2.441 -1.673 0.34
3.7260001 -2.4300001 -1.674 0.36000001
3.73 -2.4159999 -1.6720001 0.36000001
3.7320001 -2.401 -1.669 0.34
3.7449999 -2.401 -1.674 0.34
3.7509999 -2.388 -1.673 0.34
3.757 -2.375 -1.6720001 0.34999999
3.7579999 -2.359 -1.669 0.37
3.7639999 -2.3469999 -1.668 0.33000001
3.7739999 -2.3369999 -1.67 0.34999999
3.7780001 -2.323 -1.668 0.34
3.79 -2.322 -1.6720001 0.40000001
3.789 -2.3050001 -1.668 0.31999999
3.8010001 -2.296 -1.671 0.34
3.8039999 -2.2809999 -1.668 0.34
3.8150001 -2.2720001 -1.671 0.37
3.819 -2.2579999 -1.669 0.34
3.8280001 -2.247 -1.67 0.34
3.832 -2.2409999 -1.67 0.36000001
3.8340001 -2.2260001 -1.668 0.34999999
3.842 -2.2149999 -1.668 0.34
3.8529999 -2.2049999 -1.67 0.36000001
3.8559999 -2.191 -1.668 0.37
3.8599999 -2.177 -1.6670001 0.33000001
3.868 -2.1659999 -1.668 0.34999999
3.872 -2.1600001 -1.668 0.36000001
3.8800001 -2.148 -1.668 0.34
3.888 -2.1370001 -1.669 0.37
3.895 -2.125 -1.669 0.38
3.9000001 -2.112 -1.668 0.37
3.905 -2.099 -1.668 0.36000001
3.908 -2.085 -1.666 0.37
3.9219999 -2.0840001 -1.671 0.38
3.9200001 -2.0669999 -1.6670001 0.34
3.9260001 -2.0550001 -1.6670001 0.34
3.9289999 -2.0409999 -1.665 0.34999999
3.944 -2.033 -1.669 0.37
3.9389999 -2.0139999 -1.664 0.33000001
3.9549999 -2.007 -1.668 0.34999999
3.9519999 -1.997 -1.665 0.36000001
3.9660001 -1.989 -1.669 0.36000001
3.971 -1.976 -1.668 0.34
3.9719999 -1.961 -1.666 0.34999999
3.983 -1.951 -1.668 0.34
3.9879999 -1.937 -1.668 0.38999999
3.9949999 -1.926 -1.668 0.33000001
3.997 -1.919 -1.668 0.37
4.0029998 -1.906 -1.668 0.31999999
4.0050001 -1.892 -1.666 0.34
4.006 -1.877 -1.664 0.37
4.0190001 -1.867 -1.6670001 0.33000001
4.0229998 -1.854 -1.666 0.38
4.0300002 -1.842 -1.6670001 0.31999999
4.0370002 -1.837 -1.668 0.36000001
4.0370002 -1.822 -1.666 0.34
4.0359998 -1.807 -1.663 0.34
4.0489998 -1.7970001 -1.666 0.37
4.0510001 -1.783 -1.665 0.34999999
4.0679998 -1.775 -1.67 0.38
4.0609999 -1.7640001 -1.665 0.31999999
4.0650001 -1.751 -1.665 0.36000001
4.0689998 -1.737 -1.664 0.36000001
4.0830002 -1.728 -1.668 0.34
4.0910001 -1.717 -1.669 0.34999999
4.092 -1.702 -1.6670001 0.37
4.0900002 -1.686 -1.664 0.36000001
4.0910001 -1.679 -1.663 0.34999999
4.105 -1.67 -1.6670001 0.38
4.1030002 -1.654 -1.664 0.36000001
4.1139998 -1.643 -1.666 0.34999999
4.1149998 -1.6289999 -1.665 0.38
4.1199999 -1.6160001 -1.665 0.31999999
4.131 -1.605 -1.6670001 0.43000001
4.1399999 -1.601 -1.67 0.33000001
4.1360002 -1.585 -1.666 0.37
4.1339998 -1.569 -1.663 0.34
4.151 -1.561 -1.668 0.38
4.1459999 -1.544 -1.664 0.36000001
4.1529999 -1.531 -1.665 0.33000001
4.1659999 -1.522 -1.668 0.37
4.1539998 -1.51 -1.663 0.31999999
4.1659999 -1.499 -1.665 0.36000001
4.1760001 -1.488 -1.668 0.37
4.1690001 -1.471 -1.663 0.36000001
4.1820002 -1.461 -1.666 0.38
4.1919999 -1.449 -1.668 0.33000001
4.1789999 -1.4299999 -1.661 0.34
4.1859999 -1.425 -1.663 0.34
4.1989999 -1.415 -1.6670001 0.34
4.2020001 -1.401 -1.666 0.37
4.2059999 -1.388 -1.666 0.31
4.2199998 -1.378 -1.67 0.34
4.2119999 -1.3609999 -1.665 0.37
4.211 -1.346 -1.663 0.34999999
4.2249999 -1.336 -1.6670001 0.36000001
4.2199998 -1.327 -1.664 0.33000001
4.2280002 -1.3150001 -1.665 0.34
4.2319999 -1.301 -1.665 0.36000001
4.2290001 -1.286 -1.663 0.34
4.2350001 -1.273 -1.663 0.34999999
4.25 -1.263 -1.668 0.38
4.2410002 -1.2460001 -1.663 0.31999999
4.2410002 -1.239 -1.6619999 0.34
4.2579999 -1.229 -1.6670001 0.37
4.2529998 -1.2130001 -1.663 0.31999999
4.2620001 -1.201 -1.665 0.34999999
4.2649999 -1.188 -1.665 0.34999999
4.2579999 -1.1720001 -1.661 0.34999999
4.2639999 -1.166 -1.663 0.38
4.276 -1.155 -1.666 0.37
4.2709999 -1.1390001 -1.663 0.34999999
4.2709999 -1.125 -1.661 0.34
4.2779999 -1.112 -1.663 0.37
4.2740002 -1.097 -1.66 0.34999999
4.2849998 -1.085 -1.663 0.36000001
4.2919998 -1.08 -1.665 0.37
4.2880001 -1.0650001 -1.6619999 0.34999999
4.2930002 -1.052 -1.663 0.34
4.3039999 -1.04 -1.665 0.34
4.296 -1.024 -1.661 0.37
4.3070002 -1.012 -1.664 0.38
4.3189998 -1.001 -1.668 0.34999999
4.3039999 -0.99000001 -1.661 0.34999999
4.3060002 -0.97600001 -1.66 0.31999999
4.3280001 -0.96700001 -1.668 0.40000001
4.322 -0.95099998 -1.665 0.34
4.3330002 -0.93900001 -1.668 0.34999999
4.3390002 -0.92699999 -1.669 0.34999999
4.3330002 -0.91100001 -1.665 0.23999999
4.3390002 -0.898 -1.6670001 0.23
4.3540001 -0.89399999 -1.6720001 0
4.336 -0.87599999 -1.664 0
4.3390002 -0.86299998 -1.664 0
4.3709998 -0.85500002 -1.676 0
4.362 -0.824 -1.67 0
2.5369999 -0.477 -0.92199999 0
4.3759999 -0.81999999 -1.675 0
8.5319996 1.5369999 -3.4619999 0.039999999
8.559 1.5700001 -3.4760001 0.18000001
8.5249996 1.591 -3.464 0
8.5310001 1.62 -3.4679999 0
8.5010004 1.642 -3.4579999 0
8.5019999 1.656 -3.4590001 0
4.1760001 1.125 -1.668 0.02
4.1690001 1.137 -1.6670001 0.12
4.1630001 1.15 -1.666 0.17
4.1609998 1.156 -1.666 0.23999999
4.1669998 1.1720001 -1.67 0.18000001
4.165 1.186 -1.671 0.25
4.1469998 1.1950001 -1.665 0.2
4.138 1.206 -1.6619999 0.23999999
4.132 1.2180001 -1.6619999 0.23999999
4.1420002 1.2359999 -1.668 0.20999999
4.1389999 1.242 -1.6670001 0.25
4.1399999 1.256 -1.669 0.19
4.1290002 1.267 -1.666 0.25
4.1220002 1.279 -1.665 0.20999999
4.118 1.2920001 -1.665 0.2
4.1209998 1.307 -1.668 0.25
4.1090002 1.318 -1.665 0.23
4.118 1.3279999 -1.669 0.17
4.1069999 1.3380001 -1.666 0.25999999
4.118 1.3559999 -1.673 0.20999999
4.0949998 1.363 -1.665 0.12
4.0960002 1.378 -1.6670001 0.20999999
4.0949998 1.392 -1.668 0.22
4.0939999 1.406 -1.67 0.13
4.0760002 1.4069999 -1.663 0.20999999
4.0780001 1.4220001 -1.666 0.2
4.0770001 1.436 -1.668 0.25
4.0619998 1.4450001 -1.663 0.23
4.0679998 1.462 -1.668 0.23
4.0739999 1.478 -1.6720001 0.25
4.0560002 1.4859999 -1.666 0.20999999
4.0500002 1.4910001 -1.665 0.2
4.0419998 1.502 -1.663 0.25
4.0419998 1.517 -1.665 0.23
4.0479999 1.534 -1.67 0.20999999
4.0380001 1.544 -1.668 0.23999999
4.0219998 1.553 -1.663 0.23
4.0209999 1.567 -1.665 0.16
4.0149999 1.572 -1.663 0.27000001
4.026 1.591 -1.67 0.20999999
4.0149999 1.601 -1.668 0.12
4.007 1.612 -1.666 0.2
3.9979999 1.624 -1.665 0.050000001
3.9920001 1.635 -1.664 0.16
3.993 1.651 -1.6670001 0.050000001
3.9909999 1.6569999 -1.6670001 0.16
3.9909999 1.6720001 -1.669 0.11
3.9820001 1.683 -1.668 0.2
3.983 1.698 -1.671 0.2
3.9809999 1.712 -1.6720001 0.25
3.9690001 1.722 -1.669 0.18000001
3.9619999 1.734 -1.668 0.25
3.961 1.74 -1.669 0.18000001
3.9590001 1.7539999 -1.671 0.23999999
3.957 1.768 -1.6720001 0.18000001
3.951 1.781 -1.6720001 0.25
3.9419999 1.7920001 -1.671 0.18000001
3.937 1.804 -1.671 0.23999999
3.9289999 1.808 -1.668 0.19
3.9230001 1.8200001 -1.668 0.22
3.924 1.836 -1.6720001 0.18000001
3.9100001 1.844 -1.668 0.23
3.911 1.86 -1.671 0.20999999
3.908 1.873 -1.6720001 0.12
3.8970001 1.883 -1.67 0.17
3.891 1.895 -1.67 0.22
3.8929999 1.904 -1.6720001 0.18000001
3.8859999 1.915 -1.6720001 0.23
3.878 1.927 -1.671 0.2
3.8770001 1.941 -1.673 0.20999999
3.8559999 1.946 -1.666 0.18000001
3.865 1.966 -1.673 0.23999999
3.8699999 1.984 -1.678 0.20999999
3.862 1.987 -1.676 0.22
3.8410001 1.992 -1.669 0.19
3.848 2.0109999 -1.675 0.23
3.8399999 2.0220001 -1.675 0.19
3.825 2.03 -1.671 0.22
3.8299999 2.0480001 -1.676 0.19
3.816 2.0550001 -1.6720001 0.23
3.8069999 2.059 -1.67 0.18000001
3.8139999 2.0780001 -1.676 0.23
3.799 2.085 -1.6720001 0.19
3.793 2.0969999 -1.6720001 0.23
3.796 2.115 -1.677 0.2
3.783 2.1229999 -1.674 0.12
3.76 2.1259999 -1.666 0.20999999
3.7820001 2.1459999 -1.678 0.11
3.7639999 2.152 -1.673 0.20999999
3.7690001 2.1700001 -1.678 0.11
3.7650001 2.184 -1.6799999 0.18000001
3.7550001 2.194 -1.678 0.20999999
3.7260001 2.1919999 -1.668 0.16
3.7539999 2.217 -1.683 0.27000001
3.7460001 2.2279999 -1.682 0.19
3.7320001 2.2360001 -1.679 0.11
3.7130001 2.24 -1.673 0.20999999
3.7179999 2.2590001 -1.679 0.11
3.7 2.2639999 -1.674 0.2
3.7090001 2.2850001 -1.681 0.11
3.6989999 2.2869999 -1.678 0.2
3.6960001 2.302 -1.681 0.11
3.6760001 2.3050001 -1.675 0.2
3.6830001 2.326 -1.681 0.11
3.671 2.335 -1.679 0.20999999
3.6719999 2.3510001 -1.683 0.11
3.6600001 2.3599999 -1.681 0.20999999
3.6570001 2.3659999 -1.681 0.11
3.6500001 2.378 -1.681 0.17
3.6459999 2.391 -1.683 0.12
3.6459999 2.408 -1.687 0.18000001
3.6289999 2.4130001 -1.682 0.12
3.615 2.4200001 -1.679 0.20999999
3.6229999 2.4419999 -1.687 0.2
3.6170001 2.447 -1.686 0.23999999
3.608 2.457 -1.6849999 0.2
3.6040001 2.471 -1.687 0.23
3.596 2.4820001 -1.687 0.19
3.5880001 2.493 -1.687 0.25
3.5880001 2.51 -1.691 0.19
3.5739999 2.517 -1.688 0.23999999
3.573 2.533 -1.691 0.19
3.566 2.5369999 -1.6900001 0.23999999
3.552 2.5439999 -1.687 0.20999999
3.546 2.556 -1.688 0.20999999
3.553 2.5780001 -1.6950001 0.25
3.5369999 2.5840001 -1.691 0.2
3.5320001 2.5969999 -1.693 0.25
3.523 2.599 -1.691 0.20999999
3.5109999 2.6070001 -1.688 0.16
3.513 2.6259999 -1.694 0.25999999
3.5020001 2.6340001 -1.692 0.18000001
3.4979999 2.6489999 -1.694 0.23999999
3.487 2.6570001 -1.693 0.20999999
3.484 2.6730001 -1.696 0.12
3.477 2.6760001 -1.694 0.20999999
3.467 2.6860001 -1.694 0.18000001
3.4760001 2.711 -1.7029999 0.25999999
3.4489999 2.707 -1.693 0.25
3.4430001 2.72 -1.694 0.28
3.434 2.73 -1.694 0.28999999
3.434 2.7479999 -1.699 0.25999999
3.4189999 2.744 -1.693 0.27000001
3.4200001 2.763 -1.698 0.27000001
3.424 2.7839999 -1.705 0.25999999
3.408 2.789 -1.701 0.27000001
3.3940001 2.7950001 -1.698 0.28999999
3.388 2.8080001 -1.7 0.27000001
3.3859999 2.825 -1.704 0.25
3.3729999 2.823 -1.699 0.23
3.3529999 2.8239999 -1.693 0.15000001
3.313 2.8080001 -1.676 0.2
3.293 2.809 -1.67 0.28
3.289 2.823 -1.6720001 0.28999999
3.276 2.829 -1.67 0.25
3.2739999 2.846 -1.674 0.28
3.2679999 2.8499999 -1.673 0.27000001
3.2520001 2.8540001 -1.669 0.30000001
3.2479999 2.869 -1.6720001 0.27000001
3.2449999 2.8840001 -1.675 0.28999999
3.2219999 2.882 -1.668 0.28
3.227 2.904 -1.675 0.27000001
3.2130001 2.911 -1.673 0.28
3.198 2.9059999 -1.6670001 0.30000001
3.1919999 2.918 -1.668 0.30000001
3.181 2.927 -1.668 0.28
3.1619999 2.928 -1.6619999 0.28
3.168 2.9519999 -1.671 0.33000001
3.1530001 2.957 -1.668 0.30000001
3.152 2.9749999 -1.6720001 0.30000001
3.1340001 2.967 -1.665 0.27000001
3.131 2.983 -1.668 0.28999999
3.119 2.99 -1.6670001 0.30000001
3.115 3.0050001 -1.67 0.27000001
3.096 3.006 -1.665 0.30000001
3.0829999 3.0120001 -1.6619999 0.27000001
3.0669999 3.0150001 -1.659 0.25999999
3.0669999 3.0339999 -1.664 0.28
3.0610001 3.0369999 -1.663 0.27000001
3.05 3.0450001 -1.6619999 0.28
3.0339999 3.0480001 -1.659 0.28999999
3.0320001 3.066 -1.663 0.28999999
3.023 3.0769999 -1.664 0.25999999
3.0109999 3.0829999 -1.6619999 0.30000001
3.0039999 3.096 -1.664 0.28999999
2.9990001 3.0999999 -1.664 0.25999999
2.9879999 3.108 -1.663 0.30000001
2.987 3.1270001 -1.668 0.25999999
2.9649999 3.1229999 -1.661 0.30000001
2.9649999 3.1429999 -1.6670001 0.28999999
2.9579999 3.155 -1.668 0.28999999
2.9430001 3.1589999 -1.665 0.25999999
2.9400001 3.1659999 -1.6670001 0.28999999
2.9300001 3.1760001 -1.6670001 0.28
2.9170001 3.181 -1.665 0.27000001
2.9089999 3.1930001 -1.666 0.27000001
2.895 3.198 -1.664 0.25
2.8840001 3.2049999 -1.663 0.25999999
2.8789999 3.22 -1.666 0.27000001
2.869 3.2190001 -1.663 0.28999999
2.8540001 3.2219999 -1.66 0.27000001
2.846 3.234 -1.6619999 0.28
2.8340001 3.24 -1.66 0.27000001
2.832 3.2590001 -1.665 0.28999999
2.8180001 3.263 -1.663 0.28
2.803 3.267 -1.66 0.25999999
2.7939999 3.267 -1.658 0.27000001
2.789 3.2809999 -1.661 0.28
2.786 3.299 -1.665 0.25
2.7739999 3.306 -1.665 0.28
2.7539999 3.303 -1.659 0.30000001
2.7479999 3.3169999 -1.6619999 0.23999999
2.7290001 3.3050001 -1.652 0.30000001
2.73 3.3280001 -1.66 0.28
2.72 3.336 -1.66 0.23999999
2.6930001 3.3239999 -1.649 0.2
2.6900001 3.342 -1.654 0.30000001
2.671 3.3399999 -1.649 0.25
2.665 3.3540001 -1.652 0.25999999
2.6600001 3.3699999 -1.655 0.28
2.651 3.368 -1.652 0.2
2.6340001 3.369 -1.649 0.28999999
2.612 3.3629999 -1.641 0.25
2.609 3.3800001 -1.646 0.25999999
2.596 3.385 -1.6440001 0.27000001
2.585 3.3929999 -1.6440001 0.27000001
2.5699999 3.395 -1.641 0.28
2.5680001 3.404 -1.643 0.27000001
2.5539999 3.4070001 -1.641 0.25999999
2.5439999 3.4170001 -1.642 0.28
2.5309999 3.4219999 -1.64 0.27000001
2.5250001 3.4360001 -1.643 0.27000001
2.5079999 3.4349999 -1.6390001 0.25
2.4960001 3.441 -1.638 0.27000001
2.497 3.454 -1.643 0.28999999
2.4849999 3.46 -1.642 0.25
2.4630001 3.4530001 -1.6339999 0.28999999
2.4590001 3.47 -1.6390001 0.25999999
2.4460001 3.474 -1.637 0.25999999
2.4449999 3.497 -1.645 0.25999999
2.4349999 3.5050001 -1.645 0.28999999
2.415 3.4890001 -1.635 0.19
2.4070001 3.4990001 -1.636 0.28999999
2.398 3.51 -1.638 0.25
2.382 3.5109999 -1.635 0.27000001
2.3710001 3.5190001 -1.635 0.25999999
2.3610001 3.5280001 -1.636 0.28
2.348 3.5320001 -1.6339999 0.28999999
2.3380001 3.5280001 -1.63 0.28999999
2.3310001 3.5420001 -1.633 0.28
2.329 3.5650001 -1.641 0.27000001
2.3050001 3.552 -1.631 0.28999999
2.303 3.573 -1.638 0.25999999
2.283 3.566 -1.631 0.30000001
2.2709999 3.572 -1.63 0.25999999
2.277 3.5940001 -1.6390001 0.27000001
2.2550001 3.5840001 -1.631 0.30000001
2.244 3.5910001 -1.631 0.27000001
2.233 3.599 -1.632 0.27000001
2.2219999 3.6059999 -1.632 0.28
2.207 3.6070001 -1.6289999 0.28
2.198 3.619 -1.631 0.25
2.1919999 3.6210001 -1.63 0.25999999
2.184 3.6340001 -1.633 0.31999999
2.174 3.6440001 -1.635 0.30000001
2.155 3.6359999 -1.628 0.2
2.142 3.642 -1.627 0.28999999
2.1259999 3.6400001 -1.623 0.23999999
2.1240001 3.6630001 -1.631 0.28
2.1129999 3.6570001 -1.626 0.25999999
2.105 3.6700001 -1.63 0.25999999
2.089 3.668 -1.626 0.27000001
2.0769999 3.675 -1.626 0.27000001
2.0669999 3.684 -1.627 0.25999999
2.0569999 3.6930001 -1.628 0.28
2.05 3.7090001 -1.633 0.27000001
2.0420001 3.7219999 -1.636 0.27000001
2.029 3.71 -1.6289999 0.28999999
2.0190001 3.72 -1.63 0.25999999
2.0090001 3.7290001 -1.632 0.31
1.992 3.7260001 -1.627 0.28999999
1.985 3.7420001 -1.632 0.25
1.967 3.7349999 -1.626 0.19
1.957 3.7460001 -1.628 0.28999999
1.952 3.7490001 -1.628 0.25
1.941 3.7590001 -1.63 0.27000001
1.926 3.7579999 -1.626 0.25999999
1.9170001 3.7690001 -1.6289999 0.27000001
1.901 3.767 -1.625 0.25999999
1.896 3.7880001 -1.632 0.23999999
1.8839999 3.7920001 -1.631 0.30000001
1.875 3.7880001 -1.628 0.25999999
1.8609999 3.7909999 -1.626 0.25
1.853 3.8050001 -1.63 0.27000001
1.831 3.789 -1.62 0.27000001
1.83 3.8180001 -1.631 0.25999999
1.818 3.8239999 -1.631 0.17
1.804 3.826 -1.63 0.28999999
1.795 3.822 -1.626 0.25
1.7920001 3.8469999 -1.635 0.27000001
1.774 3.8399999 -1.63 0.27000001
1.763 3.848 -1.63 0.28
1.755 3.862 -1.6339999 0.23
1.744 3.8699999 -1.636 0.27000001
1.732 3.8759999 -1.636 0.28
1.723 3.872 -1.633 0.31999999
1.705 3.865 -1.627 0.28999999
1.7 3.8859999 -1.6339999 0.28999999
1.683 3.8789999 -1.6289999 0.25
1.678 3.9030001 -1.637 0.28999999
1.659 3.892 -1.63 0.28999999
1.649 3.904 -1.633 0.25999999
1.641 3.901 -1.63 0.28
1.625 3.898 -1.626 0.27000001
1.619 3.9159999 -1.633 0.28
1.6059999 3.9219999 -1.633 0.27000001
1.598 3.9349999 -1.636 0.28
1.5779999 3.921 -1.628 0.25999999
1.567 3.931 -1.63 0.27000001
1.5650001 3.9419999 -1.6339999 0.27000001
1.553 3.9489999 -1.635 0.27000001
1.536 3.9419999 -1.63 0.20999999
1.525 3.9519999 -1.632 0.28
1.513 3.957 -1.632 0.25
1.503 3.9679999 -1.635 0.27000001
1.494 3.9820001 -1.6390001 0.27000001
1.482 3.97 -1.633 0.27000001
1.473 3.983 -1.636 0.27000001
1.459 3.983 -1.6339999 0.27000001
1.4450001 3.984 -1.633 0.27000001
1.432 3.9879999 -1.633 0.28
1.419 3.9909999 -1.632 0.28999999
1.406 3.9920001 -1.63 0.25
1.402 4.0009999 -1.633 0.27000001
1.387 4 -1.631 0.25
1.376 4.0079999 -1.633 0.27000001
1.363 4.0110002 -1.632 0.27000001
1.348 4.0079999 -1.6289999 0.27000001
1.339 4.0229998 -1.633 0.25999999
1.325 4.0229998 -1.632 0.27000001
1.312 4.026 -1.631 0.25999999
1.309 4.04 -1.636 0.25
1.294 4.0370002 -1.633 0.17
1.283 4.0469999 -1.636 0.28999999
1.2690001 4.0450001 -1.633 0.25
1.258 4.0560002 -1.636 0.25999999
1.244 4.053 -1.633 0.17
1.23 4.0549998 -1.633 0.28999999
1.224 4.0570002 -1.633 0.23999999
1.212 4.0650001 -1.6339999 0.25999999
1.198 4.0630002 -1.632 0.25999999
1.186 4.0700002 -1.633 0.25999999
1.1720001 4.0710001 -1.632 0.25999999
1.163 4.0869999 -1.637 0.25999999
1.148 4.0809999 -1.633 0.25999999
1.142 4.085 -1.6339999 0.27000001
1.128 4.0830002 -1.632 0.28999999
1.119 4.1030002 -1.6390001 0.25999999
1.105 4.1030002 -1.637 0.27000001
1.091 4.1030002 -1.636 0.25999999
1.079 4.1100001 -1.637 0.25999999
1.066 4.1090002 -1.636 0.27000001
1.058 4.1069999 -1.6339999 0.28
1.044 4.1069999 -1.633 0.28
1.035 4.125 -1.6390001 0.27000001
1.02 4.119 -1.635 0.25
0.653 2.6730001 -1.0190001 0.25999999
1.006 4.1199999 -1.6339999 0.2
0.64700001 2.6819999 -1.022 0.28
0.64099997 2.678 -1.02 0.37
0.634 2.687 -1.023 0.38
0.62699997 2.6930001 -1.024 0.36000001
0.625 2.727 -1.038 0.81
0.60699999 2.6860001 -1.02 0.89999998
0.59299999 2.6600001 -1.008 0.99000001
0.58499998 2.6619999 -1.008 0.99000001
0.58099997 2.6670001 -1.01 0.95999998
0.57099998 2.6589999 -1.006 0.99000001
0.56400001 2.665 -1.007 0.99000001
0.54799998 2.6300001 -0.99199998 0.93000001
0.57300001 2.8010001 -1.063 0.38999999
0.82700002 4.1750002 -1.64 0.23999999
0.815 4.1810002 -1.642 0.25
0.80900002 4.1859999 -1.643 0.25999999
0.796 4.191 -1.6440001 0.27000001
0.78299999 4.1929998 -1.6440001 0.25999999
0.76800001 4.1849999 -1.6390001 0.16
0.75800002 4.2049999 -1.647 0.28999999
0.74299997 4.1999998 -1.6440001 0.25
0.73000002 4.2010002 -1.643 0.25
0.72500002 4.2150002 -1.649 0.25
0.713 4.2220001 -1.651 0.25999999
0.699 4.2210002 -1.649 0.28
0.685 4.2210002 -1.649 0.25999999
0.67000002 4.211 -1.643 0.25
0.66100001 4.237 -1.653 0.34
0.64399999 4.2129998 -1.643 0.20999999
0.63300002 4.237 -1.652 0.28
0.62400001 4.2179999 -1.643 0.25
0.61400002 4.2470002 -1.655 0.23
0.59799999 4.2290001 -1.646 0.20999999
0.58600003 4.2379999 -1.649 0.27000001
0.57200003 4.2329998 -1.646 0.25
0.55900002 4.2420001 -1.649 0.19
0.546 4.244 -1.649 0.28
0.53899997 4.2389998 -1.647 0.23999999
0.52700001 4.25 -1.651 0.25
0.51200002 4.2399998 -1.646 0.2
0.5 4.257 -1.652 0.27000001
0.486 4.2509999 -1.649 0.25
0.47299999 4.2540002 -1.65 0.25999999
0.46000001 4.2649999 -1.654 0.27000001
0.45300001 4.2579999 -1.651 0.25
0.44100001 4.2740002 -1.6569999 0.2
0.42699999 4.2740002 -1.656 0.28
0.41299999 4.2659998 -1.652 0.25
0.39899999 4.2639999 -1.651 0.2
0.38699999 4.2779999 -1.656 0.27000001
0.373 4.2729998 -1.654 0.25
0.36700001 4.2810001 -1.6569999 0.25
0.354 4.2810001 -1.656 0.28
0.34 4.283 -1.6569999 0.27000001
0.32699999 4.29 -1.659 0.25
0.31299999 4.2839999 -1.656 0.18000001
0.30000001 4.29 -1.659 0.30000001
0.287 4.2909999 -1.659 0.25
0.28 4.2950001 -1.66 0.2
0.26699999 4.3000002 -1.6619999 0.27000001
0.252 4.2820001 -1.654 0.25
0.23999999 4.3049998 -1.663 0.25
0.227 4.3109999 -1.665 0.27000001
0.213 4.2969999 -1.659 0.28999999
0.2 4.3130002 -1.665 0.28
0.186 4.3080001 -1.663 0.25
0.17900001 4.3010001 -1.66 0.27000001
0.16500001 4.303 -1.661 0.27000001
0.152 4.3109999 -1.664 0.25
0.138 4.2969999 -1.658 0.27000001
0.125 4.3189998 -1.6670001 0.25
0.111 4.3049998 -1.661 0.18000001
0.105 4.3119998 -1.664 0.30000001
0.090999998 4.3179998 -1.666 0.25
0.078000002 4.3109999 -1.663 0.25
0.064000003 4.3130002 -1.664 0.27000001
0.050000001 4.3109999 -1.663 0.27000001
0.037 4.3189998 -1.666 0.25999999
0.023 4.3280001 -1.67 0.25
0.017000001 4.3210001 -1.6670001 0.19
0.003 4.3280001 -1.67 0.28999999
-0.011 4.3189998 -1.666 0.23999999
-0.024 4.3299999 -1.671 0.27000001
-0.037999999 4.3410001 -1.675 0.23
-0.050999999 4.3169999 -1.665 0.18000001
-0.064999998 4.3410001 -1.675 0.28
-0.079000004 4.3280001 -1.67 0.25
-0.086000003 4.3369999 -1.674 0.2
-0.098999999 4.342 -1.676 0.25999999
-0.113 4.3400002 -1.675 0.25
-0.127 4.336 -1.674 0.25
-0.14 4.3299999 -1.6720001 0.25
-0.154 4.3309999 -1.6720001 0.25
-0.168 4.3460002 -1.678 0.23
-0.175 4.3509998 -1.681 0.31999999
-0.18799999 4.3410001 -1.677 0.30000001
-0.20200001 4.3400002 -1.677 0.27000001
-0.215 4.3379998 -1.676 0.2
-0.23 4.3540001 -1.683 0.27000001
-0.244 4.3530002 -1.683 0.25
-0.257 4.3429999 -1.679 0.28
-0.26499999 4.3590002 -1.686 0.27000001
-0.27700001 4.3400002 -1.678 0.19
-0.29300001 4.3670001 -1.6900001 0.28
-0.30500001 4.3530002 -1.684 0.25
-0.31900001 4.348 -1.683 0.19
-0.333 4.355 -1.686 0.27000001
-0.347 4.3520002 -1.6849999 0.25
-0.354 4.3530002 -1.686 0.2
-0.368 4.3569999 -1.688 0.28
-0.38 4.3429999 -1.683 0.25
-0.39700001 4.3699999 -1.694 0.23999999
-0.40799999 4.3429999 -1.684 0.18000001
-0.42300001 4.3559999 -1.6900001 0.28
-0.435 4.3400002 -1.684 0.23999999
-0.442 4.3390002 -1.684 0.16
-0.45699999 4.349 -1.688 0.28999999
-0.47099999 4.3509998 -1.6900001 0.25
-0.484 4.348 -1.689 0.19
-0.498 4.348 -1.6900001 0.27000001
-0.51099998 4.3429999 -1.688 0.25
-0.52499998 4.3410001 -1.688 0.25999999
-0.53100002 4.3390002 -1.688 0.25999999
-0.54699999 4.3499999 -1.693 0.19
-0.56 4.342 -1.691 0.27000001
-0.57499999 4.3530002 -1.696 0.23
-0.588 4.3439999 -1.693 0.27000001
-0.60100001 4.3410001 -1.692 0.2
-0.61500001 4.3390002 -1.692 0.30000001
-0.62099999 4.336 -1.691 0.25
-0.634 4.3299999 -1.6900001 0.25
-0.65100002 4.3449998 -1.697 0.25
-0.66399997 4.3429999 -1.697 0.20999999
-0.67799997 4.3410001 -1.697 0.28
-0.69 4.329 -1.693 0.25
-0.704 4.329 -1.694 0.27000001
-0.71700001 4.3210001 -1.691 0.27000001
-0.727 4.342 -1.701 0.25
-0.74000001 4.3340001 -1.698 0.17
-0.75400001 4.335 -1.7 0.28
-0.76499999 4.3200002 -1.694 0.23999999
-0.77999997 4.322 -1.696 0.2
-0.79400003 4.323 -1.697 0.25999999
-0.80599999 4.3109999 -1.694 0.23
-0.815 4.3210001 -1.698 0.19
-0.829 4.322 -1.7 0.27000001
-0.84200001 4.3169999 -1.699 0.22
-0.85500002 4.3109999 -1.697 0.18000001
-0.87 4.3140001 -1.7 0.28
-0.88200003 4.3060002 -1.697 0.25
-0.89399999 4.296 -1.694 0.25
-0.90399998 4.309 -1.701 0.23999999
-0.91399997 4.2909999 -1.694 0.18000001
-0.93199998 4.3080001 -1.7029999 0.30000001
-0.94099998 4.2870002 -1.6950001 0.25
-0.95700002 4.2950001 -1.7 0.25
-0.97000003 4.29 -1.699 0.27000001
-0.98500001 4.2909999 -1.701 0.25999999
-0.98900002 4.2800002 -1.697 0.27000001
-1.005 4.2839999 -1.7 0.27000001
-1.018 4.2810001 -1.7 0.22
-0.67199999 2.826 -1.082 0.18000001
-0.68300003 2.829 -1.085 0.25999999
-0.69 2.822 -1.082 0.38999999
-0.70700002 2.852 -1.096 0.33000001
-0.71600002 2.8670001 -1.103 0.51999998
-0.72299999 2.8570001 -1.1 0.80000001
-0.73199999 2.855 -1.1 0.81999999
-0.72100002 2.78 -1.068 0.99000001
-0.73100001 2.783 -1.071 0.99000001
-0.74000001 2.779 -1.0700001 0.99000001
-0.75099999 2.7850001 -1.074 0.99000001
-0.73699999 2.7030001 -1.039 0.88999999
-0.77899998 2.8329999 -1.096 0.54000002
-1.197 4.2540002 -1.707 0.25999999
-1.211 4.2519999 -1.7079999 0.25999999
-1.219 4.23 -1.701 0.18000001
-1.239 4.2490001 -1.71 0.27000001
-1.248 4.23 -1.704 0.23
-1.2640001 4.2340002 -1.707 0.20999999
-1.273 4.2410002 -1.711 0.25
-1.283 4.2249999 -1.706 0.22
-1.295 4.217 -1.704 0.19
-1.321 4.2540002 -1.722 0.25999999
-1.326 4.2249999 -1.711 0.23999999
-1.336 4.2080002 -1.706 0.19
-1.3660001 4.257 -1.729 0.27000001
-1.3609999 4.2179999 -1.7130001 0.23999999
-1.37 4.2010002 -1.707 0.2
-1.397 4.237 -1.725 0.23999999
-1.397 4.1939998 -1.7079999 0.25
-1.411 4.1919999 -1.709 0.23
-1.426 4.1929998 -1.711 0.25
-1.434 4.1760001 -1.706 0.22
-1.443 4.1789999 -1.7079999 0.2
-1.4630001 4.1950002 -1.717 0.27000001
-1.471 4.1750002 -1.71 0.25
-1.483 4.1680002 -1.71 0.18000001
-1.502 4.178 -1.716 0.25999999
-1.5140001 4.171 -1.715 0.23999999
-1.525 4.1599998 -1.712 0.19
-1.544 4.1719999 -1.72 0.27000001
-1.546 4.1570001 -1.714 0.23
-1.558 4.151 -1.714 0.2
-1.575 4.1550002 -1.717 0.27000001
-1.589 4.1529999 -1.719 0.25
-1.6 4.1409998 -1.716 0.2
-1.6210001 4.1570001 -1.725 0.25999999
-1.628 4.138 -1.719 0.25
-1.632 4.1279998 -1.716 0.2
-1.651 4.1389999 -1.723 0.27000001
-1.664 4.1339998 -1.723 0.23999999
-1.673 4.118 -1.7180001 0.19
-1.6900001 4.1230001 -1.723 0.25999999
-1.7 4.1110001 -1.72 0.23999999
-1.72 4.1209998 -1.726 0.23999999
-1.727 4.1199999 -1.727 0.17
-1.7359999 4.1059999 -1.723 0.28
-1.75 4.1020002 -1.724 0.25
-1.763 4.0970001 -1.724 0.27000001
-1.774 4.0879998 -1.723 0.2
-1.79 4.0890002 -1.726 0.27000001
-1.798 4.073 -1.721 0.25
-1.814 4.092 -1.7309999 0.19
-1.824 4.0799999 -1.728 0.28
-1.839 4.0770001 -1.73 0.25
-1.8430001 4.053 -1.721 0.20999999
-1.862 4.0609999 -1.727 0.25999999
-1.874 4.053 -1.726 0.25
-1.888 4.0500002 -1.728 0.28999999
-1.898 4.0560002 -1.732 0.25999999
-1.9119999 4.052 -1.733 0.2
-1.926 4.0489998 -1.734 0.27000001
-1.937 4.0380001 -1.732 0.25
-1.948 4.0279999 -1.73 0.2
-1.966 4.0339999 -1.7359999 0.27000001
-1.975 4.0209999 -1.733 0.25
-1.9859999 4.0110002 -1.7309999 0.19
-1.998 4.0180001 -1.7359999 0.28
-2.006 4.0040002 -1.732 0.23999999
-2.02 4.0009999 -1.733 0.2
-2.039 4.006 -1.739 0.27000001
-2.05 3.9960001 -1.737 0.23
-2.0569999 3.98 -1.733 0.18000001
-2.0699999 3.99 -1.739 0.27000001
-2.0829999 3.983 -1.739 0.23
-2.089 3.9649999 -1.733 0.2
-2.1110001 3.977 -1.742 0.25999999
-2.118 3.96 -1.737 0.25
-2.131 3.9530001 -1.737 0.19
-2.1500001 3.96 -1.743 0.25999999
-2.1530001 3.95 -1.74 0.23
-2.1659999 3.9449999 -1.7410001 0.2
-2.1789999 3.938 -1.7410001 0.25999999
-2.187 3.925 -1.738 0.23
-2.198 3.914 -1.7359999 0.2
-2.217 3.9200001 -1.743 0.28
-2.2309999 3.915 -1.743 0.23
-2.237 3.898 -1.739 0.2
-2.25 3.9059999 -1.744 0.27000001
-2.2590001 3.8929999 -1.7410001 0.23
-2.276 3.8929999 -1.745 0.19
-2.289 3.888 -1.7460001 0.28
-2.302 3.882 -1.7460001 0.23999999
-2.3069999 3.8640001 -1.7410001 0.19
-2.3280001 3.8710001 -1.748 0.25999999
-2.3329999 3.8659999 -1.747 0.23
-2.3469999 3.8610001 -1.749 0.25999999
-2.3559999 3.849 -1.7460001 0.2
-2.3710001 3.845 -1.748 0.059999999
-2.296 3.7 -1.681 0.11
-2.1289999 3.4100001 -1.543 0.20999999
-2.125 3.381 -1.5319999 0.25
-2.142 3.395 -1.54 0.25999999
-2.1429999 3.3740001 -1.533 0.25
-2.164 3.3829999 -1.541 0.25
-2.424 3.7590001 -1.73 0.16
-2.4820001 3.8199999 -1.7640001 0.28
-2.4960001 3.816 -1.765 0.25
-2.5039999 3.802 -1.762 0.2
-2.513 3.802 -1.765 0.27000001
-2.5220001 3.79 -1.762 0.23999999
-2.54 3.7909999 -1.767 0.27000001
-2.552 3.783 -1.767 0.2
-2.5680001 3.7809999 -1.77 0.27000001
-2.5799999 3.773 -1.77 0.23
-2.589 3.7620001 -1.768 0.25
-2.5929999 3.7550001 -1.767 0.19
-2.6140001 3.76 -1.774 0.25999999
-2.625 3.7509999 -1.773 0.23999999
-2.6359999 3.7409999 -1.772 0.2
-2.652 3.7379999 -1.775 0.27000001
-2.664 3.73 -1.775 0.25
-2.6760001 3.723 -1.776 0.27000001
-2.6819999 3.7190001 -1.776 0.2
-2.7019999 3.721 -1.781 0.27000001
-2.7019999 3.698 -1.774 0.23
-2.7320001 3.7130001 -1.786 0.23
-2.7279999 3.684 -1.775 0.20999999
-2.7460001 3.684 -1.78 0.28
-2.7609999 3.6800001 -1.7819999 0.20999999
-2.77 3.668 -1.781 0.23
-2.776 3.664 -1.781 0.20999999
-2.7920001 3.661 -1.784 0.11
-2.799 3.6459999 -1.781 0
-2.8180001 3.6470001 -1.786 0
-1.1059999 1.398 -0.61900002 0
-1.163 1.409 -0.63700002 0
-1.1390001 1.372 -0.61900002 0
-1.1670001 1.396 -0.634 0
-3.483 3.2409999 -1.847 0.02
-3.4660001 3.2049999 -1.832 0.029999999
-3.467 3.1860001 -1.827 0.16
-3.477 3.1760001 -1.827 0.2
-3.4809999 3.158 -1.823 0.22
-3.487 3.154 -1.824 0.18000001
-3.4979999 3.1440001 -1.825 0.25999999
-3.5020001 3.1289999 -1.822 0.25
-3.5150001 3.1199999 -1.823 0.2
-3.5220001 3.1059999 -1.822 0.23999999
-3.5350001 3.098 -1.823 0.22
-3.5369999 3.0810001 -1.8200001 0.12
-3.5320001 3.0669999 -1.814 0.20999999
-3.549 3.062 -1.818 0.17
-3.5569999 3.049 -1.817 0.25999999
-3.5669999 3.0380001 -1.817 0.23
-3.5810001 3.03 -1.8200001 0.2
-3.5869999 3.017 -1.818 0.23999999
-3.598 3.007 -1.819 0.20999999
-3.5999999 2.9990001 -1.817 0.12
-3.598 2.9779999 -1.811 0.2
-3.619 2.9760001 -1.817 0.11
-3.628 2.9649999 -1.817 0.20999999
-3.6359999 2.9519999 -1.817 0.11
-3.6489999 2.944 -1.819 0.18000001
-3.651 2.927 -1.8150001 0.23
-3.655 2.9200001 -1.814 0.2
-3.6619999 2.9070001 -1.814 0.23
-3.6760001 2.8989999 -1.816 0.19
-3.6849999 2.888 -1.816 0.23999999
-3.694 2.8759999 -1.816 0.19
-3.697 2.8599999 -1.813 0.23
-3.7060001 2.848 -1.813 0.18000001
-3.7149999 2.846 -1.8150001 0.23
-3.721 2.832 -1.814 0.18000001
-3.734 2.823 -1.816 0.25
-3.753 2.819 -1.821 0.2
-3.75 2.799 -1.8150001 0.23
-3.7639999 2.79 -1.817 0.18000001
-3.7620001 2.7709999 -1.812 0.23999999
-3.7679999 2.766 -1.813 0.18000001
-3.7780001 2.7550001 -1.814 0.25
-3.7909999 2.747 -1.816 0.20999999
-3.7969999 2.733 -1.814 0.12
-3.8039999 2.72 -1.814 0.20999999
-3.8169999 2.711 -1.816 0.20999999
-3.822 2.697 -1.814 0.23999999
-3.8139999 2.6819999 -1.808 0.18000001
-3.829 2.674 -1.811 0.23999999
-3.836 2.661 -1.8099999 0.2
-3.8529999 2.6559999 -1.8150001 0.23999999
-3.8540001 2.638 -1.811 0.18000001
-3.862 2.6259999 -1.811 0.23
-3.872 2.615 -1.812 0.18000001
-3.881 2.612 -1.814 0.25
-3.8759999 2.592 -1.808 0.18000001
-3.891 2.5829999 -1.811 0.23999999
-3.9000001 2.572 -1.812 0.19
-3.9089999 2.5599999 -1.812 0.23999999
-3.9070001 2.5420001 -1.807 0.19
-3.928 2.5369999 -1.814 0.23999999
-3.918 2.5220001 -1.807 0.2
-3.9349999 2.516 -1.811 0.23999999
-3.9400001 2.5020001 -1.8099999 0.2
-3.9489999 2.49 -1.8099999 0.23
-3.9519999 2.4749999 -1.808 0.23
-3.961 2.4630001 -1.809 0.22
-3.9679999 2.45 -1.808 0.23
-3.9790001 2.448 -1.812 0.2
-3.9790001 2.431 -1.808 0.12
-3.9979999 2.425 -1.814 0.18000001
-3.9879999 2.402 -1.8049999 0.12
-3.9990001 2.392 -1.807 0.18000001
-4.013 2.3829999 -1.8099999 0.23
-4.0219998 2.3710001 -1.8099999 0.2
-4.0139999 2.358 -1.8049999 0.22
-4.0209999 2.346 -1.8049999 0.18000001
-4.0320001 2.335 -1.807 0.23
-4.0469999 2.3269999 -1.8099999 0.19
-4.0500002 2.3110001 -1.808 0.22
-4.059 2.3 -1.809 0.18000001
-4.059 2.283 -1.806 0.23
-4.0669999 2.27 -1.806 0.20999999
-4.0700002 2.2639999 -1.806 0.23
-4.0809999 2.253 -1.807 0.2
-4.0840001 2.2379999 -1.806 0.23
-4.1009998 2.2309999 -1.8099999 0.19
-4.0929999 2.21 -1.804 0.20999999
-4.1040001 2.1989999 -1.8049999 0.17
-4.1069999 2.184 -1.804 0.23
-4.1110001 2.178 -1.804 0.18000001
-4.1209998 2.1670001 -1.8049999 0.23
-4.1339998 2.1570001 -1.808 0.2
-4.1290002 2.138 -1.803 0.23
-4.1440001 2.1289999 -1.807 0.19
-4.1479998 2.115 -1.8049999 0.23
-4.1589999 2.1040001 -1.807 0.19
-4.1539998 2.0929999 -1.804 0.23999999
-4.1609998 2.0799999 -1.804 0.1
-4.164 2.066 -1.802 0.17
-4.1739998 2.0539999 -1.804 0.22
-4.1690001 2.0350001 -1.798 0.090000004
-4.2080002 2.0380001 -1.814 0
-4.1950002 2.016 -1.804 0
-4.1960001 2.0079999 -1.804 0
-4.1960001 1.992 -1.801 0
-4.1950002 1.976 -1.7970001 0
-4.2270002 1.974 -1.809 0
-4.0419998 -2.1300001 -1.7690001 0
-4.007 -2.128 -1.756 0
-3.9990001 -2.1400001 -1.755 0.029999999
-3.9879999 -2.1489999 -1.753 0.079999998
-3.9890001 -2.1659999 -1.757 0.16
-3.9760001 -2.175 -1.7539999 0.22
-3.9749999 -2.191 -1.757 0.18000001
-3.9590001 -2.1900001 -1.751 0.23999999
-3.9630001 -2.2090001 -1.756 0.18000001
-3.9549999 -2.221 -1.755 0.23999999
-3.9400001 -2.2290001 -1.752 0.23999999
-3.9289999 -2.2390001 -1.75 0.20999999
-3.9289999 -2.2550001 -1.753 0.23
-3.914 -2.263 -1.749 0.18000001
-3.937 -2.2850001 -1.762 0.23999999
-3.9089999 -2.2850001 -1.752 0.20999999
-3.905 -2.299 -1.7539999 0.20999999
-3.9030001 -2.3139999 -1.756 0.19
-3.895 -2.326 -1.756 0.22
-3.8940001 -2.3429999 -1.7589999 0.19
-3.882 -2.352 -1.757 0.23
-3.8870001 -2.3629999 -1.761 0.20999999
-3.8759999 -2.3729999 -1.7589999 0.20999999
-3.868 -2.385 -1.7589999 0.2
-3.858 -2.395 -1.758 0.12
-3.842 -2.4030001 -1.7539999 0.2
-3.849 -2.424 -1.761 0.11
-3.8269999 -2.427 -1.7539999 0.20999999
-3.8280001 -2.4360001 -1.756 0.11
-3.8110001 -2.4419999 -1.752 0.18000001
-3.8069999 -2.4560001 -1.753 0.18000001
-3.802 -2.47 -1.755 0.090000004
-3.806 -2.49 -1.761 0.18000001
-3.7939999 -2.4990001 -1.7589999 0.19
-3.786 -2.51 -1.7589999 0.20999999
-3.7869999 -2.52 -1.761 0.1
-3.7650001 -2.5220001 -1.7539999 0.2
-3.7650001 -2.539 -1.758 0.2
-3.7609999 -2.5539999 -1.76 0.090000004
-3.744 -2.5599999 -1.755 0.19
-3.753 -2.5829999 -1.7640001 0.050000001
-3.7360001 -2.5880001 -1.7589999 0.17
-3.7290001 -2.592 -1.758 0.11
-3.72 -2.6040001 -1.758 0.19
-3.714 -2.6170001 -1.7589999 0.2
-3.7130001 -2.6340001 -1.762 0.23
-3.7049999 -2.645 -1.762 0.19
-3.687 -2.6500001 -1.758 0.23
-3.6849999 -2.6659999 -1.761 0.19
-3.688 -2.678 -1.765 0.23
-3.6630001 -2.677 -1.756 0.23999999
-3.665 -2.6960001 -1.762 0.28
-3.6659999 -2.714 -1.766 0.20999999
-3.648 -2.7190001 -1.762 0.14
-3.6340001 -2.7260001 -1.7589999 0.2
-3.622 -2.7349999 -1.757 0.18000001
-3.6229999 -2.753 -1.762 0.090000004
-3.609 -2.7520001 -1.757 0.17
-3.602 -2.7650001 -1.758 0.20999999
-3.5880001 -2.7720001 -1.755 0.1
-3.575 -2.779 -1.752 0.17
-3.572 -2.7950001 -1.755 0.20999999
-3.5639999 -2.8080001 -1.756 0.20999999
-3.5409999 -2.8069999 -1.749 0.20999999
-3.5450001 -2.8199999 -1.753 0.19
-3.5280001 -2.8239999 -1.749 0.20999999
-3.526 -2.8410001 -1.752 0.1
-3.5109999 -2.8469999 -1.749 0.18000001
-3.5079999 -2.8629999 -1.752 0.12
-3.484 -2.8610001 -1.744 0.2
-3.484 -2.8800001 -1.749 0.11
-3.474 -2.881 -1.7460001 0.20999999
-3.471 -2.8959999 -1.749 0.11
-3.4590001 -2.905 -1.748 0.19
-3.45 -2.9159999 -1.748 0.20999999
-3.448 -2.9330001 -1.752 0.20999999
-3.437 -2.9419999 -1.751 0.23
-3.4349999 -2.9590001 -1.755 0.19
-3.4260001 -2.961 -1.752 0.23
-3.4170001 -2.9719999 -1.752 0.19
-3.4200001 -2.993 -1.7589999 0.20999999
-3.405 -2.9990001 -1.756 0.2
-3.3970001 -3.0109999 -1.757 0.22
-3.3940001 -3.0280001 -1.761 0.17
-3.392 -3.036 -1.762 0.25
-3.395 -3.0580001 -1.7690001 0.23
-3.381 -3.0650001 -1.767 0.22
-3.365 -3.069 -1.763 0.23
-3.3559999 -3.0810001 -1.7640001 0.2
-3.352 -3.096 -1.767 0.23999999
-3.3299999 -3.095 -1.76 0.23999999
-3.329 -3.1040001 -1.762 0.19
-3.322 -3.1170001 -1.7640001 0.27000001
-3.3139999 -3.1289999 -1.765 0.22
-3.3080001 -3.1429999 -1.767 0.2
-3.2980001 -3.154 -1.767 0.25
-3.289 -3.165 -1.768 0.2
-3.273 -3.1689999 -1.7640001 0.23
-3.2520001 -3.1689999 -1.758 0.23
-3.2590001 -3.1860001 -1.765 0.2
-3.247 -3.1930001 -1.763 0.23999999
-3.24 -3.2079999 -1.765 0.22
-3.2290001 -3.2160001 -1.765 0.20999999
-3.2119999 -3.22 -1.761 0.25
-3.2049999 -3.233 -1.762 0.2
-3.1989999 -3.247 -1.765 0.23999999
-3.1949999 -3.253 -1.765 0.20999999
-3.178 -3.256 -1.762 0.23
-3.168 -3.266 -1.762 0.2
-3.152 -3.2709999 -1.7589999 0.22
-3.151 -3.29 -1.7640001 0.2
-3.141 -3.3 -1.7640001 0.23999999
-3.128 -3.3069999 -1.762 0.20999999
-3.118 -3.3069999 -1.7589999 0.22
-3.115 -3.325 -1.7640001 0.2
-3.095 -3.325 -1.7589999 0.22
-3.0929999 -3.3429999 -1.763 0.2
-3.0840001 -3.355 -1.765 0.22
-3.0699999 -3.3610001 -1.762 0.19
-3.0569999 -3.368 -1.761 0.22
-3.073 -3.3959999 -1.774 0
-3.039 -3.3789999 -1.7589999 0
-3.0439999 -3.4070001 -1.7690001 0
-0.98400003 -1.442 -0.60399997 0
-2.4909999 -3.868 -1.7819999 0
-2.471 -3.865 -1.777 0.059999999
-2.4400001 -3.8410001 -1.762 0.15000001
