# .PCD v0.7 - Point Cloud Data file format
VERSION 0.7
FIELDS x y z intensity
SIZE 4 4 4 4
TYPE F F F F
COUNT 1 1 1 1
WIDTH 1422
HEIGHT 1
VIEWPOINT 0 0 0 1 0 0 0
POINTS 1422
DATA ascii
1.2640001 12.962 0.103 0.27000001
1.223 12.972 0.103 0.44999999
1.137 12.482 0.107 0.38
1.096 12.466 0.107 0.31
1.095 12.908 0.104 0.38
1.044 12.787 0.105 0.31999999
1.013 12.912 0.104 0.31999999
0.98799998 12.854 0.104 0.38999999
0.95499998 12.947 0.104 0.27000001
0.93699998 13.267 0.101 0.38
0.90100002 13.347 0.101 0.44999999
0.85600001 13.314 0.101 0.41999999
0.82599998 13.495 0.098999999 0.38
0.78299999 13.497 0.098999999 0.36000001
0.773 13.684 0.097999997 0.36000001
0.71600002 13.435 0.1 0.28
0.67799997 13.509 0.098999999 0.44999999
0.65200001 13.855 0.097000003 0.23
0.60399997 13.765 0.097000003 0.25999999
0.56300002 13.8 0.097000003 0.41
0.52399999 13.932 0.096000001 0.49000001
0.49399999 14.297 0.093000002 0.18000001
0.47400001 14.37 0.093000002 0.20999999
0.53899997 17.862 0.064999998 0.27000001
0.48300001 17.861 0.064999998 0.43000001
0.42699999 17.861 0.064999998 0.44
0.36899999 17.792 0.066 0.44999999
0.31299999 17.767 0.066 0.46000001
0.257 17.766001 0.066 0.44999999
0.229 17.768 0.066 0.44999999
0.17299999 17.761 0.066 0.44999999
0.117 17.759001 0.066 0.44999999
0.061000001 17.756001 0.066 0.44999999
0.0060000001 17.75 0.066 0.44999999
-0.050000001 17.9 0.064999998 0.87
-0.106 17.871 0.064999998 0.76999998
-0.13500001 17.868999 0.064999998 0.50999999
-0.19 17.847 0.064999998 0.54000002
-0.24699999 17.864 0.064999998 0.40000001
-0.303 17.847 0.064999998 0.51999998
-0.359 17.848 0.064999998 0.40000001
-0.41499999 17.849001 0.064999998 0.41
-0.47099999 17.844999 0.064999998 0.47
-0.49900001 17.834999 0.064999998 0.67000002
-0.55900002 17.987 0.064000003 0.57999998
-0.47099999 13.56 0.098999999 0
-0.51599997 13.624 0.097999997 0
-0.55699998 13.58 0.098999999 0
-0.597 13.521 0.098999999 0
-0.83700001 17.868 0.064999998 0
-0.86500001 17.865 0.064999998 0
-0.70099998 13.466 0.1 0
-0.977 17.861 0.064999998 0
-1.034 17.865999 0.064999998 0
-1.089 17.855 0.064999998 0
-0.866 13.394 0.1 0
-0.90499997 13.345 0.101 0
-1.229 17.837 0.064999998 0
-1.286 17.851 0.064999998 0
-1.342 17.837 0.064999998 0
-1.057 13.4 0.1 0
-1.454 17.827 0.064999998 0
-1.51 17.823999 0.064999998 0
-1.566 17.819 0.064999998 0
-1.226 13.396 0.1 0
-1.248 13.404 0.1 0
-1.704 17.792 0.064999998 0
-1.337 13.446 0.098999999 0
-1.383 13.477 0.098999999 0
-1.433 13.546 0.098999999 0
-1.478 13.566 0.097999997 0
-1.502 13.589 0.097999997 0
-1.553 13.656 0.097999997 0
-1.603 13.714 0.097000003 0
-2.2320001 17.712 0.064999998 0.38999999
-2.2880001 17.711 0.064999998 0.51999998
-2.3169999 17.712999 0.064999998 0.37
-2.3729999 17.707001 0.064999998 0.46000001
-2.428 17.695999 0.064999998 0.38999999
-2.484 17.690001 0.064999998 0.49000001
-2.5409999 17.698 0.064999998 0.36000001
-2.5969999 17.691999 0.064999998 0.47999999
-2.654 17.691999 0.064999998 0.36000001
-2.7079999 17.674999 0.064999998 0.56999999
-2.7390001 17.688999 0.064999998 0.31999999
-2.793 17.674 0.064999998 0.44999999
-2.8529999 17.688999 0.064999998 0.34
-2.908 17.676001 0.064999998 0.47
-2.9630001 17.663 0.064999998 0.38999999
-3.0209999 17.673 0.064999998 0.44
-3.0780001 17.667999 0.064999998 0.34
-3.105 17.663 0.064999998 0.44999999
-3.1619999 17.660999 0.064999998 0.43000001
-3.2190001 17.659 0.064000003 0.36000001
-3.2739999 17.645 0.064000003 0.49000001
-3.335 17.666 0.064000003 0.36000001
-3.3889999 17.645 0.064000003 0.47999999
-3.447 17.648001 0.064000003 0.34999999
-3.477 17.655001 0.064000003 0.54000002
-3.529 17.628 0.064000003 0.52999997
-3.5880001 17.632 0.064000003 0.38999999
-3.6440001 17.625 0.064000003 0.47999999
-3.7030001 17.632999 0.064000003 0.37
-3.756 17.608 0.064000003 0.49000001
-3.8150001 17.615 0.064000003 0.36000001
-3.842 17.605 0.064000003 0.49000001
-3.901 17.611 0.064000003 0.37
-3.957 17.6 0.064000003 0.5
-4.0139999 17.598 0.064000003 0.38
-4.0689998 17.580999 0.064000003 0.47999999
-4.1290002 17.591999 0.064000003 0.36000001
-4.1830001 17.573 0.064000003 0.47999999
-4.2119999 17.572001 0.064000003 0.37
-4.27 17.57 0.063000001 0.50999999
-4.3260002 17.561001 0.063000001 0.38
-4.3839998 17.556999 0.063000001 0.49000001
-4.4439998 17.562 0.063000001 0.38
-4.4970002 17.538 0.063000001 0.5
-4.5539999 17.532 0.063000001 0.37
-4.612 17.531 0.063000001 0.47
-4.6409998 17.530001 0.063000001 0.38
-4.6999998 17.527 0.063000001 0.44999999
-4.7589998 17.527 0.063000001 0.34999999
-4.8119998 17.506001 0.063000001 0.47
-4.8730001 17.51 0.063000001 0.34999999
-4.9289999 17.500999 0.063000001 0.46000001
-4.9860001 17.493 0.063000001 0.37
-5.0139999 17.485001 0.063000001 0.62
-5.1479998 17.743999 0.059999999 0
-5.1399999 17.509001 0.061999999 0
-0.51899999 1.627 0.193 0
-0.52200001 1.618 0.193 0
-0.52999997 1.636 0.192 0
-0.537 1.6390001 0.192 0
-0.53899997 1.6289999 0.192 0
-0.54900002 1.641 0.192 0
-0.55000001 1.626 0.192 0
-0.55599999 1.628 0.192 0
-0.565 1.638 0.192 0
-0.565 1.6289999 0.192 0
-0.56900001 1.623 0.192 0
-0.57800001 1.635 0.192 0
-0.583 1.633 0.192 0
-0.58600003 1.624 0.192 0
-0.59200001 1.626 0.192 0
-0.59399998 1.614 0.192 0
-0.60100001 1.6160001 0.192 0
-0.60799998 1.63 0.192 0
-0.61500001 1.632 0.192 0
-0.61699998 1.623 0.192 0
-0.61799997 1.608 0.192 0
-0.63 1.624 0.192 0
-0.63599998 1.626 0.192 0
-0.63599998 1.618 0.192 0
-0.639 1.61 0.192 0
-0.64499998 1.612 0.192 0
-0.65600002 1.625 0.192 0
-0.65899998 1.617 0.192 0
-0.66500002 1.617 0.192 0
-0.66900003 1.613 0.192 0
-0.67400002 1.617 0.192 0
-0.68000001 1.617 0.192 0
-0.68400002 1.613 0.192 0
-0.68900001 1.6109999 0.192 0
-0.69599998 1.613 0.192 0
-0.704 1.618 0.192 0
-0.70700002 1.612 0.192 0
-0.713 1.6109999 0.192 0
-7.5780001 17.087 0.059 0
-0.72399998 1.6289999 0.192 0
-7.7210002 17.264 0.057 0
-0.75300002 1.683 0.191 0
-2.529 5.5640001 0.15800001 0.11
-2.5020001 5.4819999 0.15800001 0.11
-2.52 5.474 0.15800001 0.14
-2.5450001 5.4840002 0.15800001 0.18000001
-8.0620003 17.219999 0.056000002 0.23999999
-8.1269999 17.219999 0.056000002 0.52999997
-8.1940002 17.219999 0.056000002 0.38999999
-8.224 17.214001 0.056000002 0.52999997
-8.2950001 17.224001 0.055 0.40000001
-8.3500004 17.200001 0.055 0.52999997
-8.4239998 17.212999 0.055 0.40000001
-8.4860001 17.202999 0.055 0.52999997
-8.5480003 17.194 0.055 0.38999999
-8.6090002 17.179001 0.054000001 0.51999998
-8.6540003 17.202 0.054000001 0.38999999
-8.71 17.18 0.054000001 0.52999997
-8.7810001 17.184 0.054000001 0.40000001
-8.8459997 17.18 0.054000001 0.41
-8.9040003 17.159 0.054000001 0.54000002
-8.9720001 17.158001 0.052999999 0.38
-9.0380001 17.152 0.052999999 0.44
-9.1129999 17.23 0.052000001 0.66000003
-5.737 10.744 0.11 0.31999999
-9.198 17.128 0.052999999 0.18000001
-9.2600002 17.115 0.052999999 0.28999999
-9.3039999 17.069 0.052999999 0.41999999
-9.368 17.059 0.052999999 0.41999999
-9.4350004 17.054001 0.052000001 0.41999999
-9.4969997 17.038 0.052000001 0.54000002
-9.5380001 17.049 0.052000001 0.40000001
-9.5979996 17.031 0.052000001 0.52999997
-9.6420002 16.983999 0.052000001 0.38
-9.6789999 16.924999 0.052000001 0.40000001
-9.7399998 16.909 0.052000001 0.51999998
-9.8120003 16.909 0.052000001 0.38999999
-9.8780003 16.900999 0.052000001 0.41
-9.9200001 16.913 0.050999999 0.51999998
-9.9890003 16.908001 0.050999999 0.40000001
-10.055 16.898001 0.050999999 0.41
-10.12 16.886999 0.050999999 0.51999998
-10.195 16.891001 0.050000001 0.40000001
-10.263 16.882999 0.050000001 0.41
-10.326 16.868 0.050000001 0.50999999
-10.372 16.884001 0.050000001 0.38
-10.437 16.870001 0.050000001 0.41
-10.539 16.917 0.048999999 0.68000001
-10.643 16.965 0.048 0
-10.643 16.847 0.048999999 0
-3.1110001 4.8049998 0.161 0
-3.125 4.7940001 0.161 0
-3.142 4.7870002 0.161 0
-3.1730001 4.802 0.161 0
-3.1960001 4.8039999 0.161 0
-3.211 4.7940001 0.161 0
-3.2119999 4.7620001 0.161 0
-3.2130001 4.7319999 0.161 0
-3.2049999 4.704 0.161 0
-11.837 16.749001 0.044 0.27000001
-11.92 16.754 0.044 0.34999999
-11.992 16.743999 0.044 0.47
-12.07 16.742001 0.043000001 0.34999999
-12.141 16.728001 0.043000001 0.47
-12.217 16.723 0.043000001 0.34
-12.288 16.709999 0.041999999 0.46000001
-12.342 16.728001 0.041999999 0.34999999
-12.413 16.714001 0.041999999 0.47
-12.492 16.711 0.041000001 0.34
-12.561 16.694 0.041000001 0.55000001
-12.645 16.695999 0.041000001 0.34
-12.718 16.683001 0.041000001 0.44999999
-12.771 16.698 0.039999999 0.34
-12.843 16.683001 0.039999999 0.44999999
-12.933 16.691999 0.039000001 0.34
-12.995 16.664 0.039000001 0.56
-13.084 16.67 0.039000001 0.33000001
-13.156 16.653999 0.039000001 0.46000001
-13.235 16.645 0.037999999 0.34
-13.302 16.622 0.037999999 0.55000001
-13.324 16.597 0.037999999 0.44
-13.378 16.556 0.037999999 0.31
-13.443 16.531 0.037999999 0.58999997
-13.436 16.416 0.039000001 0.33000001
-13.522 16.416 0.037999999 0.20999999
-1.3940001 1.645 0.189 0.23
-1.403 1.645 0.189 0.25
-1.398 1.6339999 0.189 0.25
-1.395 1.62 0.189 0.27000001
-1.397 1.6109999 0.189 0.25999999
-1.392 1.596 0.189 0.25999999
-1.391 1.584 0.189 0.25999999
-1.392 1.575 0.189 0.25999999
-1.3940001 1.568 0.189 0.27000001
-1.397 1.5599999 0.189 0.27000001
-1.3940001 1.552 0.19 0.27000001
-1.3890001 1.5369999 0.19 0.27000001
-1.39 1.528 0.19 0.25999999
-1.391 1.52 0.19 0.11
-1.381 1.499 0.19 0.16
-1.383 1.492 0.19 0.12
-1.376 1.479 0.19 0.16
-1.3789999 1.473 0.19 0.28
-1.3789999 1.4630001 0.19 0.27000001
-1.38 1.456 0.19 0.11
-1.362 1.426 0.19 0.17
-1.368 1.424 0.19 0.11
-1.372 1.419 0.19 0.17
-1.368 1.41 0.191 0.12
-1.362 1.395 0.191 0.16
-1.3710001 1.396 0.191 0.12
-1.364 1.38 0.191 0.18000001
-1.37 1.377 0.191 0.28999999
-1.376 1.374 0.191 0.19
-1.363 1.352 0.191 0.18000001
-1.3660001 1.347 0.191 0.28
-1.369 1.346 0.191 0.19
-1.355 1.323 0.191 0.18000001
-1.357 1.316 0.191 0.12
-1.359 1.311 0.191 0.17
-1.362 1.3049999 0.191 0.12
-1.349 1.284 0.191 0.17
-1.367 1.293 0.191 0.28
-1.355 1.277 0.191 0.19
-1.35 1.265 0.191 0.18000001
-1.351 1.258 0.191 0.12
-1.347 1.245 0.192 0.17
-1.369 1.2589999 0.191 0.30000001
-1.398 1.278 0.191 0
-1.404 1.275 0.191 0
-1.406 1.273 0.191 0
-1.426 1.283 0.191 0
-1.424 1.273 0.191 0
-1.438 1.278 0.191 0
-1.4450001 1.276 0.191 0
-1.451 1.273 0.191 0
-1.462 1.275 0.191 0
-1.473 1.281 0.191 0
-1.477 1.276 0.191 0
-1.49 1.28 0.191 0
-1.485 1.267 0.191 0
-1.498 1.27 0.191 0
-1.517 1.279 0.19 0
-1.529 1.28 0.19 0
-1.5190001 1.268 0.19 0
-1.53 1.2690001 0.19 0
-1.5420001 1.271 0.19 0
-1.561 1.279 0.19 0
-1.579 1.286 0.19 0
-1.572 1.272 0.19 0
-1.584 1.273 0.19 0
-1.597 1.279 0.19 0
-1.607 1.28 0.19 0
-1.619 1.281 0.19 0
-1.624 1.277 0.19 0
-1.641 1.2819999 0.19 0
-1.679 1.304 0.189 0
-1.6569999 1.278 0.19 0.059999999
-1.665 1.28 0.189 0.2
-1.674 1.279 0.189 0.25999999
-1.694 1.286 0.189 0.22
-1.7180001 1.296 0.189 0.25
-1.7 1.274 0.189 0.2
-1.701 1.266 0.189 0.13
-1.724 1.275 0.189 0.41999999
-1.726 1.272 0.189 0.44999999
-1.725 1.263 0.189 0.47
-1.719 1.251 0.189 0.49000001
-33.087002 23.938 -0.116 0
-1.633 1.179 0.19 0.18000001
-33.255001 23.900999 -0.117 0.11
-1.716 1.232 0.189 0
-33.476002 23.900999 -0.118 0.31
-1.705 1.216 0.189 0
-33.672001 23.881001 -0.12 0.20999999
-1.699 1.2029999 0.19 0
-33.842999 23.844 -0.12 0.18000001
-34.054001 23.832001 -0.122 0.49000001
-34.255001 23.813 -0.123 0.22
-34.402 23.836 -0.124 0.27000001
-22.580999 15.53 -0.0099999998 0.20999999
-22.545 15.401 -0.0089999996 0.18000001
-22.465 15.242 -0.0080000004 0.54000002
-35.226002 23.757999 -0.12899999 0.20999999
-35.403999 23.716 -0.13 0.25
-22.767 15.136 -0.0099999998 0.31
-22.731001 15.01 -0.0089999996 0.34999999
-35.994999 23.705 -0.134 0.28999999
-36.195999 23.674999 -0.13500001 0.25999999
-36.401001 23.646 -0.13600001 0.19
-36.625 23.628 -0.138 0.47
-36.837002 23.601 -0.139 0.22
-37.058998 23.58 -0.14 0.28999999
-37.272999 23.552 -0.142 0.27000001
-37.445999 23.579 -0.14300001 0.28
-37.661999 23.551001 -0.14399999 0.27000001
-37.896999 23.532 -0.146 0.23
-22.5 13.862 -0.0020000001 0.16
-22.52 13.776 -0.0020000001 0.50999999
-38.573002 23.452 -0.15000001 0.27000001
-38.806 23.427 -0.15099999 0.27000001
-39.001999 23.462 -0.153 0.23
-39.214001 23.422001 -0.154 0.15000001
-22.521999 13.343 -0 0.46000001
-22.362 13.153 0.001 0
-3.0250001 1.7410001 0.178 0
-3.02 1.725 0.17900001 0
-3.0190001 1.712 0.17900001 0
-2.997 1.693 0.17900001 0
-3.0009999 1.682 0.17900001 0
-3.0090001 1.675 0.17900001 0
-2.9990001 1.6569999 0.17900001 0
-2.983 1.636 0.17900001 0
-2.9460001 1.603 0.18000001 0
-2.8710001 1.549 0.18000001 0
-2.8499999 1.5319999 0.18000001 0
-2.852 1.521 0.18099999 0
-2.858 1.513 0.18099999 0
-2.881 1.5140001 0.18000001 0
-2.898 1.511 0.18000001 0
-2.938 1.521 0.18000001 0
-2.9760001 1.529 0.18000001 0
-2.97 1.52 0.18000001 0
-2.9619999 1.5039999 0.18000001 0
-2.96 1.4910001 0.18000001 0
-2.973 1.487 0.18000001 0
-2.967 1.472 0.18000001 0
-2.97 1.462 0.18000001 0
-2.957 1.443 0.18000001 0
-2.948 1.433 0.18000001 0
-2.9330001 1.414 0.18000001 0
-2.937 1.405 0.18000001 0
-2.9630001 1.406 0.18000001 0
-2.95 1.388 0.18000001 0
-2.96 1.382 0.18000001 0
-2.9419999 1.362 0.18000001 0
-2.9389999 1.355 0.18000001 0
-2.9560001 1.352 0.18000001 0
-24.870001 11.301 -0.0089999996 0.18000001
-24.805 11.178 -0.0089999996 0.27000001
-25.035999 11.187 -0.0099999998 0.31999999
-24.948999 11.101 -0.0089999996 0.36000001
-24.929001 10.999 -0.0089999996 0.22
-25.110001 10.985 -0.0099999998 0.31999999
-25.004999 10.845 -0.0089999996 0.31
-24.941 10.724 -0.0080000004 0.34999999
-29.961 12.777 -0.050999999 0.19
-29.065001 12.286 -0.043000001 0.19
-25.118999 10.568 -0.0089999996 0.50999999
-29.979 12.507 -0.050000001 0.13
-25.386 10.493 -0.011 0
-25.302 10.366 -0.0099999998 0
-25.305 10.274 -0.0089999996 0.11
-25.315001 10.186 -0.0089999996 0.23
-29.573999 11.742 -0.045000002 0.52999997
-37.344002 14.699 -0.11 0
-29.690001 11.573 -0.045000002 0.1
-37.617001 14.534 -0.112 0.25
-24.143 9.2309999 0.0020000001 0
-37.459999 14.069 -0.11 0.16
-26.621 9.9420004 -0.017999999 0.23999999
-37.712002 13.961 -0.111 0.20999999
-30.809999 11.291 -0.052999999 0.19
-26.836 9.7360001 -0.018999999 0.25999999
-31.309 11.252 -0.056000002 0.13
-31.070999 11.056 -0.054000001 0.14
-23.33 8.2119999 0.011 0.54000002
-23.315001 8.1660004 0.011 0.14
-31.674 10.991 -0.057999998 0.12
-30.733 10.556 -0.050000001 0.25999999
-30.674999 10.428 -0.048999999 0.34
-30.504999 10.263 -0.048 0.20999999
-30.723 10.23 -0.048999999 0.34999999
-30.774 10.139 -0.050000001 0.41
-30.327999 9.8870001 -0.046 0.20999999
-30.152 9.7770004 -0.044 0
-32.380001 10.389 -0.061999999 0.13
-30.226 9.5909996 -0.044 0.15000001
-30.327 9.5179996 -0.045000002 0.25
-30.402 9.4370003 -0.045000002 0.30000001
-30.606001 9.3950005 -0.046 0.13
-30.826 9.3570004 -0.048 0.20999999
-30.573 9.2279997 -0.046 0.18000001
-30.780001 9.1850004 -0.046999998 0.15000001
-31.747999 9.3660002 -0.055 0.23
-32.089001 9.3570004 -0.057999998 0.14
-37.695 10.869 -0.103 0.11
-35.479 10.108 -0.085000001 0.13
-35.543999 10.005 -0.085000001 0.17
-35.563 9.9510002 -0.085000001 0.2
-35.327999 9.7650003 -0.082999997 0.36000001
-35.653999 9.7349997 -0.085000001 0.2
-35.959 9.6969995 -0.088 0.34999999
-36.080002 9.6079998 -0.088 0.20999999
-37.082001 9.7510004 -0.096000001 0.34
-37.291 9.6809998 -0.097999997 0.19
-45.335999 11.699 -0.163 0.14
-44.054001 11.22 -0.152 0.14
-44.152 11.098 -0.153 0.20999999
-43.922001 10.893 -0.15099999 0.16
-43.988998 10.763 -0.15099999 0.38999999
-44.008999 10.622 -0.15099999 0.19
-43.762001 10.417 -0.149 0.090000004
-42.817001 10.12 -0.141 0.079999998
-42.679001 9.9460001 -0.14 0.14
-42.752998 9.8219995 -0.14 0.28
-45.043999 10.2 -0.15800001 0.19
-45.047001 10.052 -0.15800001 0.18000001
-45.039001 9.9020004 -0.15800001 0.18000001
-45.068001 9.7600002 -0.15800001 0.41
-44.903 9.651 -0.156 0
-44.516998 9.4209995 -0.153 0
-45.463001 9.3240004 -0.16 0.37
-45.400002 9.1619997 -0.15899999 0.19
-42.741001 8.4840002 -0.138 0
-44.007999 8.5930004 -0.148 0
-43.833 8.4870005 -0.146 0
-43.971001 8.3710003 -0.147 0.13
-44.208 8.2720003 -0.149 0.23
-46.192001 8.4949999 -0.164 0.16
-46.188999 8.3439999 -0.164 0.16
-46.167999 8.191 -0.164 0
-54.188999 6.9169998 -0.22499999 0
-52.983002 -4.4359999 -0.213 0.039999999
-56.366001 -7.7659998 -0.243 0
-45.611 -8.3470001 -0.16 0
-42.375999 -8.1009998 -0.134 0
-36.785 -7.5760002 -0.090000004 0.12
-36.959 -7.7329998 -0.092 0
-77.713997 -16.486 -0.41999999 0
-50.974998 -11.494 -0.206 0.050000001
-31.525 -7.2750001 -0.048999999 0
-77.463997 -18.35 -0.42199999 0
-77.375 -18.586 -0.42199999 0
-28.566 -7.0689998 -0.026000001 0.20999999
-50.679001 -12.604 -0.206 0
-50.675999 -12.773 -0.206 0
-26.091 -6.8509998 -0.0070000002 0
-52.639 -14.772 -0.22499999 0.27000001
-52.581001 -14.934 -0.22499999 0.25
-52.526001 -15.097 -0.22499999 0.14
-20.837999 -6.0760002 0.035 0.30000001
-20.556 -6.0289998 0.037 0.27000001
-20.431 -6.0630002 0.037999999 0.44
-20.429001 -6.132 0.037999999 0.34
-20.417 -6.1989999 0.037999999 0.37
-20.413 -6.2670002 0.037999999 0.38
-20.403 -6.3340001 0.037999999 0.43000001
-20.398001 -6.4029999 0.037 0.36000001
-20.405001 -6.441 0.037 0.40000001
-20.393999 -6.5079999 0.037 0.38
-20.386999 -6.5760002 0.037 0.41
-20.601999 -6.717 0.035 0.38999999
-10.049 -3.3599999 0.122 0.16
-10.048 -3.395 0.122 0
-15.559 -5.6529999 0.075000003 0.34
-15.382 -5.6170001 0.077 0.38
-15.201 -5.605 0.078000002 0.44999999
-15.056 -5.6059999 0.079000004 0.25999999
-15.035 -5.651 0.079000004 0.55000001
-15.045 -5.7090001 0.079000004 0.25999999
-15.029 -5.757 0.079000004 0.50999999
-15.029 -5.8119998 0.079000004 0.30000001
-15.026 -5.8369999 0.079000004 0.5
-15.03 -5.8930001 0.079000004 0.31999999
-15.017 -5.9429998 0.079000004 0.5
-15.015 -5.9959998 0.079000004 0.34999999
-15.009 -6.0489998 0.078000002 0.38
-14.993 -6.0970001 0.078000002 0.46000001
-15 -6.1550002 0.078000002 0.30000001
-15.048 -6.2020001 0.078000002 0.63
-14.788 -6.1500001 0.079999998 0
-41.443001 -18.966 -0.153 0
-25.558001 -12.147 -0.017000001 0.11
-25.631001 -12.281 -0.017999999 0
-10.147 -5.217 0.116 0.12
-10.064 -5.1950002 0.117 0.38
-9.9790001 -5.1900001 0.117 0.34
-9.8990002 -5.1880002 0.118 0.40000001
-9.8039999 -5.1789999 0.119 0.38
-9.724 -5.1760001 0.119 0.28999999
-9.6569996 -5.1789999 0.12 0.41999999
-9.6540003 -5.197 0.12 0.34
-9.6590004 -5.2389998 0.119 0.41
-9.6529999 -5.2750001 0.119 0.36000001
-9.6470003 -5.3109999 0.119 0.41999999
-9.6420002 -5.348 0.119 0.34999999
-9.6409998 -5.3870001 0.119 0.41
-9.6450005 -5.4289999 0.119 0.31999999
-9.6470003 -5.4499998 0.119 0.41999999
-9.6389999 -5.4850001 0.119 0.40000001
-9.6300001 -5.52 0.118 0.34
-9.6280003 -5.559 0.118 0.41999999
-9.6140003 -5.592 0.118 0.38999999
-9.6239996 -5.638 0.118 0.36000001
-9.6199999 -5.6760001 0.118 0.41999999
-9.6289997 -5.7010002 0.118 0.33000001
-9.6090002 -5.7309999 0.118 0.43000001
-9.6099997 -5.7719998 0.118 0.38999999
-13.344 -8.0600004 0.082999997 0.36000001
-13.259 -8.066 0.083999999 0.27000001
-13.152 -8.0579996 0.083999999 0.51999998
-13.056 -8.0559998 0.085000001 0.25999999
-12.944 -8.0430002 0.086000003 0.47999999
-12.865 -8.0220003 0.086000003 0.37
-12.764 -8.0150003 0.086999997 0.38
-12.673 -8.0139999 0.088 0.44999999
-12.575 -8.007 0.088 0.36000001
-12.477 -8 0.089000002 0.44999999
-12.38 -7.993 0.090000004 0.38999999
-12.296 -7.994 0.090000004 0.36000001
-12.218 -7.9710002 0.090999998 0.38999999
-12.129 -7.967 0.092 0.47999999
-12.032 -7.9580002 0.092 0.41999999
-11.952 -7.96 0.093000002 0.37
-11.862 -7.954 0.093000002 0.43000001
-11.779 -7.9520001 0.093999997 0.36000001
-11.688 -7.9439998 0.094999999 0.44999999
-11.616 -7.9219999 0.094999999 0.34999999
-11.533 -7.9190001 0.096000001 0.43000001
-11.447 -7.9130001 0.096000001 0.33000001
-11.368 -7.9109998 0.097000003 0.44999999
-11.294 -7.9130001 0.097000003 0.34999999
-11.203 -7.902 0.097999997 0.5
-11.125 -7.8990002 0.097999997 0.31999999
-11.058 -7.8779998 0.098999999 0.44
-10.98 -7.875 0.098999999 0.40000001
-10.903 -7.8720002 0.1 0.34999999
-10.818 -7.8629999 0.101 0.44999999
-10.744 -7.8600001 0.101 0.36000001
-10.666 -7.855 0.102 0.50999999
-10.601 -7.8590002 0.102 0.31999999
-10.537 -7.8369999 0.102 0.43000001
-10.456 -7.8280001 0.103 0.38999999
-10.388 -7.829 0.103 0.34999999
-10.312 -7.823 0.104 0.43000001
-10.243 -7.8210001 0.104 0.47999999
-10.168 -7.8150001 0.105 0.46000001
-6.3249998 -4.9050002 0.14300001 0.27000001
-6.3049998 -4.9050002 0.14300001 0.25
-6.2399998 -4.8870001 0.14399999 0.17
-6.217 -4.9000001 0.14399999 0.44
-6.1620002 -4.8889999 0.14399999 0.23
-6.1259999 -4.8920002 0.14399999 0.2
-6.072 -4.8800001 0.145 0.36000001
-6.0380001 -4.8839998 0.145 0.23
-6.0079999 -4.8759999 0.145 0.15000001
-5.9780002 -4.882 0.145 0.41999999
-5.927 -4.8720002 0.146 0.18000001
-5.8909998 -4.8740001 0.146 0.37
-5.8509998 -4.8720002 0.146 0.18000001
-5.8200002 -4.8779998 0.146 0.25999999
-5.7820001 -4.8769999 0.146 0.18000001
-5.7360001 -4.8540001 0.147 0.23
-5.7069998 -4.8600001 0.147 0.20999999
-5.664 -4.855 0.147 0.23
-5.619 -4.8460002 0.147 0.20999999
-5.5929999 -4.855 0.148 0.23
-5.5619998 -4.8590002 0.148 0.18000001
-5.5170002 -4.8499999 0.148 0.33000001
-5.4809999 -4.8340001 0.148 0.2
-5.4390001 -4.8270001 0.149 0.2
-5.4109998 -4.8340001 0.149 0.22
-5.3649998 -4.823 0.149 0.17
-5.3449998 -4.836 0.149 0.34
-5.2870002 -4.8140001 0.15000001 0.16
-5.2670002 -4.8260002 0.15000001 0.25999999
-5.2389998 -4.816 0.15000001 0.18000001
-5.2059999 -4.816 0.15000001 0.28999999
-5.1719999 -4.8140001 0.15000001 0.27000001
-5.1409998 -4.816 0.15000001 0.2
-5.0879998 -4.796 0.15099999 0.14
-5.0549998 -4.796 0.15099999 0.14
-5.0359998 -4.8080001 0.15099999 0.16
-4.9959998 -4.7849998 0.15099999 0.12
-4.9619999 -4.783 0.152 0.16
-4.9400001 -4.7909999 0.152 0.30000001
-4.9050002 -4.7870002 0.152 0.27000001
-4.8800001 -4.7930002 0.152 0.25999999
-4.8330002 -4.7779999 0.152 0.11
-4.803 -4.777 0.153 0.16
-4.789 -4.7789998 0.153 0.20999999
-4.7659998 -4.7859998 0.153 0.15000001
-4.723 -4.7719998 0.153 0.13
-4.6869998 -4.7659998 0.153 0.16
-4.6560001 -4.7649999 0.153 0.28999999
-4.6160002 -4.7540002 0.154 0.11
-4.5999999 -4.7670002 0.154 0.16
-4.5879998 -4.77 0.154 0.28999999
-4.5310001 -4.7410002 0.154 0.1
-4.5 -4.7379999 0.154 0.14
-4.4819999 -4.7490001 0.155 0.28999999
-4.4559999 -4.7509999 0.155 0.27000001
-4.4289999 -4.7519999 0.155 0.27000001
-4.3909998 -4.7410002 0.155 0.11
-4.3639998 -4.7280002 0.155 0.13
-4.336 -4.7270002 0.155 0.13
-4.3140001 -4.7329998 0.156 0.15000001
-4.283 -4.7290001 0.156 0.28
-4.2610002 -4.7350001 0.156 0.18000001
-4.2280002 -4.7270002 0.156 0.17
-4.2049999 -4.7319999 0.156 0.18000001
-4.1550002 -4.7059999 0.15700001 0.090000004
-4.1589999 -4.7249999 0.156 0.15000001
-4.1129999 -4.7030001 0.15700001 0.28999999
-4.092 -4.7080002 0.15700001 0.25
-4.0669999 -4.7090001 0.15700001 0.27000001
-4.0469999 -4.7160001 0.15700001 0.25
-4.0149999 -4.7090001 0.15700001 0.25999999
-3.987 -4.7059999 0.15700001 0.25
-3.971 -4.7020001 0.15700001 0.27000001
-3.9389999 -4.6939998 0.15800001 0.25999999
-3.914 -4.6950002 0.15800001 0.25999999
-3.882 -4.6869998 0.15800001 0.25
-3.855 -4.684 0.15800001 0.1
-3.8399999 -4.6960001 0.15800001 0.16
-3.809 -4.6880002 0.15800001 0.11
-3.786 -4.6750002 0.15899999 0.15000001
-3.77 -4.6849999 0.15899999 0.28
-3.7379999 -4.6750002 0.15899999 0.27000001
-3.7149999 -4.6760001 0.15899999 0.18000001
-3.694 -4.6799998 0.15899999 0.17
-3.668 -4.678 0.15899999 0.18000001
-3.652 -4.6869998 0.15899999 0.18000001
-3.6259999 -4.6700001 0.15899999 0.17
-3.609 -4.678 0.15899999 0.17
-3.5669999 -4.6539998 0.16 0.1
-3.5550001 -4.6690001 0.16 0.15000001
-3.529 -4.665 0.16 0.28
-3.5109999 -4.6719999 0.16 0.25999999
-3.493 -4.6630001 0.16 0.25999999
-3.4690001 -4.6609998 0.16 0.27000001
-3.4419999 -4.6560001 0.16 0.25
-3.4230001 -4.6599998 0.16 0.23999999
-3.4030001 -4.665 0.16 0.23999999
-3.3740001 -4.6560001 0.161 0.25
-3.3510001 -4.6550002 0.161 0.25
-3.332 -4.6440001 0.161 0.25
-3.3139999 -4.6500001 0.161 0.23999999
-3.296 -4.6550002 0.161 0.23999999
-3.2679999 -4.6459999 0.161 0.25999999
-3.247 -4.6479998 0.161 0.25999999
-3.223 -4.645 0.161 0.25999999
-3.204 -4.6490002 0.161 0.27000001
-3.1889999 -4.6420002 0.162 0.25
-3.1619999 -4.6339998 0.162 0.27000001
-3.145 -4.6409998 0.162 0.25999999
-3.118 -4.632 0.162 0.25999999
-3.092 -4.6259999 0.162 0.27000001
-3.0599999 -4.6090002 0.162 0.11
-3.0439999 -4.6170001 0.162 0.14
-3.0450001 -4.6329999 0.162 0.28
-3.02 -4.6279998 0.162 0.19
-2.997 -4.6240001 0.163 0.23
-2.9690001 -4.6129999 0.163 0.25
-2.954 -4.6209998 0.163 0.25999999
-2.9330001 -4.6199999 0.163 0.27000001
-2.8989999 -4.599 0.163 0.11
-2.888 -4.6129999 0.163 0.16
-2.8829999 -4.6209998 0.163 0.28
-2.8529999 -4.6059999 0.163 0.11
-2.8269999 -4.5960002 0.163 0.15000001
-2.8210001 -4.619 0.163 0.28
-2.7939999 -4.6069999 0.164 0.11
-2.7679999 -4.5970001 0.164 0.16
-2.756 -4.6090002 0.164 0.28
-2.7479999 -4.6129999 0.164 0.18000001
-2.721 -4.5999999 0.164 0.17
-2.707 -4.6100001 0.164 0.23
-2.6760001 -4.5910001 0.164 0.11
-2.655 -4.5869999 0.164 0.15000001
-2.6389999 -4.5939999 0.164 0.28999999
-2.625 -4.6020002 0.164 0.25
-2.6059999 -4.585 0.164 0.27000001
-2.585 -4.5809999 0.16500001 0.25999999
-2.576 -4.5999999 0.164 0.27000001
-2.549 -4.585 0.16500001 0.27000001
-2.527 -4.579 0.16500001 0.27000001
-2.5150001 -4.5929999 0.16500001 0.27000001
-2.4920001 -4.585 0.16500001 0.27000001
-2.48 -4.5799999 0.16500001 0.18000001
-2.4630001 -4.5819998 0.16500001 0.17
-2.441 -4.5760002 0.16500001 0.18000001
-2.424 -4.5799999 0.16500001 0.17
-2.3989999 -4.566 0.16500001 0.090000004
-2.3759999 -4.5580001 0.16500001 0.14
-2.358 -4.5580001 0.16599999 0.12
-2.3529999 -4.566 0.16599999 0.16
-2.329 -4.5549998 0.16599999 0.11
-2.3150001 -4.5630002 0.16599999 0.16
-2.2939999 -4.5570002 0.16599999 0.12
-2.2720001 -4.5479999 0.16599999 0.16
-2.2550001 -4.5500002 0.16599999 0.12
-2.2360001 -4.5479999 0.16599999 0.16
-2.223 -4.5409999 0.16599999 0.12
-2.204 -4.5370002 0.16599999 0.16
-2.1889999 -4.5419998 0.16599999 0.12
-2.1700001 -4.54 0.16599999 0.17
-2.155 -4.5450001 0.16599999 0.12
-2.135 -4.5409999 0.16599999 0.16
-2.1229999 -4.5510001 0.16599999 0.28
-2.1070001 -4.5370002 0.167 0.11
-2.085 -4.527 0.167 0.14
-2.069 -4.5300002 0.167 0.11
-2.049 -4.5240002 0.167 0.16
-2.0380001 -4.5349998 0.167 0.12
-2.0179999 -4.5289998 0.167 0.16
-1.998 -4.5240002 0.167 0.12
-1.99 -4.526 0.167 0.16
-1.972 -4.5229998 0.167 0.12
-1.95 -4.5110002 0.167 0.16
-1.936 -4.5170002 0.167 0.12
-1.916 -4.5100002 0.167 0.16
-1.9 -4.5120001 0.167 0.12
-1.887 -4.52 0.167 0.16
-1.874 -4.5079999 0.168 0.12
-1.86 -4.5159998 0.167 0.16
-1.844 -4.5159998 0.168 0.28
-1.8279999 -4.5180001 0.168 0.27000001
-1.809 -4.513 0.168 0.18000001
-1.789 -4.5040002 0.168 0.1
-1.779 -4.4990001 0.168 0.15000001
-1.76 -4.4920001 0.168 0.12
-1.747 -4.5009999 0.168 0.16
-1.729 -4.4970002 0.168 0.12
-1.714 -4.4990001 0.168 0.17
-1.696 -4.4949999 0.168 0.12
-1.679 -4.493 0.168 0.17
-1.6619999 -4.4899998 0.168 0.12
-1.654 -4.4910002 0.168 0.16
-1.636 -4.4850001 0.168 0.12
-1.624 -4.4959998 0.168 0.17
-1.604 -4.4840002 0.168 0.12
-1.59 -4.4889998 0.168 0.16
-1.573 -4.4860001 0.169 0.12
-1.557 -4.4879999 0.169 0.16
-1.544 -4.473 0.169 0.12
-1.5319999 -4.4840002 0.169 0.16
-1.521 -4.4980001 0.169 0.28
-1.497 -4.4720001 0.169 0.11
-1.483 -4.4770002 0.169 0.16
-1.465 -4.4699998 0.169 0.12
-1.452 -4.4790001 0.169 0.16
-1.439 -4.4619999 0.169 0.12
-1.426 -4.4699998 0.169 0.17
-1.406 -4.4559999 0.169 0.12
-1.3940001 -4.4679999 0.169 0.17
-1.378 -4.4640002 0.169 0.12
-1.3660001 -4.474 0.169 0.16
-1.351 -4.4520001 0.169 0.12
-1.339 -4.4619999 0.169 0.16
-1.322 -4.4559999 0.169 0.12
-1.308 -4.46 0.169 0.17
-1.29 -4.4530001 0.169 0.12
-1.278 -4.4629998 0.169 0.17
-1.2640001 -4.467 0.169 0.30000001
-1.248 -4.4650002 0.169 0.2
-1.24 -4.461 0.169 0.15000001
-1.227 -4.4689999 0.169 0.31
-1.204 -4.4419999 0.17 0.11
-1.192 -4.4530001 0.17 0.15000001
-1.174 -4.4419999 0.17 0.12
-1.163 -4.4549999 0.17 0.17
-1.1440001 -4.4390001 0.17 0.12
-1.138 -4.447 0.17 0.18000001
-1.1210001 -4.4390001 0.17 0.12
-1.109 -4.448 0.17 0.17
-1.091 -4.4359999 0.17 0.12
-1.0779999 -4.4450002 0.17 0.18000001
-1.0599999 -4.4310002 0.17 0.12
-1.049 -4.4460001 0.17 0.17
-1.038 -4.4299998 0.17 0.12
-1.025 -4.4390001 0.17 0.17
-1.012 -4.4460001 0.17 0.30000001
-0.995 -4.434 0.17 0.2
-0.98299998 -4.4489999 0.17 0.16
-0.96399999 -4.428 0.17 0.13
-0.95300001 -4.4429998 0.17 0.16
-0.94099998 -4.421 0.17 0.12
-0.92900002 -4.4320002 0.17 0.17
-0.91299999 -4.427 0.17 0.12
-0.90100002 -4.4400001 0.17 0.14
-0.88300002 -4.421 0.17 0.12
-0.87199998 -4.4369998 0.17 0.18000001
-0.85299999 -4.4180002 0.171 0.12
-0.84600002 -4.4159999 0.171 0.17
-0.83200002 -4.4200001 0.171 0.12
-0.81900001 -4.4289999 0.17 0.16
-0.80299997 -4.4180002 0.171 0.12
-0.79000002 -4.4239998 0.171 0.16
-0.773 -4.4109998 0.171 0.12
-0.759 -4.4109998 0.171 0.16
-0.75199997 -4.4159999 0.171 0.12
-0.73799998 -4.415 0.171 0.17
-0.72000003 -4.395 0.171 0.12
-0.71100003 -4.4229999 0.171 0.16
-0.69300002 -4.4039998 0.171 0.12
-0.68000001 -4.4099998 0.171 0.16
-0.66500002 -4.4060001 0.171 0.12
-0.65799999 -4.401 0.171 0.16
-0.64300001 -4.401 0.171 0.12
-0.63 -4.4070001 0.171 0.17
-0.616 -4.4070001 0.171 0.28999999
-0.59899998 -4.3889999 0.171 0.11
-0.58700001 -4.3990002 0.171 0.17
-0.57800001 -4.388 0.171 0.12
-0.565 -4.3959999 0.171 0.16
-0.55299997 -4.4120002 0.171 0.31
-0.537 -4.3969998 0.171 0.2
-0.52399999 -4.401 0.171 0.16
-0.509 -4.3930001 0.171 0.13
-0.49399999 -4.388 0.171 0.17
-0.48899999 -4.401 0.171 0.30000001
-0.47400001 -4.3930001 0.171 0.20999999
-0.46000001 -4.3959999 0.171 0.18000001
-0.44600001 -4.3940001 0.171 0.28999999
-0.433 -4.4029999 0.171 0.2
-0.417 -4.3839998 0.171 0.18000001
-0.40200001 -4.3779998 0.171 0.12
-0.389 -4.3829999 0.171 0.17
-0.38100001 -4.3740001 0.171 0.12
-0.368 -4.3829999 0.171 0.17
-0.354 -4.3740001 0.171 0.12
-0.33899999 -4.369 0.171 0.16
-0.32699999 -4.388 0.171 0.28999999
-0.31299999 -4.3790002 0.171 0.11
-0.29899999 -4.382 0.171 0.14
-0.29100001 -4.362 0.17200001 0.12
-0.278 -4.381 0.171 0.17
-0.264 -4.3800001 0.171 0.30000001
-0.25 -4.3790002 0.171 0.19
-0.237 -4.3860002 0.171 0.16
-0.223 -4.3740001 0.171 0.13
-0.215 -4.3670001 0.17200001 0.17
-0.20100001 -4.3590002 0.17200001 0.12
-0.18799999 -4.3759999 0.171 0.17
-0.17399999 -4.3610001 0.17200001 0.12
-0.16 -4.369 0.17200001 0.16
-0.146 -4.3639998 0.17200001 0.12
-0.133 -4.3660002 0.17200001 0.16
-0.125 -4.3559999 0.17200001 0.12
-0.112 -4.369 0.17200001 0.17
-0.097999997 -4.3530002 0.17200001 0.12
-0.083999999 -4.355 0.17200001 0.16
-0.071000002 -4.3499999 0.17200001 0.12
-0.057 -4.3540001 0.17200001 0.17
-0.043000001 -4.342 0.17200001 0.12
-0.035999998 -4.3520002 0.17200001 0.17
-0.023 -4.3559999 0.17200001 0.27000001
-0.0089999996 -4.3439999 0.17200001 0.11
0.0049999999 -4.348 0.17200001 0.16
0.017999999 -4.3460002 0.17200001 0.12
0.032000002 -4.3400002 0.17200001 0.16
0.046 -4.3299999 0.17200001 0.12
0.052000001 -4.3460002 0.17200001 0.17
0.066 -4.348 0.17200001 0.12
0.079999998 -4.3569999 0.17200001 0.16
0.093000002 -4.329 0.17200001 0.11
0.107 -4.3330002 0.17200001 0.16
0.12 -4.3260002 0.17200001 0.12
0.134 -4.3400002 0.17200001 0.16
0.141 -4.3299999 0.17200001 0.12
0.155 -4.3410001 0.17200001 0.16
0.168 -4.3270001 0.17200001 0.12
0.182 -4.3340001 0.17200001 0.16
0.19499999 -4.322 0.17200001 0.12
0.20900001 -4.3369999 0.17200001 0.16
0.222 -4.3280001 0.17200001 0.12
0.23 -4.342 0.17200001 0.16
0.243 -4.323 0.17200001 0.12
0.25600001 -4.3249998 0.17200001 0.16
0.27000001 -4.3299999 0.17200001 0.12
0.28400001 -4.3330002 0.17200001 0.14
0.29699999 -4.3179998 0.17200001 0.12
0.31099999 -4.3249998 0.17200001 0.16
0.31799999 -4.322 0.17200001 0.12
0.33199999 -4.329 0.17200001 0.16
0.345 -4.3280001 0.17200001 0.12
0.35800001 -4.3189998 0.17200001 0.17
0.37200001 -4.3179998 0.17200001 0.12
0.38600001 -4.3210001 0.17200001 0.16
0.39899999 -4.3140001 0.17200001 0.12
0.40700001 -4.3249998 0.17200001 0.17
0.419 -4.3140001 0.17200001 0.12
0.43399999 -4.3239999 0.17200001 0.16
0.44600001 -4.3109999 0.17200001 0.12
0.46200001 -4.3280001 0.17200001 0.16
0.47499999 -4.3260002 0.17200001 0.12
0.48800001 -4.3150001 0.17200001 0.16
0.49399999 -4.3060002 0.17200001 0.12
0.509 -4.3200002 0.17200001 0.16
0.52100003 -4.3070002 0.17200001 0.12
0.53500003 -4.309 0.17200001 0.16
0.55000001 -4.3189998 0.17200001 0.28999999
0.56400001 -4.3169999 0.17200001 0.18000001
0.57599998 -4.3060002 0.17200001 0.1
0.583 -4.309 0.17200001 0.14
0.59899998 -4.3189998 0.17200001 0.28
0.611 -4.3070002 0.17200001 0.11
0.62400001 -4.3049998 0.17200001 0.16
0.639 -4.3130002 0.17200001 0.12
0.65399998 -4.3189998 0.17200001 0.16
0.66500002 -4.3010001 0.17200001 0.12
0.67299998 -4.3080001 0.17200001 0.16
0.68599999 -4.3000002 0.17200001 0.12
0.69999999 -4.302 0.17200001 0.16
0.71499997 -4.3070002 0.17200001 0.12
0.72799999 -4.3049998 0.17200001 0.16
0.73900002 -4.2870002 0.17200001 0.12
0.75599998 -4.3080001 0.17200001 0.16
0.76200002 -4.2969999 0.17200001 0.12
0.77499998 -4.2950001 0.17200001 0.16
0.79000002 -4.3000002 0.17200001 0.12
0.80199999 -4.29 0.17200001 0.16
0.81599998 -4.289 0.17200001 0.11
0.82999998 -4.2909999 0.17200001 0.16
0.84600002 -4.3000002 0.171 0.28
0.852 -4.296 0.171 0.18000001
0.86699998 -4.3000002 0.171 0.17
0.87900001 -4.289 0.171 0.1
0.89499998 -4.3000002 0.171 0.16
0.90700001 -4.2909999 0.171 0.12
0.92199999 -4.2919998 0.171 0.18000001
0.935 -4.2870002 0.171 0.20999999
0.94499999 -4.3039999 0.171 0.18000001
0.958 -4.2969999 0.171 0.20999999
0.96899998 -4.2820001 0.171 0.18000001
0.98699999 -4.3000002 0.171 0.30000001
0.99800003 -4.2870002 0.171 0.2
1.0089999 -4.2729998 0.171 0.18000001
1.029 -4.2969999 0.171 0.30000001
1.033 -4.2849998 0.171 0.20999999
1.046 -4.2800002 0.171 0.18000001
1.059 -4.2750001 0.171 0
1.079 -4.2989998 0.171 0.07
1.732 -6.8709998 0.15000001 0.34
1.755 -6.8709998 0.15000001 0.15000001
1.778 -6.8720002 0.15000001 0.41
1.79 -6.8730001 0.15000001 0.18000001
1.816 -6.8850002 0.15000001 0.38
1.834 -6.8629999 0.15000001 0.2
1.857 -6.8629999 0.15000001 0.23999999
1.88 -6.8649998 0.15000001 0.18000001
1.901 -6.855 0.15000001 0.31999999
1.923 -6.8509998 0.15000001 0.18000001
1.939 -6.868 0.15000001 0.38
1.9579999 -6.8540001 0.15000001 0.18000001
1.983 -6.8590002 0.15000001 0.27000001
2.0039999 -6.849 0.15000001 0.2
2.023 -6.835 0.15000001 0.16
2.0480001 -6.842 0.15000001 0.38999999
2.072 -6.8429999 0.15000001 0.17
2.085 -6.8460002 0.15000001 0.37
2.1059999 -6.8369999 0.15000001 0.16
2.135 -6.8569999 0.149 0.38999999
2.1530001 -6.8369999 0.149 0.18000001
2.175 -6.8340001 0.149 0.38
2.198 -6.8309999 0.149 0.12
2.2190001 -6.8239999 0.149 0.41999999
2.234 -6.8319998 0.149 0.16
2.256 -6.829 0.149 0.38999999
2.277 -6.8200002 0.149 0.23
2.3039999 -6.8280001 0.149 0.17
2.326 -6.822 0.149 0.41
2.349 -6.8210001 0.149 0.25
2.372 -6.8169999 0.149 0.17
2.3859999 -6.823 0.149 0.38999999
2.4030001 -6.8039999 0.149 0.23
2.4289999 -6.8099999 0.149 0.17
2.4579999 -6.823 0.149 0.38999999
2.484 -6.8260002 0.149 0.25
2.4990001 -6.802 0.149 0.20999999
2.5190001 -6.79 0.149 0.20999999
2.5369999 -6.8070002 0.149 0.17
2.562 -6.8080001 0.149 0.41
2.5829999 -6.7979999 0.149 0.23
2.6040001 -6.79 0.149 0.17
2.6329999 -6.8000002 0.149 0.38999999
2.6570001 -6.7989998 0.148 0.23999999
2.6730001 -6.7779999 0.149 0.16
2.698 -6.8109999 0.148 0.43000001
2.717 -6.7950001 0.148 0.23999999
2.7409999 -6.7940001 0.148 0.2
2.76 -6.7800002 0.148 0.36000001
2.7839999 -6.777 0.148 0.18000001
2.8099999 -6.7810001 0.148 0.38
2.835 -6.7810001 0.148 0.25
2.8469999 -6.7789998 0.148 0.17
2.8740001 -6.7839999 0.148 0.41999999
2.891 -6.7639999 0.148 0.23999999
2.914 -6.7610002 0.148 0.14
2.948 -6.7789998 0.148 0.44
2.9619999 -6.7550001 0.148 0.23
2.9909999 -6.7620001 0.148 0.28999999
3.0039999 -6.763 0.148 0.18000001
3.0350001 -6.7750001 0.147 0.41
3.0450001 -6.7399998 0.148 0.25
3.072 -6.743 0.148 0.16
3.109 -6.7680001 0.147 0.43000001
3.1329999 -6.7659998 0.147 0.23999999
3.1500001 -6.7740002 0.147 0.28
3.165 -6.7509999 0.147 0.19
3.1960001 -6.763 0.147 0.41999999
3.2179999 -6.7540002 0.147 0.25
3.24 -6.7459998 0.147 0.25999999
3.2590001 -6.73 0.147 0.16
3.3 -6.7620001 0.147 0.41999999
3.319 -6.7459998 0.147 0.23
3.3169999 -6.7150002 0.147 0.16
3.3629999 -6.7550001 0.147 0.44999999
3.381 -6.737 0.147 0.22
3.401 -6.7249999 0.147 0.16
3.434 -6.7379999 0.146 0.44999999
3.4530001 -6.723 0.146 0.25
3.4820001 -6.7280002 0.146 0.25999999
3.4960001 -6.7280002 0.146 0.25
3.523 -6.73 0.146 0.27000001
3.5469999 -6.724 0.146 0.23999999
3.576 -6.7270002 0.146 0.30000001
3.596 -6.7140002 0.146 0.27000001
3.6240001 -6.7150002 0.146 0.28
3.6489999 -6.7119999 0.146 0.25999999
3.6559999 -6.6989999 0.146 0.15000001
3.6989999 -6.7280002 0.145 0.43000001
3.721 -6.7179999 0.145 0.25
3.7309999 -6.6859999 0.146 0.16
3.7739999 -6.7140002 0.145 0.44999999
3.796 -6.704 0.145 0.23999999
3.8099999 -6.7030001 0.145 0.27000001
3.8429999 -6.7119999 0.145 0.28
3.875 -6.7189999 0.145 0.25999999
3.8929999 -6.7020001 0.145 0.31
3.9189999 -6.698 0.145 0.19
3.9389999 -6.684 0.145 0.41
3.9660001 -6.6820002 0.145 0.25
3.9909999 -6.7010002 0.145 0.27000001
4.0209999 -6.7030001 0.14399999 0.23
4.026 -6.664 0.145 0.16
4.072 -6.6929998 0.14399999 0.46000001
4.0890002 -6.6729999 0.14399999 0.25
4.1209998 -6.6789999 0.14399999 0.28
4.1539998 -6.6849999 0.14399999 0.25999999
4.1599998 -6.671 0.14399999 0.28999999
4.1919999 -6.6750002 0.14399999 0.28999999
4.2160001 -6.6669998 0.14399999 0.28
4.2420001 -6.6620002 0.14399999 0.27000001
4.2810001 -6.677 0.14300001 0.27000001
4.309 -6.6739998 0.14300001 0.30000001
4.323 -6.6500001 0.14300001 0.27000001
4.355 -6.6539998 0.14300001 0.28999999
4.3829999 -6.6739998 0.14300001 0.23
4.4000001 -6.6550002 0.14300001 0.30000001
4.4359999 -6.6630001 0.14300001 0.25
4.4699998 -6.6690001 0.14300001 0.28
4.487 -6.6490002 0.14300001 0.30000001
4.5149999 -6.645 0.14300001 0.28999999
4.5430002 -6.665 0.142 0.27000001
4.5679998 -6.6550002 0.142 0.28999999
4.5949998 -6.651 0.142 0.28999999
4.6199999 -6.6409998 0.142 0.31
4.6420002 -6.6279998 0.142 0.31999999
4.6810002 -6.6399999 0.142 0.23999999
4.71 -6.6370001 0.142 0.25999999
4.7290001 -6.6420002 0.142 0.28999999
4.757 -6.6370001 0.142 0.34
4.7839999 -6.6300001 0.142 0.27000001
4.822 -6.6399999 0.141 0.31999999
4.8470001 -6.6290002 0.141 0.28999999
4.8709998 -6.619 0.141 0.28
4.9060001 -6.6230001 0.141 0.30000001
4.914 -6.612 0.141 0.27000001
4.9569998 -6.6269999 0.141 0.31
4.9770002 -6.6100001 0.141 0.25
5.0250001 -6.631 0.14 0.31
5.046 -6.6149998 0.14 0.28999999
5.0679998 -6.6009998 0.14 0.28999999
5.1030002 -6.6040001 0.14 0.31
5.1170001 -6.6009998 0.14 0.31
5.1539998 -6.605 0.14 0.28999999
5.1900001 -6.6079998 0.14 0.30000001
5.2189999 -6.6020002 0.14 0.31999999
5.2470002 -6.5949998 0.14 0.31999999
5.2800002 -6.5949998 0.139 0.27000001
5.3099999 -6.5890002 0.139 0.28
5.336 -6.6009998 0.139 0.30000001
5.355 -6.5809999 0.139 0.28999999
5.395 -6.5890002 0.139 0.31999999
5.421 -6.5780001 0.139 0.31
5.454 -6.5760002 0.139 0.30000001
5.4850001 -6.572 0.139 0.33000001
5.5159998 -6.5669999 0.138 0.25999999
5.559 -6.5960002 0.138 0.38999999
5.5689998 -6.566 0.138 0.25
5.6059999 -6.5689998 0.138 0.33000001
5.6440001 -6.5710001 0.138 0.33000001
5.6719999 -6.5619998 0.138 0.31
5.7090001 -6.5630002 0.13699999 0.33000001
5.7329998 -6.5489998 0.13699999 0.28
5.7589998 -6.5580001 0.13699999 0.34999999
5.7859998 -6.5479999 0.13699999 0.28999999
5.8239999 -6.5489998 0.13699999 0.31999999
5.8590002 -6.5469999 0.13699999 0.30000001
5.8990002 -6.5489998 0.13699999 0.31999999
5.9260001 -6.5380001 0.13600001 0.31999999
5.9650002 -6.54 0.13600001 0.31999999
5.987 -6.5440001 0.13600001 0.34
6.0229998 -6.5419998 0.13600001 0.34
6.0539999 -6.5339999 0.13600001 0.31
6.0830002 -6.5240002 0.13600001 0.30000001
6.118 -6.5209999 0.13500001 0.33000001
6.158 -6.5219998 0.13500001 0.34
6.1950002 -6.52 0.13500001 0.33000001
6.2129998 -6.5190001 0.13500001 0.30000001
6.2529998 -6.52 0.13500001 0.34999999
6.2870002 -6.5149999 0.13500001 0.31
6.3260002 -6.5139999 0.134 0.36000001
6.355 -6.5019999 0.134 0.28999999
6.3839998 -6.4910002 0.134 0.31999999
6.4229999 -6.5110002 0.134 0.37
6.4460001 -6.494 0.134 0.28999999
6.4980001 -6.5050001 0.134 0.36000001
6.5370002 -6.5019999 0.133 0.34
6.5739999 -6.4990001 0.133 0.31
6.5960002 -6.48 0.133 0.30000001
6.6389999 -6.4809999 0.133 0.36000001
6.6739998 -6.474 0.133 0.30000001
6.7080002 -6.487 0.132 0.31999999
6.7490001 -6.4860001 0.132 0.37
6.7800002 -6.4759998 0.132 0.31
6.8249998 -6.4780002 0.132 0.38
6.8559999 -6.4660001 0.132 0.31
6.8979998 -6.4650002 0.131 0.28999999
6.9359999 -6.48 0.131 0.41
6.9629998 -6.4650002 0.131 0.28
7.0009999 -6.46 0.131 0.34999999
7.0450001 -6.4590001 0.131 0.36000001
7.0819998 -6.4520001 0.13 0.34
7.1220002 -6.4489999 0.13 0.33000001
7.158 -6.4400001 0.13 0.34
7.1929998 -6.4510002 0.13 0.33000001
7.2379999 -6.4510002 0.13 0.34
7.277 -6.4439998 0.12899999 0.33000001
7.3119998 -6.4349999 0.12899999 0.33000001
7.3649998 -6.441 0.12899999 0.36000001
7.4000001 -6.4310002 0.12899999 0.34
7.4310002 -6.4169998 0.12899999 0.31999999
7.4759998 -6.4349999 0.12800001 0.36000001
7.52 -6.4320002 0.12800001 0.41999999
7.5630002 -6.428 0.12800001 0.28999999
7.5939999 -6.4130001 0.12800001 0.34999999
7.6370001 -6.4089999 0.127 0.36000001
7.6799998 -6.4039998 0.127 0.31999999
7.73 -6.4039998 0.127 0.36000001
7.7600002 -6.4089999 0.127 0.31
7.8070002 -6.4070001 0.126 0.38999999
7.8509998 -6.402 0.126 0.34
7.8909998 -6.3930001 0.126 0.38
7.9359999 -6.3889999 0.126 0.37
7.9819999 -6.3850002 0.125 0.33000001
8.026 -6.3790002 0.125 0.37
8.0579996 -6.3839998 0.125 0.36000001
8.1090002 -6.3829999 0.125 0.43000001
8.1479998 -6.3720002 0.124 0.27000001
8.1960001 -6.369 0.124 0.38999999
8.243 -6.3639998 0.124 0.33000001
8.2919998 -6.3600001 0.124 0.36000001
8.2620001 -6.296 0.124 0.36000001
6.0310001 -4.572 0.146 0.18000001
6.0250001 -4.5370002 0.147 0.33000001
6.0229998 -4.506 0.147 0.18000001
6.026 -4.4790001 0.147 0.34999999
6.0139999 -4.441 0.147 0.16
6.0380001 -4.4289999 0.147 0.27000001
6.0159998 -4.3839998 0.147 0.20999999
6.0100002 -4.3649998 0.147 0.23
6.006 -4.3330002 0.148 0.19
6.0149999 -4.3109999 0.148 0.23
6.0050001 -4.276 0.148 0.17
6.0120001 -4.2519999 0.148 0.34
6.006 -4.2189999 0.148 0.19
6.0110002 -4.1950002 0.148 0.31999999
6.006 -4.177 0.148 0.16
5.9860001 -4.1360002 0.149 0.14
5.993 -4.112 0.149 0.18000001
6.0120001 -4.098 0.149 0.20999999
5.9910002 -4.0549998 0.149 0.15000001
5.9980001 -4.033 0.149 0.25
5.9910002 -4.0009999 0.149 0.18000001
5.9759998 -3.977 0.149 0.12
5.9749999 -3.9489999 0.15000001 0.16
6.0190001 -3.951 0.149 0.12
6.0700002 -3.9579999 0.149 0.13
6.0770001 -3.9349999 0.149 0.31999999
6.1329999 -3.9449999 0.149 0.11
6.1659999 -3.938 0.148 0.16
6.2049999 -3.95 0.148 0.28
6.2280002 -3.937 0.148 0.25999999
6.2839999 -3.9449999 0.147 0.18000001
6.3189998 -3.9389999 0.147 0.18000001
6.3340001 -3.9219999 0.147 0.22
6.3769999 -3.921 0.147 0.11
6.4120002 -3.914 0.147 0.15000001
6.4130001 -3.901 0.147 0.090000004
10.27 -6.2220001 0.111 0.30000001
10.331 -6.2140002 0.111 0.38999999
10.397 -6.21 0.111 0.38999999
10.459 -6.2030001 0.11 0.41
10.525 -6.197 0.11 0.34
10.589 -6.1900001 0.109 0.47999999
10.649 -6.2030001 0.109 0.30000001
10.701 -6.1890001 0.109 0.43000001
10.769 -6.1830001 0.108 0.41
10.835 -6.1760001 0.108 0.41
10.9 -6.1680002 0.107 0.41999999
10.97 -6.1620002 0.107 0.38999999
11.034 -6.1529999 0.106 0.41999999
11.096 -6.165 0.106 0.34999999
11.163 -6.1560001 0.105 0.43000001
11.244 -6.1550002 0.105 0.41
11.309 -6.1440001 0.105 0.34
11.373 -6.1329999 0.104 0.50999999
11.456 -6.132 0.104 0.28
11.521 -6.1199999 0.103 0.51999998
11.594 -6.1360002 0.103 0.27000001
11.658 -6.1230001 0.102 0.50999999
11.743 -6.1199999 0.102 0.27000001
11.799 -6.1030002 0.101 0.54000002
11.884 -6.0999999 0.101 0.25999999
11.951 -6.0869999 0.1 0.52999997
12.04 -6.085 0.1 0.27000001
12.137 -6.1100001 0.098999999 0.69
13.123 -6.5570002 0.090000004 0
13.756 -6.8210001 0.085000001 0.13
13.829 -6.803 0.083999999 0
13.99 -6.8280001 0.082999997 0
13.792 -6.678 0.085000001 0
13.84 -6.6469998 0.085000001 0.059999999
13.682 -6.4390001 0.086999997 0.68000001
13.929 -6.5019999 0.085000001 0
14.439 -6.6859999 0.081 0.07
14.621 -6.7160001 0.079000004 0
18.622999 -8.4910002 0.045000002 0.1
13.666 -6.145 0.088 0.25
13.668 -6.0949998 0.088 0.31
13.68 -6.0489998 0.088 0.28
13.663 -5.9899998 0.088 0.58999997
13.872 -6.0300002 0.086999997 0
19.030001 -8.2469997 0.041999999 0.050000001
19.413 -8.3409996 0.039000001 0.079999998
19.554001 -8.3290005 0.037999999 0.079999998
19.714001 -8.3240004 0.037 0.079999998
15.299 -6.2849998 0.075999998 0.63
15.603 -6.381 0.072999999 0
20.408001 -8.2799997 0.032000002 0
20.582001 -8.276 0.030999999 0.07
15.249 -6.013 0.077 0.20999999
15.266 -5.9650002 0.077 0.33000001
15.279 -5.914 0.077 0.28
15.26 -5.8800001 0.077 0.62
15.525 -5.9260001 0.075000003 0
17.521999 -6.6290002 0.057999998 0
17.514 -6.5630002 0.059 0.12
16.891001 -6.2080002 0.064000003 0.15000001
11.418 -4.1469998 0.11 0.60000002
11.554 -4.1760001 0.109 0
5.9860001 -2.108 0.156 0
6.0279999 -2.1010001 0.156 0
11.396 -3.8770001 0.111 0.31999999
11.391 -3.855 0.111 0.38
11.382 -3.812 0.111 0.38999999
11.385 -3.773 0.111 0.41
11.389 -3.7349999 0.111 0.40000001
11.374 -3.691 0.112 0.38999999
11.382 -3.654 0.112 0.38999999
11.374 -3.612 0.112 0.37
11.372 -3.572 0.112 0.44999999
11.37 -3.552 0.112 0.43000001
11.461 -3.5409999 0.111 0.31999999
11.539 -3.5250001 0.111 0.38
11.633 -3.5139999 0.11 0.38999999
11.751 -3.51 0.109 0.38
11.848 -3.4990001 0.109 0.17
19.103001 -5.625 0.048999999 0.63
19.118 -5.5640001 0.048999999 0.23
20.663 -5.9460001 0.035999998 0.41999999
20.872 -5.9349999 0.035 0
22.323 -6.2740002 0.023 0.050000001
22.316999 -6.197 0.023 0.14
21.482 -5.8909998 0.029999999 0.13
20.931999 -5.704 0.035 0.28999999
20.655001 -5.5580001 0.037 0.31
20.646999 -5.487 0.037999999 0.63999999
20.73 -5.4390001 0.037 0.23999999
22.459999 -5.8200002 0.023 0.19
22.891001 -5.7410002 0.02 0.51999998
22.237 -5.5019999 0.025 0.31
22.256001 -5.4320002 0.025 0.30000001
22.242001 -5.355 0.026000001 0.51999998
22.848 -5.4260001 0.021 0.37
22.853001 -5.3509998 0.021 0.38999999
22.878 -5.2810001 0.021 0.38999999
24.495001 -5.5749998 0.0080000004 0.50999999
16.798 -3.7869999 0.07 0.20999999
16.788 -3.73 0.07 0.47999999
16.782 -3.6730001 0.071000002 0.41
16.778 -3.6170001 0.071000002 0.34999999
16.771999 -3.5599999 0.071000002 0.44
16.768999 -3.5050001 0.071000002 0.34999999
16.761 -3.4760001 0.071000002 0.43000001
16.766001 -3.4219999 0.071000002 0.34999999
16.749001 -3.3629999 0.071000002 0.38
16.746 -3.3080001 0.071000002 0.38999999
16.747 -3.2539999 0.071000002 0.47
16.753 -3.2 0.071999997 0.31
16.731001 -3.142 0.071999997 0.61000001
16.868 -3.1400001 0.071000002 0.31
17.065001 -3.1210001 0.068999998 0.43000001
17.254999 -3.1010001 0.068000004 0.38999999
17.466 -3.082 0.066 0.34
17.686001 -3.0639999 0.064000003 0.41
17.893 -3.0420001 0.063000001 0.38999999
18.111 -3.0209999 0.061000001 0.38
18.339001 -3.03 0.059 0.38999999
18.559999 -3.007 0.057999998 0.38
18.804001 -2.9860001 0.056000002 0.37
19.033001 -2.9619999 0.054000001 0.37
19.285 -2.9389999 0.052000001 0.36000001
19.539 -2.915 0.050000001 0.37
19.794001 -2.8900001 0.048 0.41
20.069 -2.8989999 0.046 0.34
20.348 -2.8740001 0.044 0.38999999
20.625999 -2.848 0.041999999 0.34
20.912001 -2.8210001 0.039999999 0.41
21.208 -2.793 0.037 0.38
21.514999 -2.7650001 0.035 0.38
21.820999 -2.7349999 0.033 0.36000001
22.149 -2.7409999 0.029999999 0.36000001
22.485001 -2.711 0.027000001 0.34999999
22.819 -2.6789999 0.025 0.38
23.173 -2.648 0.022 0.36000001
23.542999 -2.615 0.018999999 0.34999999
23.900999 -2.5799999 0.016000001 0.34999999
24.295 -2.5450001 0.013 0.33000001
24.694 -2.5480001 0.0099999998 0.38999999
25.101999 -2.5109999 0.0070000002 0.31999999
25.540001 -2.474 0.0040000002 0.36000001
25.982 -2.4349999 0 0.30000001
26.433001 -2.3940001 -0.003 0.34999999
26.907 -2.3529999 -0.0070000002 0.33000001
27.385 -2.3510001 -0.011 0.25999999
27.860001 -2.3050001 -0.014 0.49000001
45.162998 -3.609 -0.15099999 0.14
