# .PCD v0.7 - Point Cloud Data file format
VERSION 0.7
FIELDS x y z intensity
SIZE 4 4 4 4
TYPE F F F F
COUNT 1 1 1 1
WIDTH 1351
HEIGHT 1
VIEWPOINT 0 0 0 1 0 0 0
POINTS 1351
DATA ascii
-5.1040001 6.7989998 -0.017000001 0
-5.1430001 6.8070002 -0.017999999 0
-4.2529998 5.618 0.021 0
-4.3449998 5.7010002 0.017999999 0.15000001
-3.4860001 4.553 0.055 0.2
-3.487 4.5250001 0.056000002 0
-3.4860001 4.4949999 0.056000002 0
-3.507 4.4920001 0.056000002 0
-3.5469999 4.5139999 0.055 0
-3.869 4.9039998 0.041999999 0
-3.9779999 5.0089998 0.037999999 0
-3.997 5.0009999 0.037999999 0
-5.46 6.7719998 -0.022 0
-3.7320001 4.612 0.050000001 0
-3.7030001 4.5479999 0.052000001 0
-3.7409999 4.5650001 0.050999999 0
-3.7950001 4.6009998 0.048999999 0
-3.8280001 4.6259999 0.048 0
-3.9419999 4.7319999 0.044 0
-3.819 4.5560002 0.050000001 0.12
-3.839 4.5510001 0.048999999 0.12
-3.8670001 4.5549998 0.048999999 0.14
-5.6599998 6.6069999 -0.022 0.15000001
-5.717 6.631 -0.024 0.16
-5.8759999 6.7919998 -0.028999999 0.19
-4.3670001 5.026 0.030999999 0
-4.388 5.0180001 0.030999999 0
-4.3200002 4.849 0.035 0.44
-4.349 4.8499999 0.035 0.18000001
-4.348 4.8189998 0.035999998 0.15000001
-4.3309999 4.7849998 0.035999998 0
-4.4219999 4.8540001 0.034000002 0.16
-4.4359999 4.8390002 0.034000002 0.11
-4.369 4.737 0.037 0.079999998
-4.3460002 4.6820002 0.037999999 0
-4.4000001 4.711 0.037 0
-24.34 25.163 -0.708 0.12
-24.297001 24.962 -0.704 0.25
-24.327999 24.837 -0.70200002 0.28
-24.364 24.796 -0.70200002 0.25
-24.454 24.732 -0.70200002 0.31999999
-24.563 24.686001 -0.70300001 0.27000001
-24.702999 24.671 -0.70599997 0.38
-34.084999 33.813999 -1.0470001 0.25
-34.139999 33.655998 -1.045 0.16
-34.266998 33.57 -1.046 0.14
-34.352001 33.443001 -1.046 0
-34.43 33.414001 -1.046 0
-48.757 47.006001 -1.561 0
-48.813999 46.766998 -1.558 0
-49.043999 46.692001 -1.561 0
-49.272999 46.616001 -1.564 0.090000004
-31.962 30.061001 -0.94 0.2
-31.964001 29.875 -0.93599999 0.19
-32.039001 29.756001 -0.93599999 0.23
-32.069 29.691 -0.935 0.20999999
-32.192001 29.617001 -0.93599999 0
-32.349998 29.575001 -0.93800002 0
-11.449 10.293 -0.197 0.25
-11.497 10.272 -0.197 0.22
-11.497 10.239 -0.197 0.44999999
-11.532 10.205 -0.197 0.41
-11.62 10.218 -0.199 0.27000001
-11.638 10.169 -0.198 0.60000002
-11.744 10.197 -0.20100001 0.28
-11.846 10.22 -0.20299999 0.47999999
-12.095 10.368 -0.211 0
-12.506 10.484 -0.221 0.25
-12.716 10.591 -0.227 0.57999998
-12.606 10.433 -0.222 0
-41.465 33.695999 -1.189 0
-41.471001 33.485001 -1.1849999 0
-41.497002 33.291 -1.183 0
-41.521 33.097 -1.1799999 0
-12.615 9.9499998 -0.214 0.27000001
-12.648 9.9119997 -0.214 0
-46.140999 35.259998 -1.3099999 0
-46.076 34.981998 -1.304 0.07
-46.131001 34.796001 -1.302 0.16
-13.236 9.9099998 -0.226 0.23
-13.147 9.7790003 -0.223 0.54000002
-13.361 9.8719997 -0.228 0
-46.695999 34.196999 -1.3049999 0.050000001
-48.473999 35.264 -1.359 0.17
-48.473999 35.032001 -1.355 0.25999999
-48.604 34.894001 -1.3559999 0.25999999
-17.046 12.137 -0.34099999 0.30000001
-17.061001 12.067 -0.34 0.46000001
-17.104 12.017 -0.34 0.31999999
-13.367 9.3360004 -0.22 0.38999999
-13.53 9.3859997 -0.22499999 0.20999999
-13.442 9.2629995 -0.221 0.41
-13.488 9.2320004 -0.221 0.40000001
-13.413 9.151 -0.219 0.55000001
-13.52 9.1610003 -0.221 0
-45.669998 28.725 -1.202 0.090000004
-45.687 28.535 -1.2 0.16
-45.756001 28.478001 -1.201 0.12
-15.242 9.4399996 -0.26300001 0.31999999
-15.251 9.3800001 -0.26199999 0.50999999
-15.378 9.3249998 -0.264 0.23
-15.385 9.2639999 -0.264 0.60000002
-15.798 9.4449997 -0.27500001 0
-15.634 9.2799997 -0.26899999 0
-58.026001 34.237999 -1.552 0
-57.796001 33.859001 -1.5420001 0
-58.729 34.157001 -1.567 0
-57.231998 33.047001 -1.5190001 0
-57.244999 32.816002 -1.516 0.1
-14.015 7.9980001 -0.21600001 0.19
-14.025 7.9450002 -0.21600001 0.31999999
-14.065 7.9390001 -0.21600001 0.43000001
-14.128 7.9159999 -0.21799999 0
-58.493999 32.441002 -1.54 0
-57.874001 31.860001 -1.518 0
-58.43 31.927 -1.5319999 0
-58.737 31.856001 -1.538 0
-58.591999 31.540001 -1.531 0
-58.513 31.142 -1.524 0
-23.782 12.484 -0.49599999 0.23999999
-23.704 12.348 -0.49200001 0.25999999
-23.723 12.264 -0.49200001 0.36000001
-23.757999 12.187 -0.49200001 0.38999999
-23.789 12.109 -0.491 0.28999999
-23.867001 12.101 -0.493 0.31
-23.966 12.057 -0.495 0.31999999
-24.062 12.011 -0.49700001 0
-64.43 31.858999 -1.67 0
-65.459 32.112 -1.697 0
-43.73 20.868999 -1.059 0
-39.695 16.698 -0.91799998 0.25
-39.631001 16.525 -0.91500002 0.18000001
-39.654999 16.389 -0.91399997 0.38
-39.713001 16.268 -0.91399997 0.2
-39.804001 16.232 -0.91600001 0
-35.150002 14.209 -0.78399998 0.090000004
-35.147999 14.08 -0.78299999 0.23
-35.154999 13.955 -0.78200001 0.20999999
-35.262001 13.869 -0.78299999 0
-54.193001 21.103001 -1.312 0
-54.245998 20.927999 -1.312 0
-54.424 20.898001 -1.316 0
-54.558998 20.753 -1.318 0
-57.021 21.483999 -1.3839999 0
-57.070999 21.298 -1.3839999 0
-57.403999 21.216999 -1.391 0
-59.216999 21.465 -1.438 0
-53.542 19.125 -1.278 0
-53.757 18.822001 -1.281 0
-55.373001 19.191999 -1.324 0
-55.362999 18.993999 -1.322 0
-51.965 17.648001 -1.226 0
-51.771999 17.400999 -1.22 0
-51.443001 17.201 -1.21 0
-51.349998 16.990999 -1.206 0
-51.731998 16.937 -1.215 0
-51.917999 16.816999 -1.2180001 0
-6.6690001 -2.4549999 0.018999999 0
-6.6389999 -2.4560001 0.02 0.1
-6.6739998 -2.493 0.018999999 0.23
-6.7870002 -2.5599999 0.016000001 0.20999999
-6.6279998 -2.523 0.02 0.28
-6.6630001 -2.5599999 0.018999999 0.22
-6.7160001 -2.605 0.017000001 0.25999999
-6.625 -2.5929999 0.018999999 0.37
-6.6220002 -2.605 0.018999999 0.22
-6.6719999 -2.648 0.017999999 0.36000001
-6.6869998 -2.6789999 0.017000001 0.20999999
-6.7639999 -2.7349999 0.014 0.30000001
-6.7740002 -2.7639999 0.014 0.31999999
-6.7729998 -2.7880001 0.014 0.28999999
-6.8150001 -2.8310001 0.012 0.25
-6.835 -2.852 0.012 0.41999999
-6.9359999 -2.9200001 0.0080000004 0.25
-7.0209999 -2.9820001 0.0060000001 0.23999999
-6.9689999 -2.9860001 0.0070000002 0.34999999
-6.8460002 -2.9579999 0.0099999998 0.28
-6.888 -3.0020001 0.0089999996 0.31
-6.9590001 -3.0599999 0.0070000002 0.30000001
-7.013 -3.0969999 0.0049999999 0.13
-6.9239998 -3.0829999 0.0070000002 0.46000001
-7.428 -3.3380001 -0.0080000004 0.20999999
-7.6869998 -3.484 -0.015 0.28
-12.17 -5.579 -0.14399999 0.13
-12.568 -5.8099999 -0.156 0.36000001
-12.394 -5.777 -0.152 0.36000001
-12.419 -5.836 -0.153 0.22
-12.361 -5.8330002 -0.152 0.58999997
-12.308 -5.855 -0.15099999 0.25
-12.412 -5.9530001 -0.154 0.36000001
-12.413 -6.0009999 -0.155 0.37
-12.434 -6.059 -0.156 0.40000001
-12.456 -6.119 -0.15700001 0.27000001
-9.0270004 -4.4619999 -0.057999998 0.57999998
-12.74 -6.3340001 -0.16599999 0.16
-8.9180002 -4.46 -0.055 0.34
-15.116 -7.6389999 -0.237 0.23999999
-15.003 -7.6409998 -0.234 0.34999999
-14.869 -7.632 -0.23100001 0.16
-14.763 -7.6360002 -0.229 0.44999999
-9.6020002 -4.994 -0.077 0.17
-9.2720003 -4.8400002 -0.068000004 0.41
-9.6339998 -5.0689998 -0.079000004 0.25999999
-7.198 -3.809 -0.0080000004 0.14
-9.2130003 -4.921 -0.068000004 0.38999999
-8.9200001 -4.7989998 -0.059 0.20999999
-8.5290003 -4.6220002 -0.048 0.22
-8.8979998 -4.8600001 -0.059999999 0.31
-8.7119999 -4.7930002 -0.055 0.18000001
-8.7840004 -4.8509998 -0.057 0.41
-8.8459997 -4.9219999 -0.059 0.2
-7.303 -4.0890002 -0.014 0.18000001
-7.3600001 -4.151 -0.016000001 0.46000001
-7.1279998 -4.0489998 -0.0089999996 0.28999999
-7.2690001 -4.1599998 -0.014 0.41999999
-7.2740002 -4.1929998 -0.014 0.23
-6.9959998 -4.046 -0.0060000001 0.28999999
-6.8119998 -3.9679999 -0.001 0.31
-6.6399999 -3.895 0.0040000002 0.30000001
-6.7150002 -3.9679999 0.001 0.20999999
-6.5960002 -3.925 0.0049999999 0.36000001
-6.5279999 -3.9119999 0.0060000001 0.27000001
-6.5409999 -3.948 0.0060000001 0.28999999
-6.552 -3.9690001 0.0049999999 0.36000001
-6.527 -3.9820001 0.0049999999 0.25
-6.539 -4.0170002 0.0049999999 0.36000001
-6.4889998 -4.0139999 0.0060000001 0.33000001
-6.415 -3.9960001 0.0080000004 0.28
-6.3839998 -4.0050001 0.0080000004 0.25999999
-6.4180002 -4.0549998 0.0070000002 0.23999999
-6.2519999 -3.9630001 0.012 0.33000001
-6.164 -3.934 0.014 0.28
-6.1259999 -3.937 0.015 0.23
-6.0539999 -3.9170001 0.017000001 0.30000001
-6.0760002 -3.9590001 0.016000001 0.16
-6.1009998 -4.0019999 0.014 0.44999999
-6.066 -4.007 0.015 0.17
-5.9569998 -3.961 0.017999999 0.37
-5.8829999 -3.925 0.02 0.16
-5.9390001 -3.9890001 0.017999999 0.30000001
-5.954 -4.027 0.017000001 0.18000001
-6.0580001 -4.1259999 0.014 0.23
-6.0029998 -4.1149998 0.015 0.25999999
-5.9860001 -4.132 0.015 0.18000001
-5.882 -4.0869999 0.017999999 0.27000001
-5.8800001 -4.099 0.017999999 0.23
-5.7160001 -4.0100002 0.023 0.23999999
-5.6690001 -4.0040002 0.024 0.12
-5.5149999 -3.9200001 0.028000001 0.34999999
-5.6079998 -4.0139999 0.025 0.22
-5.6129999 -4.0440001 0.024 0.27000001
-5.6160002 -4.0739999 0.024 0.25999999
-5.631 -4.098 0.023 0.23999999
-5.5539999 -4.0679998 0.025 0.2
-5.5539999 -4.0949998 0.025 0.25999999
-5.5679998 -4.1329999 0.024 0.25
-5.625 -4.2030001 0.022 0.34
-5.5370002 -4.164 0.024 0.18000001
-5.6129999 -4.2490001 0.021 0.25999999
-5.5599999 -4.223 0.023 0.2
-5.5879998 -4.2719998 0.021 0.2
-5.4970002 -4.23 0.024 0.33000001
-5.4980001 -4.2579999 0.023 0.23999999
-5.474 -4.2670002 0.024 0.28999999
-5.619 -4.4089999 0.018999999 0.18000001
-5.4559999 -4.3080001 0.023 0.13
-5.5089998 -4.3639998 0.021 0.46000001
-5.5430002 -4.4200001 0.02 0.23
-5.4699998 -4.3899999 0.022 0.23
-5.4889998 -4.434 0.021 0.15000001
-5.4380002 -4.421 0.022 0.34
-5.4569998 -4.4640002 0.021 0.2
-5.6329999 -4.6399999 0.014 0.2
-5.5139999 -4.5549998 0.017999999 0.28999999
-5.5100002 -4.5809999 0.017999999 0.20999999
-5.487 -4.5910001 0.017999999 0.2
-5.5159998 -4.6459999 0.017000001 0.38
-5.5250001 -4.6830001 0.016000001 0.23
-5.5679998 -4.7490001 0.014 0.27000001
-5.4860001 -4.7090001 0.016000001 0.17
-5.447 -4.7059999 0.017000001 0.37
-5.4200001 -4.697 0.017999999 0.31
-5.4380002 -4.743 0.017000001 0.25999999
-5.4310002 -4.7670002 0.016000001 0.25999999
-5.4499998 -4.8140001 0.015 0.34
-5.447 -4.842 0.015 0.30000001
-5.4050002 -4.835 0.016000001 0.27000001
-5.4559999 -4.9120002 0.013 0.25999999
-5.493 -4.961 0.012 0.30000001
-5.4910002 -4.9910002 0.011 0.34999999
-5.54 -5.0679998 0.0089999996 0.23999999
-5.5359998 -5.0960002 0.0089999996 0.28999999
-5.664 -5.2480001 0.003 0.30000001
-5.756 -5.3670001 -0 0.27000001
-5.6139998 -5.2670002 0.0040000002 0.23
-5.598 -5.2690001 0.0040000002 0.34
-5.5570002 -5.263 0.0049999999 0.28999999
-5.6240001 -5.3610001 0.0020000001 0.28999999
-5.5799999 -5.3520002 0.003 0.23
-5.5139999 -5.322 0.0049999999 0.38999999
-5.5180001 -5.3590002 0.0040000002 0.38
-5.5190001 -5.395 0.003 0.27000001
-5.605 -5.4959998 0 0.22
-5.4819999 -5.4089999 0.0040000002 0.46000001
-5.454 -5.415 0.0040000002 0.22
-5.6360002 -5.632 -0.003 0.30000001
-5.652 -5.684 -0.0040000002 0.16
-7.322 -7.421 -0.067000002 0.33000001
-7.2789998 -7.4239998 -0.066 0.23
-7.2420001 -7.4099998 -0.064999998 0.44999999
-7.2020001 -7.415 -0.064999998 0.36000001
-7.1370001 -7.3940001 -0.063000001 0.47
-7.1079998 -7.4109998 -0.063000001 0.23999999
-7.0710001 -7.4190001 -0.063000001 0.38
-7.0149999 -7.4060001 -0.061000001 0.38999999
-6.974 -7.4089999 -0.061000001 0.38
-6.934 -7.4130001 -0.059999999 0.38
-6.895 -7.395 -0.059 0.38
-6.8590002 -7.402 -0.057999998 0.38999999
-6.8189998 -7.4060001 -0.057999998 0.38999999
-6.77 -7.3990002 -0.057 0.41
-6.7189999 -7.3889999 -0.056000002 0.38
-6.6859999 -7.4000001 -0.055 0.38999999
-6.638 -7.3920002 -0.054000001 0.41
-6.605 -7.3790002 -0.052999999 0.41
-6.5669999 -7.3829999 -0.052999999 0.40000001
-6.5229998 -7.3800001 -0.052000001 0.41
-6.4889998 -7.388 -0.052000001 0.33000001
-6.4390001 -7.3779998 -0.050999999 0.49000001
-6.2659998 -7.224 -0.045000002 0.34999999
-6.2249999 -7.223 -0.044 0.40000001
-6.2059999 -7.223 -0.044 0.36000001
-6.1570001 -7.2119999 -0.043000001 0.41999999
-6.1259999 -7.2210002 -0.041999999 0.34999999
-6.0840001 -7.217 -0.041000001 0.41
-6.04 -7.2119999 -0.041000001 0.38
-6.0479999 -7.2680001 -0.041999999 0.38
-6.0469999 -7.3130002 -0.043000001 0.36000001
-6.0450001 -7.3330002 -0.043000001 0.41
-6.0430002 -7.3790002 -0.044 0.34
-6.0450001 -7.4289999 -0.045000002 0.36000001
-6.0479999 -7.48 -0.046 0.25999999
-6.0209999 -7.4949999 -0.046 0.55000001
-5.9860001 -7.4990001 -0.045000002 0.34
-5.9439998 -7.4949999 -0.045000002 0.50999999
-6.0760002 -7.6880002 -0.050999999 0.57999998
-5.98 -7.6139998 -0.048 0.23
-5.9569998 -7.6339998 -0.048 0.12
-11.607 -15.012 -0.28999999 0.16
-11.535 -15.017 -0.289 0.12
-11.45 -15.004 -0.287 0.16
-11.389 -15.021 -0.287 0.28999999
-11.335 -14.999 -0.28600001 0.14
-5.4190001 -7.1950002 -0.029999999 0.2
-5.3769999 -7.1859999 -0.028999999 0.37
-5.348 -7.1939998 -0.028999999 0.38
-5.3070002 -7.1859999 -0.028000001 0.34999999
-5.2729998 -7.1869998 -0.028000001 0.36000001
-5.244 -7.1950002 -0.027000001 0.37
-5.204 -7.1869998 -0.027000001 0.37
-5.1859999 -7.1859999 -0.026000001 0.40000001
-5.1690001 -7.21 -0.027000001 0.34
-5.1620002 -7.2470002 -0.027000001 0.36000001
-5.1609998 -7.2950001 -0.028000001 0.36000001
-5.1620002 -7.3449998 -0.028999999 0.36000001
-5.145 -7.3709998 -0.029999999 0.28
-5.0960002 -7.3499999 -0.028000001 0.44999999
-5.079 -7.349 -0.028000001 0.30000001
-5.0279999 -7.3239999 -0.027000001 0.46000001
-5.006 -7.3410001 -0.027000001 0.30000001
-4.973 -7.342 -0.026000001 0.43000001
-4.9359999 -7.3379998 -0.026000001 0.38999999
-4.895 -7.3270001 -0.025 0.38
-4.8699999 -7.3390002 -0.025 0.38
-4.8470001 -7.3280001 -0.024 0.37
-4.816 -7.3309999 -0.024 0.37
-4.783 -7.3309999 -0.024 0.38
-4.7470002 -7.3260002 -0.023 0.37
-4.7189999 -7.3330002 -0.023 0.38
-4.6890001 -7.3369999 -0.022 0.43000001
-4.6529999 -7.3319998 -0.022 0.36000001
-4.6329999 -7.3249998 -0.021 0.43000001
-4.605 -7.3309999 -0.021 0.36000001
-4.566 -7.3200002 -0.02 0.41
-4.5419998 -7.3330002 -0.02 0.34
-4.5050001 -7.3249998 -0.02 0.41999999
-4.4759998 -7.329 -0.018999999 0.34999999
-4.441 -7.322 -0.018999999 0.41
-4.4289999 -7.329 -0.018999999 0.34999999
-4.388 -7.3119998 -0.017999999 0.41
-4.3629999 -7.323 -0.017999999 0.34
-4.3330002 -7.3260002 -0.017000001 0.41
-4.296 -7.3150001 -0.016000001 0.40000001
-4.2709999 -7.3249998 -0.016000001 0.34
-4.2389998 -7.323 -0.016000001 0.41
-4.211 -7.3280001 -0.016000001 0.34
-4.1890001 -7.3150001 -0.015 0.40000001
-4.1609998 -7.3200002 -0.015 0.38999999
-4.1290002 -7.3169999 -0.014 0.40000001
-4.0999999 -7.3189998 -0.014 0.38999999
-4.073 -7.323 -0.014 0.38999999
-4.039 -7.3169999 -0.013 0.38999999
-4.0110002 -7.3210001 -0.013 0.38999999
-3.994 -7.3169999 -0.013 0.38999999
-3.961 -7.3109999 -0.012 0.38
-3.934 -7.3150001 -0.012 0.37
-3.9070001 -7.3200002 -0.012 0.38
-3.878 -7.3200002 -0.011 0.38
-3.849 -7.322 -0.011 0.38
-3.8199999 -7.3210001 -0.011 0.38
-3.8 -7.3109999 -0.0099999998 0.37
-3.7690001 -7.3070002 -0.0099999998 0.36000001
-3.747 -7.3210001 -0.0099999998 0.36000001
-3.711 -7.3070002 -0.0089999996 0.36000001
-3.687 -7.3169999 -0.0089999996 0.36000001
-3.658 -7.316 -0.0089999996 0.36000001
-3.6289999 -7.3169999 -0.0080000004 0.36000001
-3.608 -7.303 -0.0080000004 0.36000001
-3.5840001 -7.3119998 -0.0080000004 0.36000001
-3.549 -7.2979999 -0.0070000002 0.37
-3.5239999 -7.3039999 -0.0070000002 0.37
-3.4979999 -7.3099999 -0.0070000002 0.36000001
-3.4690001 -7.3080001 -0.0060000001 0.34999999
-3.4400001 -7.3039999 -0.0060000001 0.34999999
-3.4219999 -7.2969999 -0.0049999999 0.41
-3.3929999 -7.2930002 -0.0049999999 0.34
-3.3610001 -7.2859998 -0.0040000002 0.36000001
-3.3410001 -7.302 -0.0049999999 0.38999999
-3.3110001 -7.2979999 -0.0040000002 0.34999999
-3.2809999 -7.2919998 -0.0040000002 0.36000001
-3.257 -7.2979999 -0.0040000002 0.40000001
-3.234 -7.2779999 -0.003 0.33000001
-3.21 -7.2859998 -0.003 0.38999999
-3.188 -7.2979999 -0.003 0.34999999
-3.1559999 -7.2859998 -0.0020000001 0.38999999
-3.1300001 -7.2880001 -0.0020000001 0.34
-3.105 -7.2940001 -0.0020000001 0.38999999
-3.0710001 -7.2779999 -0.001 0.38
-3.0480001 -7.2880001 -0.001 0.38
-3.0350001 -7.2870002 -0.001 0.37
-3.003 -7.2740002 -0 0.38
-2.9790001 -7.2820001 -0 0.37
-2.9579999 -7.2950001 -0.001 0.37
-2.9230001 -7.2750001 0 0.37
-2.895 -7.2709999 0.001 0.37
-2.875 -7.2870002 0 0.36000001
-2.855 -7.2690001 0.001 0.36000001
-2.829 -7.2709999 0.001 0.36000001
-2.806 -7.2800002 0.001 0.37
-2.776 -7.2680001 0.0020000001 0.37
-2.7520001 -7.2750001 0.0020000001 0.31
-2.74 -7.3109999 0.001 0.41
-2.7019999 -7.2789998 0.0020000001 0.36000001
-2.684 -7.2659998 0.003 0.36000001
-2.658 -7.2670002 0.003 0.36000001
-2.6289999 -7.2579999 0.003 0.34999999
-2.6099999 -7.276 0.003 0.34
-2.5840001 -7.2750001 0.003 0.34
-2.5539999 -7.2639999 0.0040000002 0.34999999
-2.5280001 -7.2620001 0.0040000002 0.34
-2.5150001 -7.2610002 0.0040000002 0.34
-2.4860001 -7.2519999 0.0049999999 0.38
-2.4649999 -7.263 0.0049999999 0.36000001
-2.4389999 -7.2610002 0.0049999999 0.31999999
-2.4130001 -7.2589998 0.0049999999 0.37
-2.385 -7.2519999 0.0060000001 0.36000001
-2.3640001 -7.263 0.0060000001 0.36000001
-2.3469999 -7.2519999 0.0060000001 0.34999999
-2.3199999 -7.2459998 0.0060000001 0.34999999
-2.3 -7.2600002 0.0060000001 0.34999999
-2.27 -7.2470002 0.0070000002 0.34999999
-2.2449999 -7.2459998 0.0070000002 0.34999999
-2.223 -7.2550001 0.0070000002 0.34999999
-2.1949999 -7.2449999 0.0070000002 0.34999999
-2.1800001 -7.237 0.0080000004 0.36000001
-2.1600001 -7.2529998 0.0070000002 0.34
-2.1329999 -7.244 0.0080000004 0.34999999
-2.105 -7.2319999 0.0080000004 0.34999999
-2.0840001 -7.244 0.0080000004 0.34999999
-2.0569999 -7.237 0.0089999996 0.34999999
-2.0339999 -7.2420001 0.0089999996 0.34
-2.0209999 -7.237 0.0089999996 0.34
-1.9960001 -7.2360001 0.0089999996 0.34
-1.969 -7.2290001 0.0089999996 0.34
-1.947 -7.237 0.0089999996 0.34999999
-1.921 -7.2290001 0.0099999998 0.36000001
-1.898 -7.2350001 0.0099999998 0.34999999
-1.875 -7.2389998 0.0099999998 0.34999999
-1.86 -7.2270002 0.0099999998 0.34
-1.8380001 -7.2379999 0.0099999998 0.34999999
-1.813 -7.2340002 0.0099999998 0.36000001
-1.788 -7.2280002 0.011 0.34999999
-1.7640001 -7.23 0.011 0.34999999
-1.742 -7.237 0.011 0.31999999
-1.717 -7.2350001 0.011 0.38999999
-1.693 -7.2360001 0.011 0.34
-1.683 -7.2410002 0.011 0.34999999
-1.666 -7.2740002 0.0099999998 0.14
-1.646 -7.2930002 0.0099999998 0.63
-1.607 -7.2249999 0.012 0.30000001
-1.5829999 -7.2210002 0.012 0.36000001
-1.558 -7.2160001 0.012 0.28999999
-1.536 -7.2249999 0.012 0.34999999
-1.522 -7.2150002 0.012 0.33000001
-1.501 -7.2259998 0.012 0.34
-1.476 -7.223 0.013 0.31999999
-1.451 -7.2119999 0.013 0.31999999
-1.428 -7.2160001 0.013 0.33000001
-1.405 -7.2189999 0.013 0.34999999
-1.38 -7.2129998 0.013 0.34
-1.369 -7.217 0.013 0.34
-1.346 -7.2179999 0.013 0.33000001
-1.323 -7.2199998 0.013 0.34
-1.3 -7.224 0.013 0.33000001
-1.277 -7.2259998 0.013 0.31999999
-1.252 -7.2140002 0.014 0.36000001
-1.229 -7.2160001 0.014 0.25
-1.2180001 -7.2199998 0.014 0.38
-1.196 -7.2319999 0.014 0.34
-1.1720001 -7.224 0.014 0.31999999
-1.147 -7.2150002 0.014 0.31
-1.124 -7.217 0.014 0.31
-1.1 -7.211 0.015 0.31
-1.0779999 -7.2199998 0.014 0.31999999
-1.0650001 -7.21 0.015 0.31999999
-1.043 -7.2129998 0.015 0.31
-1.021 -7.2220001 0.015 0.31999999
-0.99599999 -7.2140002 0.015 0.31999999
-0.97399998 -7.217 0.015 0.31999999
-0.95200002 -7.224 0.015 0.31
-0.92699999 -7.2150002 0.015 0.31
-0.917 -7.2220001 0.015 0.31
-0.89399999 -7.2249999 0.015 0.34999999
-0.86900002 -7.2080002 0.015 0.28999999
-0.847 -7.2179999 0.015 0.30000001
-0.824 -7.211 0.015 0.31
-0.80000001 -7.2080002 0.016000001 0.31999999
-0.778 -7.21 0.016000001 0.31999999
-0.76700002 -7.2150002 0.016000001 0.33000001
-0.74299997 -7.204 0.016000001 0.31999999
-0.72000003 -7.1999998 0.016000001 0.31999999
-0.69800001 -7.2140002 0.016000001 0.27000001
-0.67400002 -7.2030001 0.016000001 0.34999999
-0.65200001 -7.2069998 0.016000001 0.34
-0.62900001 -7.2150002 0.016000001 0.34999999
-0.61699998 -7.1999998 0.016000001 0.28999999
-0.59299999 -7.1919999 0.017000001 0.34999999
-0.57200003 -7.2030001 0.016000001 0.28999999
-0.54799998 -7.197 0.017000001 0.36000001
-0.52499998 -7.1830001 0.017000001 0.28999999
-0.50400001 -7.2059999 0.016000001 0.37
-0.479 -7.184 0.017000001 0.28999999
-0.45699999 -7.1960001 0.017000001 0.34999999
-0.44600001 -7.2020001 0.017000001 0.28999999
-0.42300001 -7.1859999 0.017000001 0.36000001
-0.40000001 -7.1789999 0.017000001 0.34999999
-0.37799999 -7.2020001 0.017000001 0.34
-0.338 -7.316 0.014 0.62
-0.30700001 -7.1090002 0.018999999 0.27000001
-0.29300001 -7.0380001 0.021 0.30000001
-0.27000001 -7.0289998 0.021 0.30000001
-0.248 -7.0359998 0.021 0.30000001
-0.226 -7.0209999 0.022 0.30000001
-0.204 -7.027 0.021 0.31
-0.182 -7.0320001 0.021 0.30000001
-0.16 -7.02 0.022 0.30000001
-0.149 -7.0229998 0.022 0.28999999
-0.127 -7.0349998 0.021 0.30000001
-0.105 -7.0209999 0.022 0.28999999
-0.082000002 -7.0219998 0.022 0.23
-0.039000001 -7.348 0.013 0.70999998
-0.016000001 -7.316 0.014 0.56999999
-0.0040000002 -7.3239999 0.014 0.88999999
0.017999999 -7.296 0.014 0.91000003
0.041999999 -7.3060002 0.014 0.54000002
0.067000002 -7.4780002 0.0099999998 0.74000001
0.088 -7.3260002 0.014 0.20999999
0.114 -7.507 0.0089999996 0.60000002
0.134 -7.355 0.013 0.25
0.145 -7.2950001 0.014 0.15000001
0.167 -7.29 0.015 0.16
0.192 -7.3600001 0.013 0.22
0.21600001 -7.3850002 0.012 0.13
0.241 -7.4320002 0.011 0.37
0.26499999 -7.4390001 0.011 0.14
0.30399999 -7.8039999 0.001 0
0.29300001 -7.2719998 0.015 0
0.31799999 -7.3210001 0.014 0.039999999
0.352 -7.5339999 0.0080000004 0.14
0.403 -7.599 0.0060000001 0.43000001
0.45199999 -7.6230001 0.0060000001 0.46000001
0.461 -7.5679998 0.0070000002 0.28
0.48699999 -7.27 0.015 0.28
0.509 -7.2540002 0.015 0.46000001
0.53399998 -7.2820001 0.014 0.19
0.55599999 -7.263 0.015 0.63
0.57499999 -7.2249999 0.016000001 0.38
0.56800002 -7.0029998 0.022 0.30000001
0.58999997 -6.9970002 0.022 0.28999999
0.61199999 -6.9970002 0.022 0.31999999
0.63499999 -7.0029998 0.021 0.30000001
0.65700001 -7.007 0.021 0.30000001
0.67900002 -7.0029998 0.021 0.28999999
0.69999999 -6.9949999 0.021 0.31
0.72299999 -6.9990001 0.021 0.31
0.73500001 -7.006 0.021 0.30000001
0.75700003 -7.0009999 0.021 0.31
0.77700001 -6.9889998 0.021 0.25
0.84899998 -7.2140002 0.015 0.58999997
0.87300003 -7.217 0.015 0.31999999
0.92699999 -7.4650002 0.0089999996 0.19
0.95499998 -7.5840001 0.0049999999 0
0.99299997 -7.6919999 0.003 0
1.017 -7.6869998 0.003 0
1.003 -7.2449999 0.014 0.16
1.052 -7.4219999 0.0089999996 0
1.896 -12.942 -0.13600001 0.1
1.9170001 -12.939 -0.13600001 0.20999999
1.9579999 -12.941 -0.13699999 0.18000001
1.997 -12.925 -0.13600001 0.31999999
2.0380001 -12.916 -0.13600001 0.20999999
2.079 -12.912 -0.13600001 0.18000001
2.1210001 -12.919 -0.13699999 0.30000001
2.1630001 -12.916 -0.13699999 0.19
2.181 -12.903 -0.13699999 0
2.5550001 -14.809 -0.18700001 0
2.595 -14.761 -0.186 0
1.261 -7.119 0.016000001 0
1.283 -7.1149998 0.016000001 0
1.309 -7.1269999 0.016000001 0
1.33 -7.119 0.016000001 0.12
2.4030001 -12.642 -0.131 0.19
2.4419999 -12.628 -0.131 0.17
2.4820001 -12.622 -0.131 0
1.416 -7.1409998 0.015 0
1.449 -7.1869998 0.014 0
1.456 -7.1090002 0.016000001 0
1.4809999 -7.1199999 0.015 0.11
2.625 -12.42 -0.126 0.17
2.6559999 -12.378 -0.125 0.25999999
2.7 -12.391 -0.126 0.25999999
2.743 -12.4 -0.126 0.16
1.5880001 -7.125 0.014 0.23
1.6109999 -7.1220002 0.014 0.23999999
1.632 -7.1090002 0.015 0.11
1.648 -7.1300001 0.014 0.16
1.671 -7.125 0.014 0.28
1.697 -7.1370001 0.013 0.19
1.721 -7.1360002 0.013 0.18000001
1.748 -7.151 0.013 0.12
1.7640001 -7.119 0.014 0.46000001
1.7920001 -7.1339998 0.013 0.2
1.801 -7.1240001 0.013 0.33000001
1.825 -7.1240001 0.013 0.20999999
1.851 -7.1339998 0.013 0.17
1.873 -7.1240001 0.013 0.40000001
1.899 -7.1339998 0.012 0.23999999
1.926 -7.1430001 0.012 0.18000001
1.944 -7.1209998 0.012 0.41
1.969 -7.125 0.012 0.25
1.989 -7.1529999 0.011 0.23
2.0139999 -7.1560001 0.011 0.28999999
2.0380001 -7.1550002 0.011 0.28999999
2.0610001 -7.1490002 0.011 0.34999999
2.079 -7.1290002 0.011 0.27000001
2.1059999 -7.138 0.011 0.28
2.131 -7.1389999 0.0099999998 0.28
2.145 -7.145 0.0099999998 0.25
2.1670001 -7.138 0.0099999998 0.17
2.1919999 -7.1370001 0.0099999998 0.44999999
2.2160001 -7.1360002 0.0099999998 0.23999999
2.2420001 -7.1420002 0.0099999998 0.2
2.266 -7.1389999 0.0089999996 0.38
2.2780001 -7.1370001 0.0089999996 0.19
2.2980001 -7.1220002 0.0099999998 0.38
2.3269999 -7.1360002 0.0089999996 0.22
2.3469999 -7.1209998 0.0089999996 0.22
2.378 -7.138 0.0089999996 0.18000001
2.402 -7.1370001 0.0080000004 0.31
2.425 -7.131 0.0080000004 0.19
2.4489999 -7.1269999 0.0080000004 0.18000001
2.4619999 -7.1290002 0.0080000004 0.23
2.4909999 -7.1399999 0.0080000004 0.11
2.5190001 -7.1490002 0.0070000002 0.12
2.5239999 -7.0900002 0.0080000004 0.13
2.5450001 -7.0799999 0.0089999996 0
2.5699999 -7.0799999 0.0080000004 0
2.6070001 -7.1110001 0.0070000002 0.039999999
3.402 -9.2130003 -0.050999999 0
3.4330001 -9.2080002 -0.052000001 0
3.5929999 -9.5410004 -0.061000001 0
3.6300001 -9.5500002 -0.061999999 0
3.5580001 -8.8979998 -0.045000002 0.12
3.589 -8.8940001 -0.045000002 0
3.8199999 -9.3789997 -0.059 0
3.845 -9.3559999 -0.059 0
3.8859999 -9.3710003 -0.059999999 0
3.7750001 -9.0649996 -0.050999999 0
3 -7.1539998 0.0020000001 0
3.5209999 -8.3140001 -0.030999999 0
3.553 -8.316 -0.030999999 0
3.0539999 -7.0970001 0.003 0
3.089 -7.1160002 0.0020000001 0
3.1099999 -7.1030002 0.003 0.029999999
3.223 -7.204 -0.001 0.60000002
3.224 -7.1479998 0 0.47999999
3.2030001 -7.0419998 0.003 0
3.2579999 -7.1040001 0.001 0
3.2980001 -7.073 0.001 0.36000001
3.3180001 -7.0869999 0.001 0.2
3.3770001 -7.1529999 -0.0020000001 0.090000004
3.3929999 -7.1300001 -0.001 0.16
3.395 -7.0760002 0 0.28
3.4330001 -7.099 -0.001 0.17
3.451 -7.079 -0.001 0.34999999
3.473 -7.0949998 -0.001 0.18000001
3.4960001 -7.086 -0.001 0.38
3.5179999 -7.0749998 -0.001 0.23999999
3.552 -7.0869999 -0.0020000001 0.25999999
3.5799999 -7.0869999 -0.0020000001 0.25
3.615 -7.0999999 -0.003 0.28
3.642 -7.098 -0.003 0.28999999
3.6570001 -7.099 -0.003 0.28999999
3.6800001 -7.0900002 -0.0040000002 0.28
3.714 -7.1009998 -0.0040000002 0.28999999
3.74 -7.0949998 -0.0040000002 0.28999999
3.7709999 -7.0999999 -0.0049999999 0.31999999
3.8010001 -7.1030002 -0.0049999999 0.31
3.8269999 -7.098 -0.0060000001 0.28999999
3.852 -7.0910001 -0.0060000001 0.30000001
3.868 -7.0939999 -0.0060000001 0.28
3.898 -7.0949998 -0.0060000001 0.27000001
3.928 -7.0970001 -0.0070000002 0.27000001
3.964 -7.1090002 -0.0080000004 0.2
3.983 -7.0900002 -0.0070000002 0.38999999
4.0170002 -7.098 -0.0080000004 0.20999999
4.0409999 -7.0890002 -0.0080000004 0.25
4.0380001 -7.0580001 -0.0070000002 0
4.0739999 -7.0679998 -0.0080000004 0
4.1030002 -7.0669999 -0.0080000004 0
5.9660001 -10.179 -0.103 0
5.961 -10.098 -0.101 0
5.9559999 -10.018 -0.098999999 0
5.9510002 -9.9390001 -0.097000003 0
5.9520001 -9.9060001 -0.097000003 0
5.9499998 -9.8319998 -0.094999999 0.1
4.3969998 -7.178 -0.015 0.28999999
4.4229999 -7.1690001 -0.015 0.19
4.4359999 -7.1399999 -0.014 0.5
4.579 -7.3169999 -0.02 0.38999999
6.0669999 -9.6450005 -0.092 0.090000004
6.1220002 -9.665 -0.093999997 0
6.1490002 -9.6409998 -0.093000002 0
6.1750002 -9.6149998 -0.093000002 0
6.171 -9.5430002 -0.092 0
4.6069999 -7.0879998 -0.016000001 0
4.6459999 -7.098 -0.016000001 0
4.6680002 -7.1079998 -0.017000001 0
4.684 -7.0830002 -0.017000001 0
4.7160001 -7.0830002 -0.017000001 0.11
4.7579999 -7.0500002 -0.017000001 0.47999999
4.789 -7.0489998 -0.017000001 0.38999999
4.8249998 -7.053 -0.017999999 0.17
4.8429999 -7.0549998 -0.017999999 0.38
4.882 -7.0650001 -0.018999999 0.25
4.9190001 -7.0710001 -0.02 0.25999999
4.948 -7.0650001 -0.02 0.27000001
4.9889998 -7.0760002 -0.021 0.28999999
5.0110002 -7.0599999 -0.021 0.31
5.0469999 -7.0640001 -0.022 0.30000001
5.0770001 -7.0819998 -0.022 0.30000001
5.0970001 -7.0619998 -0.022 0.30000001
5.1339998 -7.0669999 -0.023 0.27000001
5.1690001 -7.0669999 -0.024 0.20999999
5.1900001 -7.0489998 -0.024 0.41999999
5.2389998 -7.0700002 -0.025 0.23
5.2709999 -7.066 -0.025 0.20999999
5.2870002 -7.0640001 -0.025 0
5.3260002 -7.0700002 -0.026000001 0
5.4099998 -7.1339998 -0.028999999 0
5.4349999 -7.1199999 -0.028999999 0
5.73 -7.4559999 -0.039999999 0.050000001
5.6409998 -7.2940001 -0.035999998 0.12
5.5900002 -7.1589999 -0.032000002 0.34999999
5.5960002 -7.1199999 -0.030999999 0.46000001
5.6329999 -7.1209998 -0.032000002 0.31999999
5.651 -7.098 -0.032000002 0.56
5.6739998 -7.0809999 -0.032000002 0.34999999
5.6659999 -7.026 -0.030999999 0.36000001
5.6659999 -6.9809999 -0.029999999 0.36000001
5.6729999 -6.9450002 -0.028999999 0.36000001
5.6550002 -6.901 -0.028000001 0.31
5.6669998 -6.8720002 -0.028000001 0.40000001
5.7210002 -6.8930001 -0.028999999 0.25
5.7360001 -6.8670001 -0.028999999 0.56999999
5.7280002 -6.8140001 -0.027000001 0.28999999
5.7529998 -6.8000002 -0.028000001 0.36000001
5.776 -6.7839999 -0.028000001 0.30000001
5.809 -6.8000002 -0.028000001 0.31999999
5.8390002 -6.7930002 -0.028999999 0.25999999
5.8709998 -6.7859998 -0.028999999 0.31999999
5.9089999 -6.7870002 -0.029999999 0.31999999
5.9439998 -6.7839999 -0.029999999 0.31999999
5.974 -6.776 -0.030999999 0.31999999
6.013 -6.776 -0.030999999 0.30000001
6.04 -6.7849998 -0.032000002 0.30000001
6.0760002 -6.7820001 -0.033 0.31
6.1129999 -6.7810001 -0.033 0.31
6.152 -6.7810001 -0.034000002 0.30000001
6.1799998 -6.7690001 -0.034000002 0.31999999
6.2259998 -6.776 -0.035 0.34999999
6.2550001 -6.7859998 -0.035999998 0.30000001
6.2909999 -6.783 -0.035999998 0.30000001
6.3280001 -6.7789998 -0.037 0.31
6.3670001 -6.7779999 -0.037999999 0.31999999
6.4120002 -6.783 -0.039000001 0.30000001
7.8649998 -8.2589998 -0.093000002 0.33000001
7.8460002 -8.1879997 -0.090999998 0.31999999
7.8889999 -8.1809998 -0.092 0.31999999
8.0209999 -8.2919998 -0.096000001 0.47999999
8.0120001 -8.2309999 -0.094999999 0.31
8.0970001 -8.2650003 -0.097000003 0.44
8.0719995 -8.1890001 -0.094999999 0.18000001
8.0629997 -8.1280003 -0.093999997 0.51999998
8.1079998 -8.1219997 -0.094999999 0.41999999
8.2089996 -8.1709995 -0.097000003 0.36000001
8.2150002 -8.151 -0.097000003 0.23999999
8.1929998 -8.0790005 -0.094999999 0.56
8.2200003 -8.0550003 -0.094999999 0.38999999
8.2460003 -8.0310001 -0.094999999 0.28999999
8.3030005 -7.9840002 -0.096000001 0.19
21.950001 -20.917 -0.58600003 0.16
22.041 -20.938 -0.588 0.30000001
22.16 -20.919001 -0.58999997 0.16
18.318001 -17.188999 -0.44999999 0.40000001
18.322001 -17.084999 -0.449 0.22
18.306 -16.964001 -0.44600001 0.19
18.323 -16.872999 -0.44499999 0.43000001
18.364 -16.804001 -0.44400001 0.25
18.451 -16.83 -0.447 0.25
18.643 -16.899 -0.45100001 0.13
11.128 -10.037 -0.186 0.37
11.171 -10.013 -0.186 0.33000001
11.237 -10.008 -0.18799999 0.28
11.205 -9.9169998 -0.185 0.55000001
18.743999 -16.461 -0.44600001 0.25
18.709 -16.379 -0.44400001 0.2
18.723 -16.288 -0.442 0.36000001
18.714001 -16.176001 -0.44 0.19
12.422 -10.614 -0.221 0.41
12.513 -10.624 -0.223 0.38
12.582 -10.614 -0.22499999 0.38
12.629 -10.62 -0.226 0.38
12.692 -10.605 -0.227 0.38
12.763 -10.597 -0.228 0.41
12.829 -10.583 -0.229 0.30000001
12.89 -10.565 -0.23 0.50999999
12.947 -10.544 -0.23100001 0.34
12.67 -10.253 -0.22 0.25
12.435 -10.032 -0.212 0.30000001
12.459 -9.9860001 -0.212 0.44999999
12.65 -10.074 -0.21699999 0.17
13.284 -10.51 -0.237 0.36000001
13.371 -10.51 -0.23899999 0.36000001
11.697 -9.1389999 -0.182 0.43000001
13.462 -10.445 -0.23999999 0.33000001
11.793 -9.125 -0.184 0.17
11.743 -9.0270004 -0.182 0.46000001
11.763 -8.9840002 -0.18099999 0.30000001
11.723 -8.8950005 -0.17900001 0.47999999
11.749 -8.8570004 -0.17900001 0.28
11.719 -8.7770004 -0.177 0.44999999
11.91 -8.8620005 -0.182 0.5
11.892 -8.8190002 -0.18099999 0.33000001
11.95 -8.8039999 -0.182 0.27000001
11.729 -8.585 -0.17399999 0.30000001
11.704 -8.5109997 -0.17299999 0.47
11.728 -8.4720001 -0.17299999 0.30000001
11.709 -8.4020004 -0.171 0.51999998
11.714 -8.3509998 -0.17 0.31
11.73 -8.3339996 -0.171 0.43000001
11.733 -8.2810001 -0.17 0.37
11.741 -8.2320004 -0.169 0.38999999
11.741 -8.177 -0.168 0.33000001
11.735 -8.118 -0.167 0.55000001
11.782 -8.0959997 -0.168 0.20999999
11.745 -8.0159998 -0.16599999 0.58999997
11.892 -8.0620003 -0.17 0.38999999
12.078 -8.1599998 -0.175 0.23999999
11.694 -7.848 -0.163 0.34999999
11.737 -7.8239999 -0.163 0.49000001
11.723 -7.7610002 -0.162 0.27000001
11.719 -7.7059999 -0.161 0.52999997
11.77 -7.6869998 -0.162 0.25999999
11.744 -7.6170001 -0.16 0.51999998
11.741 -7.5890002 -0.16 0.34999999
11.79 -7.5679998 -0.161 0.52999997
12.001 -7.6500001 -0.16599999 0.23999999
11.776 -7.4549999 -0.15899999 0.38
11.803 -7.4200001 -0.15899999 0.34999999
11.799 -7.3660002 -0.15800001 0.38
11.795 -7.3130002 -0.15700001 0.38999999
11.767 -7.27 -0.156 0.41999999
11.761 -7.2150002 -0.155 0.47
11.753 -7.1599998 -0.154 0.36000001
11.786 -7.1290002 -0.154 0.44
11.791 -7.0809999 -0.154 0.47999999
11.82 -7.0479999 -0.154 0.33000001
11.802 -6.9879999 -0.153 0.43000001
11.775 -6.947 -0.152 0.47
11.752 -6.8839998 -0.15000001 0.31
11.774 -6.8470001 -0.15000001 0.58999997
11.804 -6.8150001 -0.15099999 0.25
11.834 -6.783 -0.15099999 0.5
11.85 -6.743 -0.15099999 0.38999999
11.81 -6.671 -0.149 0.40000001
11.78 -6.6300001 -0.148 0.34999999
11.787 -6.585 -0.147 0.43000001
11.813 -6.5510001 -0.148 0.47
11.827 -6.5100002 -0.147 0.34
11.838 -6.4679999 -0.147 0.44
11.82 -6.4099998 -0.146 0.41
11.861 -6.3839998 -0.147 0.40000001
11.862 -6.3610001 -0.146 0.28999999
11.79 -6.2750001 -0.14399999 0.50999999
11.822 -6.244 -0.14399999 0.25999999
11.847 -6.21 -0.14399999 0.50999999
11.895 -6.1869998 -0.145 0.25999999
11.92 -6.1529999 -0.145 0.56999999
12.092 -6.1929998 -0.15000001 0.19
11.845 -6.0440001 -0.142 0.55000001
11.875 -6.0120001 -0.142 0.34
12.074 -6.0650001 -0.148 0.41
11.85 -5.9060001 -0.141 0.36000001
11.909 -5.8889999 -0.142 0.41
11.879 -5.8280001 -0.14 0.41
11.88 -5.7820001 -0.14 0.44
11.907 -5.7719998 -0.14 0.43000001
11.907 -5.7259998 -0.14 0.36000001
11.917 -5.6849999 -0.14 0.36000001
11.93 -5.645 -0.139 0.41999999
11.92 -5.5949998 -0.139 0.36000001
11.925 -5.552 -0.138 0.41
11.924 -5.506 -0.138 0.46000001
11.967 -5.48 -0.138 0.30000001
11.93 -5.4400001 -0.13699999 0.47999999
11.945 -5.402 -0.13699999 0.31
11.906 -5.3390002 -0.13600001 0.52999997
12.001 -5.3369999 -0.138 0.38999999
12.043 -5.3099999 -0.138 0.20999999
12.007 -5.2490001 -0.13699999 0.38999999
11.987 -5.2179999 -0.13600001 0.43000001
11.978 -5.1700001 -0.13500001 0.41999999
11.992 -5.131 -0.13500001 0.37
11.99 -5.086 -0.13500001 0.38999999
12.089 -5.0830002 -0.13699999 0.31999999
12.014 -5.007 -0.13500001 0.44
12.037 -4.973 -0.13500001 0.34999999
12.012 -4.9180002 -0.134 0.44999999
11.974 -4.8800001 -0.132 0.38
12.046 -4.8660002 -0.134 0.37
12.002 -4.8039999 -0.132 0.43000001
12.062 -4.7839999 -0.134 0.30000001
12.038 -4.7309999 -0.133 0.5
12.079 -4.7030001 -0.133 0.28999999
12.179 -4.698 -0.13600001 0.56
12.708 -4.8779998 -0.15000001 0.43000001
13.075 -4.9710002 -0.16 0.15000001
12.186 -4.5910001 -0.13500001 0.51999998
12.166 -4.54 -0.134 0.31
12.183 -4.5029998 -0.134 0.27000001
12.223 -4.474 -0.13500001 0.57999998
12.406 -4.4970002 -0.139 0.34
12.92 -4.6589999 -0.153 0.23
13.064 -4.664 -0.15700001 0.57999998
13.001 -4.5960002 -0.155 0.22
18.076 -6.316 -0.29499999 0.20999999
18.075001 -6.2519999 -0.294 0.27000001
18.082001 -6.1900001 -0.294 0.36000001
18.09 -6.1300001 -0.29300001 0.20999999
12.819 -4.329 -0.148 0.38
12.794 -4.276 -0.147 0.23
12.756 -4.2189999 -0.146 0.50999999
12.775 -4.1810002 -0.146 0.31
12.571 -4.0710001 -0.14 0.56
12.653 -4.053 -0.142 0.31999999
12.379 -3.9230001 -0.134 0.41
12.347 -3.892 -0.133 0.38
12.436 -3.8770001 -0.13500001 0.54000002
12.469 -3.8440001 -0.13600001 0.14
12.374 -3.773 -0.133 0.58999997
12.658 -3.8150001 -0.14 0.38
12.629 -3.763 -0.139 0.23999999
12.649 -3.7260001 -0.139 0.46000001
12.576 -3.6830001 -0.13699999 0.34
12.624 -3.654 -0.138 0.44
12.628 -3.612 -0.138 0.37
12.556 -3.549 -0.13600001 0.27000001
12.534 -3.5009999 -0.13500001 0.52999997
12.46 -3.438 -0.132 0.17
12.491 -3.404 -0.133 0.50999999
12.509 -3.388 -0.133 0.23999999
12.445 -3.329 -0.131 0.47999999
12.48 -3.296 -0.132 0.36000001
12.463 -3.25 -0.131 0.56
18.027 -4.6290002 -0.28099999 0.20999999
12.6 -3.201 -0.134 0.28
12.654 -3.1730001 -0.13500001 0.38999999
12.657 -3.152 -0.13500001 0.28999999
12.628 -3.1029999 -0.134 0.55000001
12.685 -3.075 -0.13600001 0.27000001
12.669 -3.029 -0.13500001 0.52999997
12.749 -3.0050001 -0.13699999 0.47999999
18.044001 -4.1830001 -0.278 0.28999999
18.028 -4.119 -0.27700001 0.22
14.519 -3.299 -0.184 0.31999999
14.522 -3.2520001 -0.183 0.36000001
14.53 -3.2049999 -0.183 0.50999999
18.018999 -3.9089999 -0.27599999 0.31
18.037001 -3.8540001 -0.27599999 0.33000001
18.016001 -3.79 -0.27500001 0.28999999
18.030001 -3.734 -0.27500001 0.36000001
18.031 -3.6760001 -0.27500001 0.31
18.01 -3.642 -0.27399999 0.30000001
18.017 -3.5840001 -0.27399999 0.34
18.030001 -3.5280001 -0.27399999 0.33000001
18.007999 -3.4649999 -0.273 0.31999999
18.014999 -3.408 -0.273 0.31
18.02 -3.3499999 -0.273 0.31999999
18.002001 -3.2880001 -0.27200001 0.30000001
18.004 -3.2590001 -0.27200001 0.34
18.01 -3.2019999 -0.27200001 0.28999999
18.011999 -3.1440001 -0.27200001 0.33000001
18 -3.0840001 -0.271 0.33000001
18.004 -3.026 -0.271 0.30000001
17.999001 -2.9679999 -0.271 0.34
18.004999 -2.9100001 -0.271 0.31999999
18.004999 -2.881 -0.271 0.30000001
17.996 -2.822 -0.27000001 0.31
17.993 -2.7639999 -0.27000001 0.31999999
18.004 -2.7079999 -0.27000001 0.31
17.983 -2.6470001 -0.26899999 0.28999999
17.990999 -2.5899999 -0.26899999 0.20999999
14.708 -2.075 -0.183 0.38999999
14.673 -2.0469999 -0.182 0.34999999
14.709 -2.0050001 -0.182 0.54000002
17.993999 -2.3889999 -0.26899999 0.31
17.982 -2.3299999 -0.26800001 0.31999999
17.973 -2.2709999 -0.26800001 0.23999999
14.722 -1.818 -0.182 0
14.769 -1.777 -0.183 0
14.758 -1.752 -0.183 0.12
13.643 -1.5779999 -0.153 0.25
17.916 -2.0079999 -0.26499999 0.23999999
18.336 -1.9960001 -0.27599999 0.25
18.575001 -1.962 -0.28200001 0
14.778 -1.52 -0.183 0.07
13.759 -1.373 -0.156 0.18000001
17.957001 -1.755 -0.266 0.28999999
17.972 -1.7 -0.266 0.22
17.993 -1.645 -0.266 0.31999999
17.966999 -1.586 -0.266 0.2
13.387 -1.146 -0.146 0.38999999
17.964001 -1.472 -0.26499999 0.28999999
13.424 -1.064 -0.146 0.23999999
12.556 -0.977 -0.124 0
17.962999 -1.33 -0.26499999 0.13
13.314 -0.94999999 -0.14300001 0.25999999
17.966999 -1.217 -0.26499999 0.31
13.362 -0.86900002 -0.14399999 0.25
17.955 -1.102 -0.264 0.18000001
14.854 -0.87 -0.183 0.25999999
14.827 -0.84500003 -0.183 0.51999998
14.888 -0.801 -0.184 0.38999999
17.945999 -0.90399998 -0.264 0.28
17.940001 -0.847 -0.264 0.25999999
18.007 -0.79400003 -0.26499999 0.36000001
17.979 -0.736 -0.26499999 0.31999999
17.945999 -0.67799997 -0.264 0.28999999
17.985001 -0.65100002 -0.26499999 0.33000001
17.951 -0.59299999 -0.264 0.28999999
17.952 -0.537 -0.264 0.28999999
17.954 -0.48100001 -0.264 0.28999999
17.945 -0.42399999 -0.26300001 0.33000001
17.969 -0.368 -0.264 0.31
17.952 -0.31099999 -0.26300001 0.30000001
17.988001 -0.28400001 -0.264 0.18000001
17.905001 -0.226 -0.26199999 0.52999997
17.982 -0.171 -0.264 0.31
17.983999 -0.114 -0.264 0.31
18.006001 -0.057999998 -0.26499999 0.31999999
17.99 -0.001 -0.264 0.28999999
17.885 0.024 -0.368 0.28999999
17.871 0.079999998 -0.368 0.27000001
17.867001 0.13600001 -0.368 0.31
17.871 0.164 -0.368 0.34
17.878 0.22 -0.368 0.33000001
17.867001 0.27599999 -0.368 0.30000001
14.991 0.33000001 -0.27599999 0.27000001
15.03 0.37799999 -0.27700001 0.63
17.851999 0.5 -0.36700001 0.28999999
17.870001 0.52899998 -0.368 0.31999999
17.878 0.58499998 -0.368 0.34
17.878 0.64200002 -0.368 0.30000001
17.875999 0.69800001 -0.368 0.28999999
17.870001 0.75400001 -0.368 0.25
17.863001 0.81 -0.368 0.28999999
17.846001 0.86500001 -0.368 0.28999999
17.851999 0.92199999 -0.368 0.34999999
17.848 0.94999999 -0.368 0.30000001
17.863001 1.007 -0.368 0.33000001
17.872 1.063 -0.36899999 0.28999999
17.860001 1.119 -0.368 0.23
17.934999 1.1799999 -0.37099999 0.38999999
13.336 0.926 -0.223 0.18000001
13.319 0.96700001 -0.223 0.38999999
13.365 0.99199998 -0.22499999 0.36000001
13.292 1.028 -0.222 0.41999999
13.137 1.058 -0.21699999 0.25999999
13.222 1.107 -0.22 0.51999998
12.967 1.127 -0.212 0.23
12.94 1.165 -0.211 0.51999998
13.049 1.216 -0.215 0.36000001
13.031 1.2359999 -0.215 0.44
13.006 1.274 -0.214 0.37
12.858 1.301 -0.20900001 0.44
12.983 1.355 -0.213 0.49000001
12.969 1.3940001 -0.213 0.22
13.03 1.442 -0.215 0.54000002
13.314 1.515 -0.22499999 0.30000001
12.97 1.498 -0.214 0.47
13.06 1.549 -0.21699999 0.34
13.089 1.594 -0.21799999 0.38
13.024 1.628 -0.21600001 0.47
13.037 1.671 -0.21600001 0.41
13.07 1.717 -0.21799999 0.38999999
12.925 1.74 -0.213 0.38
12.923 1.76 -0.213 0.44999999
13.018 1.8150001 -0.21600001 0.44999999
13.179 1.8789999 -0.222 0.30000001
13.347 1.9450001 -0.227 0.41999999
13.412 1.998 -0.23 0.56
16.396 2.4890001 -0.32600001 0.25
16.284 2.5239999 -0.32300001 0.27000001
16.149 2.53 -0.31900001 0.28
16.039 2.5639999 -0.315 0.28999999
15.918 2.5969999 -0.31200001 0.28999999
15.809 2.6300001 -0.30899999 0.27000001
15.629 2.651 -0.303 0.23
15.302 2.645 -0.29300001 0.25
15.344 2.7019999 -0.294 0.61000001
15.309 2.721 -0.29300001 0.18000001
15.261 2.7620001 -0.292 0.20999999
15.234 2.8069999 -0.29100001 0.64999998
15.176 2.845 -0.28999999 0.36000001
15.189 2.8970001 -0.29100001 0.27000001
15.203 2.9489999 -0.29100001 0.23
15.196 2.997 -0.29100001 0.22
15.198 3.0469999 -0.292 0.43000001
15.225 3.0780001 -0.29300001 0.28999999
15.221 3.1270001 -0.29300001 0.28
15.244 3.2309999 -0.294 0.54000002
15.232 3.279 -0.294 0.22
15.237 3.3299999 -0.29499999 0.40000001
15.262 3.385 -0.296 0.22
15.256 3.4089999 -0.296 0.19
15.257 3.46 -0.296 0.44
15.279 3.5150001 -0.29699999 0.22
15.28 3.566 -0.29800001 0.20999999
15.276 3.6159999 -0.29800001 0.17
15.288 3.6700001 -0.29899999 0.52999997
15.3 3.723 -0.30000001 0.20999999
15.31 3.7509999 -0.30000001 0.38
15.319 3.8039999 -0.301 0.2
15.313 3.8540001 -0.301 0.22
15.332 3.9100001 -0.30199999 0.38999999
15.348 3.9649999 -0.303 0.31
15.351 4.0180001 -0.30399999 0.27000001
15.346 4.0679998 -0.30399999 0.22
15.356 4.0960002 -0.30399999 0.31999999
15.364 4.1500001 -0.30500001 0.44999999
15.389 4.2090001 -0.30599999 0.25999999
15.326 4.2950001 -0.30500001 0.55000001
15.412 4.3709998 -0.308 0.20999999
15.41 4.4229999 -0.30899999 0.30000001
15.417 4.4510002 -0.30899999 0.16
15.431 4.5079999 -0.31 0.41999999
15.434 4.5619998 -0.31099999 0.27000001
15.437 4.6149998 -0.31099999 0.28999999
15.444 4.6700001 -0.31200001 0.23
15.465 4.7290001 -0.31299999 0.31
15.447 4.777 -0.31299999 0.25
15.462 4.8080001 -0.31400001 0.38999999
15.468 4.8629999 -0.315 0.22
15.477 4.9200001 -0.315 0.16
15.469 4.9710002 -0.31600001 0.38
15.49 5.0310001 -0.317 0.23
15.493 5.086 -0.31799999 0.2
15.457 5.1550002 -0.317 0.36000001
15.523 5.2309999 -0.31999999 0.18000001
15.54 5.2909999 -0.32100001 0.23999999
15.535 5.3439999 -0.32100001 0.18000001
15.55 5.4039998 -0.32300001 0.37
15.548 5.4580002 -0.32300001 0.38999999
15.563 5.5180001 -0.324 0.19
15.564 5.546 -0.324 0.14
15.589 5.6100001 -0.32600001 0.52999997
15.585 5.664 -0.32600001 0.31999999
15.593 5.7220001 -0.32699999 0.23999999
15.592 5.7779999 -0.32800001 0.15000001
15.499 5.7989998 -0.32499999 0
6.4429998 2.45 -0.016000001 0.079999998
6.415 2.451 -0.015 0.23999999
6.4029999 2.4690001 -0.015 0.19
6.3920002 2.4879999 -0.015 0.28
6.375 2.5050001 -0.015 0.19
6.3740001 2.5280001 -0.015 0.20999999
6.348 2.54 -0.014 0
6.3579998 2.5680001 -0.015 0
6.395 2.605 -0.017000001 0.050000001
15.694 6.4400001 -0.33899999 0.43000001
15.707 6.5029998 -0.34 0.28
15.705 6.5599999 -0.34 0.28
15.716 6.6220002 -0.34099999 0.2
15.728 6.6859999 -0.34299999 0.2
14.056 6.0300002 -0.285 0.5
14.028 6.0440001 -0.285 0.20999999
13.838 6.0139999 -0.27900001 0.38
13.946 6.1129999 -0.28299999 0.43000001
14.045 6.2090001 -0.287 0.38999999
13.71 6.1129999 -0.27599999 0.33000001
13.709 6.164 -0.27700001 0.33000001
13.728 6.2249999 -0.278 0.41999999
13.869 6.3150001 -0.28299999 0.41
13.784 6.3280001 -0.28099999 0.41
13.814 6.395 -0.28299999 0.31
13.872 6.474 -0.28600001 0.43000001
13.801 6.494 -0.28400001 0.25
13.811 6.552 -0.285 0.60000002
13.701 6.553 -0.28200001 0.28999999
13.688 6.573 -0.28200001 0.43000001
13.792 6.6760001 -0.28600001 0.20999999
13.859 6.7620001 -0.289 0.64999998
14.114 6.941 -0.29899999 0.31999999
14.481 7.177 -0.31299999 0.41
14.477 7.2319999 -0.31400001 0.20999999
13.919 7.0089998 -0.294 0.22
14.332 7.244 -0.31 0.66000003
14.334 7.302 -0.31099999 0.17
14.407 7.3959999 -0.31400001 0.67000002
14.378 7.4380002 -0.31400001 0.20999999
14.388 7.5009999 -0.315 0.47
15.939 8.3699999 -0.37200001 0.31
15.947 8.4379997 -0.373 0.17
14.253 7.5739999 -0.31200001 0.20999999
14.118 7.559 -0.308 0.57999998
14.459 7.7989998 -0.32100001 0.23999999
13.45 7.3119998 -0.28600001 0.43000001
14.102 7.7220001 -0.31 0.2
13.926 7.6830001 -0.30500001 0.54000002
13.456 7.48 -0.28799999 0.25999999
13.632 7.6059999 -0.29499999 0.41999999
13.401 7.5320001 -0.28799999 0.17
13.234 7.494 -0.28200001 0.56999999
13.67 7.796 -0.29899999 0.27000001
13.427 7.7140002 -0.29100001 0.41
13.205 7.6420002 -0.28400001 0.34
13.501 7.869 -0.296 0.51999998
14.208 8.3100004 -0.322 0.23
13.782 8.1199999 -0.308 0.30000001
13.548 8.04 -0.30000001 0.30000001
13.389 8.0030003 -0.29499999 0.34
13.347 8.0349998 -0.294 0.50999999
13.226 8.0190001 -0.29100001 0.41
13.183 8.0500002 -0.28999999 0.25999999
13.297 8.1479998 -0.29499999 0.56999999
13.416 8.2779999 -0.30000001 0.25999999
13.449 8.3570004 -0.30199999 0.56999999
13.377 8.3710003 -0.301 0.25
13.156 8.2910004 -0.29300001 0.51999998
13.245 8.4049997 -0.29800001 0.38
13.17 8.415 -0.296 0.38
13.224 8.4790001 -0.29800001 0.44
13.597 8.7779999 -0.31400001 0.30000001
13.434 8.7320004 -0.308 0.40000001
13.445 8.8000002 -0.31 0.43000001
13.338 8.79 -0.30700001 0.25999999
13.352 8.8599997 -0.30899999 0.54000002
13.333 8.9069996 -0.30899999 0.44
13.515 9.059 -0.31600001 0.20999999
13.505 9.1140003 -0.317 0.56
13.589 9.2320004 -0.32100001 0.27000001
13.459 9.2060003 -0.31799999 0.47999999
13.423 9.2440004 -0.317 0.30000001
13.527 9.3780003 -0.322 0.57999998
16.375999 11.423 -0.435 0.23
16.406 11.482 -0.43700001 0.38
16.419001 11.568 -0.43799999 0.40000001
16.421 11.647 -0.44 0.40000001
16.434 11.733 -0.442 0.34999999
16.475 11.841 -0.44499999 0.60000002
16.434 11.89 -0.44499999 0.31999999
20.746 15.1 -0.61699998 0.25
20.634001 15.118 -0.61400002 0.17
20.629 15.165 -0.61500001 0.46000001
20.639 15.272 -0.61699998 0.25
15.034 11.206 -0.396 0.15000001
14.782 11.092 -0.38699999 0.27000001
14.732 11.126 -0.38699999 0.41
14.582 11.086 -0.382 0.31999999
14.62 11.187 -0.38499999 0.41
14.614 11.219 -0.38499999 0.31
14.616 11.294 -0.38699999 0.38999999
14.524 11.296 -0.38499999 0.41999999
14.518 11.364 -0.38600001 0.23999999
14.544 11.458 -0.38800001 0.33000001
14.621 11.593 -0.39300001 0.34
14.509 11.579 -0.38999999 0.43000001
14.581 11.674 -0.39300001 0.33000001
14.46 11.652 -0.38999999 0.43000001
14.502 11.761 -0.39300001 0.34
14.437 11.783 -0.39199999 0.34
14.413 11.84 -0.39300001 0.46000001
14.382 11.89 -0.39300001 0.25
14.468 12.038 -0.398 0
25.393999 21.171 -0.85399997 0
25.238001 21.447001 -0.85600001 0
25.198 21.549 -0.85699999 0
25.191 21.68 -0.85900003 0.090000004
15.471 13.456 -0.45199999 0.27000001
15.462 13.533 -0.45300001 0.38999999
15.449 13.608 -0.45500001 0.30000001
15.18 13.457 -0.44499999 0.34999999
15.21 13.568 -0.44800001 0.50999999
15.228 13.671 -0.45100001 0.31999999
14.988 13.54 -0.442 0.37
15.006 13.6 -0.44400001 0.31
14.848 13.542 -0.43900001 0.44
14.801 13.585 -0.43900001 0.34
14.792 13.662 -0.44 0.36000001
14.751 13.71 -0.44 0.44999999
14.345 13.418 -0.42399999 0.30000001
14.161 13.331 -0.41800001 0.25999999
14.111 13.325 -0.417 0.56999999
14.055 13.356 -0.41600001 0.31
14.019 13.405 -0.41600001 0.33000001
24.407 23.459 -0.87900001 0.28
24.079 23.290001 -0.86799997 0.23
23.910999 23.274 -0.86400002 0.25
23.656 23.171 -0.85500002 0.20999999
23.594 23.183001 -0.85399997 0.46000001
