# .PCD v0.7 - Point Cloud Data file format
VERSION 0.7
FIELDS x y z intensity
SIZE 4 4 4 4
TYPE F F F F
COUNT 1 1 1 1
WIDTH 1495
HEIGHT 1
VIEWPOINT 0 0 0 1 0 0 0
POINTS 1495
DATA ascii
-34.136002 31.872 0.91799998 0
-32.964001 21.587 0.80699998 0.11
-33.006001 21.466999 0.80699998 0.30000001
-33.054001 21.35 0.80599999 0.31999999
-33.112 21.240999 0.80599999 0.27000001
-33.108002 21.091 0.80500001 0
-33.409 21.136 0.80900002 0
-52.580002 32.25 1.146 0
-52.632999 32.056 1.145 0
-52.679001 31.857 1.1440001 0
-52.68 31.743999 1.143 0
-52.769001 31.572001 1.143 0
-53.172001 31.587 1.149 0
-53.321999 31.451 1.149 0.11
-53.391998 31.266001 1.149 0.090000004
-53.452 31.076 1.148 0.16
-53.52 30.891001 1.148 0.12
-53.473999 30.753 1.146 0.090000004
-53.09 30.309999 1.138 0.090000004
-53.138 30.115999 1.137 0
-53.185001 29.922001 1.136 0
-53.213001 29.718 1.135 0.079999998
-53.271999 29.532 1.1339999 0.090000004
-53.337002 29.349001 1.1339999 0.16
-53.325001 29.233999 1.133 0.23
-9.6689997 5.237 0.375 0.12
-9.6680002 5.197 0.375 0.31999999
-9.6719999 5.1599998 0.37400001 0.30000001
-9.6599998 5.1149998 0.37400001 0.36000001
-9.5950003 5.0409999 0.373 0.34999999
-9.5319996 4.9699998 0.37099999 0.25
-9.5570002 4.9450002 0.37099999 0.38999999
-9.5430002 4.9190001 0.37099999 0.28
-9.5749998 4.8969998 0.37099999 0.44999999
-9.5419998 4.8429999 0.37 0.25999999
-9.5500002 4.809 0.37 0.37
-9.5690002 4.7810001 0.37 0.33000001
-9.5869999 4.7519999 0.37 0.34
-9.6000004 4.7399998 0.37099999 0.34999999
-9.6169996 4.711 0.37099999 0.31999999
-9.6389999 4.684 0.37099999 0.34
-9.6610003 4.6570001 0.37099999 0.34
-9.6820002 4.6300001 0.37099999 0.31
-9.6990004 4.6009998 0.37099999 0.28
-9.7440004 4.585 0.37200001 0.34
-9.7580004 4.573 0.37200001 0.30000001
-9.8030005 4.5570002 0.37200001 0.38
-9.8470001 4.539 0.373 0.30000001
-9.9040003 4.5279999 0.373 0.28999999
-9.9799995 4.5250001 0.37400001 0.25
-9.9449997 4.4720001 0.37400001 0
-54.668999 24.4 1.118 0
-10.131 4.5170002 0.37599999 0
-54.731998 24.222 1.118 0
-54.768002 23.827 1.1160001 0.27000001
-54.832001 23.650999 1.1160001 0
-29.535 12.507 0.69599998 0
-29.540001 12.454 0.69499999 0.13
-22.320999 9.3210001 0.57599998 0.17
-22.271 9.2180004 0.574 0.27000001
-22.261 9.132 0.574 0.31999999
-22.273001 9.0550003 0.57300001 0.41999999
-22.312 8.9899998 0.574 0.34999999
-22.393999 8.941 0.57499999 0.25
-22.441 8.9189997 0.57499999 0.36000001
-29.849001 11.764 0.69599998 0.17
-29.681 11.59 0.69199997 0.20999999
-29.896999 11.566 0.69499999 0.23999999
-29.097 11.151 0.68199998 0.2
-29.152 11.067 0.68199998 0.46000001
-29.295 11.017 0.68400002 0.18000001
-29.93 11.203 0.69400001 0.28999999
-29.872999 11.074 0.69199997 0.28999999
-30.09 11.047 0.69499999 0.27000001
-30.375999 11.045 0.699 0.23
-30.587999 11.013 0.70200002 0.2
-32.550999 11.606 0.73299998 0.25999999
-32.542 11.488 0.73299998 0.31999999
-32.563 11.438 0.73299998 0.31999999
-32.613998 11.341 0.73299998 0.27000001
-32.993999 11.357 0.73900002 0
-32.890999 11.206 0.736 0
-55.743 18.621 1.102 0.28999999
-55.720001 18.417999 1.1 0.25999999
-55.723999 18.323 1.1 0.25999999
-55.762001 18.141001 1.1 0.25
-55.808998 17.962999 1.1 0.23999999
-55.855999 17.785 1.099 0.23999999
-55.890999 17.601999 1.099 0.23999999
-55.938 17.424 1.099 0.23999999
-55.964001 17.24 1.099 0.25
-55.983002 17.149 1.098 0.25
-56.102001 16.993 1.099 0
-56.310001 16.863001 1.102 0
-62.416 18.481001 1.198 0
-62.462002 18.282 1.198 0
-62.508999 18.083 1.198 0
-62.548 17.881001 1.197 0
-56.362 15.823 1.098 0
-62.655998 17.381001 1.197 0
-62.709 17.183001 1.197 0
-62.778 16.990999 1.197 0
-62.828999 16.792999 1.197 0
-62.860001 16.59 1.197 0.11
-56.717999 14.871 1.1 0.18000001
-56.543999 14.635 1.096 0.23
-56.566002 14.452 1.096 0.1
-56.606998 14.273 1.096 0.16
-56.655998 14.096 1.096 0.23
-56.698002 13.917 1.096 0.11
-56.738998 13.739 1.096 0.16
-56.772999 13.652 1.096 0
-56.792 13.468 1.096 0
-55.562 12.992 1.076 0.1
-55.539001 12.803 1.075 0.11
-55.563 12.624 1.075 0.17
-55.587002 12.446 1.074 0.28
-55.627998 12.272 1.074 0.25999999
-55.645 12.184 1.074 0.27000001
-55.674999 12.008 1.074 0.25
-55.722 11.835 1.074 0.25
-55.761002 11.66 1.074 0.25
-55.779999 11.481 1.074 0.11
-55.831001 11.309 1.074 0.14
-56.049 11.17 1.077 0
-63.724998 12.599 1.196 0.07
-63.764 12.399 1.196 0.16
-31.167999 5.9460001 0.69 0
-31.205999 5.8509998 0.69099998 0
-63.897999 11.801 1.196 0.079999998
-56.365002 10.224 1.079 0.16
-56.389 10.045 1.079 0
-64.005997 11.302 1.196 0
-64.053001 11.103 1.197 0
-64.111 10.906 1.197 0
-64.122002 10.7 1.197 0
-64.175003 10.502 1.197 0.11
-56.598 9.0769997 1.08 0.12
-56.367001 8.8579998 1.076 0.16
-56.395 8.7720003 1.076 0.12
-56.422001 8.5939999 1.076 0.16
-56.463001 8.4189997 1.076 0.28
-56.508999 8.2449999 1.076 0.25999999
-56.551998 8.0699997 1.077 0.25
-56.589001 7.8940001 1.077 0.25
-56.622002 7.717 1.077 0.23999999
-56.644001 7.6290002 1.077 0.11
-56.693001 7.4549999 1.0779999 0
-56.793999 7.2859998 1.079 0
-72.974998 9.1370001 1.327 0
-73.033997 8.9110003 1.327 0
-73.060997 8.6820002 1.327 0
-73.122002 8.4560003 1.327 0.039999999
-57.159 6.5139999 1.0829999 0
-57.191002 6.335 1.0829999 0
-73.25 7.8889999 1.3279999 0
-57.313 5.9850001 1.084 0
-73.366997 7.4349999 1.33 0
-73.421997 7.2080002 1.33 0.059999999
-57.276001 5.4349999 1.0829999 0
-57.171001 5.335 1.081 0
-73.538002 6.6370001 1.331 0
-74.567001 6.494 1.346 0
-58.521999 4.9980001 1.101 0
-74.623001 6.1440001 1.347 0
-58.598 4.4489999 1.102 0
-66.509003 4.6329999 1.222 0
-66.459 4.4200001 1.221 0
-66.501999 4.3179998 1.222 0
-58.778999 3.628 1.104 0
-58.592999 3.431 1.101 0
-58.601002 3.247 1.101 0
-58.631001 3.0639999 1.101 0
-58.672001 2.881 1.101 0
-58.710999 2.6989999 1.102 0
-58.757 2.608 1.102 0
-58.772999 2.424 1.103 0.12
-58.827999 2.2409999 1.103 0.23
-58.855 2.0569999 1.104 0.1
-58.893002 1.873 1.104 0
-59.266998 1.699 1.11 0
-59.425999 1.517 1.112 0
-59.439999 1.424 1.112 0
-59.487999 1.238 1.113 0
-59.507999 1.051 1.113 0.07
-59.485001 0.86400002 1.113 0.14
-59.323002 0.67500001 1.11 0
-59.609001 0.491 1.115 0
-59.666 0.30399999 1.115 0
-59.652 0.20999999 1.115 0
-59.721001 0.023 1.1160001 0
-59.783001 -0.16500001 1.117 0.1
-59.655998 -0.352 1.115 0.13
-59.405998 -0.537 1.1109999 0.090000004
-59.442001 -0.72399998 1.112 0.090000004
-59.48 -0.912 1.113 0.14
-59.521999 -1.006 1.113 0.18000001
-59.569 -1.194 1.114 0.17
-59.606998 -1.382 1.115 0.17
-59.646 -1.5700001 1.115 0
-43.574001 -1.291 0.87099999 0
-59.730999 -1.948 1.117 0
-54.641998 -1.956 1.039 0.050000001
-61.144001 -2.2820001 1.1390001 0.14
-61.171001 -2.4749999 1.1390001 0.090000004
-61.240002 -2.671 1.14 0
-61.259998 -2.865 1.141 0
-61.334 -3.0610001 1.142 0
-61.389999 -3.257 1.143 0
-61.707001 -3.4679999 1.148 0
-61.917 -3.5780001 1.151 0
-61.928001 -3.7739999 1.152 0
-61.862999 -4.1599998 1.151 0
-62.002998 -4.3649998 1.153 0
-62.070999 -4.566 1.155 0
-62.141998 -4.7670002 1.156 0
-62.18 -4.868 1.1569999 0.1
-62.021 -5.052 1.154 0
-61.838001 -5.2329998 1.152 0
-41.046001 -3.612 0.83499998 0
-40.737999 -3.714 0.82999998 0
-40.669998 -3.8369999 0.829 0
-40.602001 -3.9590001 0.82800001 0.059999999
-40.546001 -4.0180001 0.82800001 0.13
-40.507999 -4.1430001 0.82700002 0.2
-40.749001 -4.2969999 0.83099997 0
-40.516998 -4.401 0.82800001 0
-40.551998 -4.5339999 0.82800001 0
-40.611 -4.6700001 0.82999998 0
-40.681999 -4.8070002 0.83099997 0
-40.855 -4.8930001 0.83399999 0
-62.791 -7.7059999 1.17 0.039999999
-55.585999 -7.0019999 1.0599999 0.14
-62.751999 -8.1020002 1.17 0
-62.942001 -8.3269997 1.174 0
-62.945 -8.5290003 1.174 0
-62.994999 -8.7370005 1.175 0.090000004
-62.891998 -8.8240004 1.174 0
-62.667999 -8.993 1.171 0
-62.695 -9.198 1.1720001 0.07
-62.703999 -9.401 1.1720001 0.079999998
-62.737 -9.6070004 1.173 0.090000004
-62.784 -9.816 1.174 0.14
-62.813999 -10.023 1.175 0.090000004
-62.867001 -10.133 1.176 0
-62.911999 -10.343 1.178 0
-62.984001 -10.558 1.179 0
-63.035 -10.771 1.181 0
-63.192001 -11.002 1.183 0
-63.706001 -11.297 1.192 0
-63.706001 -11.504 1.193 0
-63.555 -11.786 1.191 0
-63.931999 -12.064 1.197 0
-63.863998 -12.259 1.197 0.050000001
-46.689999 -9.1219997 0.93099999 0.14
-63.778 -12.658 1.197 0
-63.528 -12.817 1.194 0
-63.526001 -12.92 1.194 0
-63.515999 -13.126 1.194 0
-63.582001 -13.348 1.196 0
-63.601002 -13.56 1.197 0
-42.384998 -9.3249998 0.86799997 0.20999999
-34.415001 -7.6900001 0.74400002 0.25999999
-34.358002 -7.7340002 0.74299997 0.36000001
-34.298 -7.8340001 0.74299997 0.25
-34.289001 -7.9450002 0.74299997 0.38
-34.273998 -8.0550003 0.74299997 0.33000001
-34.276001 -8.1689997 0.74400002 0.23999999
-34.209 -8.2670002 0.74299997 0
-34.402 -8.4280005 0.74699998 0
-69.012001 -16.993999 1.289 0
-69.053001 -17.235001 1.29 0
-69.100998 -17.478001 1.2920001 0
-69.151001 -17.721001 1.294 0
-69.192001 -17.964001 1.295 0
-69.237 -18.208 1.2970001 0
-69.279999 -18.452 1.298 0
-69.133003 -18.528999 1.2970001 0
-15.128 -4.2290001 0.447 0.44999999
-15.12 -4.2779999 0.447 0.38999999
-25.141001 -7.1810002 0.60500002 0.17
-25.013 -7.2290001 0.60399997 0.34999999
-24.919001 -7.2449999 0.602 0.31999999
-24.837 -7.3049998 0.602 0.30000001
-24.792 -7.3769999 0.60100001 0.38
-24.757999 -7.4520001 0.60100001 0.34
-24.767 -7.539 0.602 0.33000001
-24.802 -7.6350002 0.602 0.37
-24.839001 -7.7319999 0.60299999 0
-66.082001 -20.639 1.261 0
-66.100998 -20.872999 1.262 0
-66.164001 -21.121 1.2640001 0
-66.189003 -21.358999 1.266 0
-66.254997 -21.610001 1.268 0
-66.280998 -21.849001 1.2690001 0
-66.355003 -21.989 1.271 0
-66.408997 -22.239 1.273 0
-66.443001 -22.482 1.275 0
-66.482002 -22.728001 1.277 0
-66.574997 -22.993999 1.279 0
-66.614998 -23.242001 1.281 0
-66.625 -23.481001 1.2819999 0
-66.726997 -23.635 1.285 0.16
-34.355 -12.303 0.76300001 0.12
-34.355999 -12.426 0.76300001 0.44
-34.339001 -12.542 0.764 0.23
-34.321999 -12.658 0.764 0.17
-34.348 -12.79 0.76499999 0.43000001
-34.332001 -12.907 0.76599997 0.25
-34.327999 -13.029 0.76599997 0.25999999
-34.341 -13.096 0.76700002 0.2
-34.354 -13.224 0.76800001 0.41
-34.341999 -13.344 0.76800001 0.25
-34.339001 -13.467 0.76899999 0.27000001
-34.334 -13.589 0.76899999 0.25
-34.317001 -13.707 0.76999998 0.22
-34.339001 -13.841 0.77100003 0.41
-34.345001 -13.906 0.77100003 0.23
-34.348999 -14.034 0.77200001 0.25999999
-34.341999 -14.157 0.773 0.23999999
-34.34 -14.282 0.773 0.27000001
-34.320999 -14.401 0.77399999 0.19
-34.341 -14.537 0.77499998 0.44999999
-34.332001 -14.66 0.77600002 0.25
-34.330002 -14.723 0.77600002 0.19
-15.463 -6.7049999 0.46399999 0.2
-15.315 -6.698 0.46200001 0.36000001
-15.235 -6.7199998 0.461 0.38999999
-15.178 -6.7519999 0.46000001 0.36000001
-15.14 -6.7919998 0.46000001 0.38
-15.099 -6.8309999 0.46000001 0.38
-15.104 -6.862 0.46000001 0.31999999
-15.066 -6.902 0.46000001 0.5
-15.053 -6.9530001 0.46000001 0.37
-15.048 -7.0079999 0.46000001 0.47999999
-15.037 -7.0609999 0.46000001 0.36000001
-15.078 -7.138 0.461 0.52999997
-15.299 -7.3010001 0.46599999 0
-15.154 -7.2610002 0.463 0
-45.023998 -21.690001 0.96799999 0
-45.030998 -21.868 0.96899998 0
-65.634003 -32.372002 1.321 0
-42.945999 -21.360001 0.93699998 0.090000004
-42.839001 -21.389999 0.93599999 0.20999999
-42.705002 -21.492001 0.935 0.2
-42.687 -21.650999 0.93599999 0.23
-42.701 -21.827 0.93699998 0.17
-24.969 -12.874 0.63499999 0.23
-24.82 -12.896 0.63300002 0.30000001
-24.73 -12.948 0.63200003 0.31999999
-24.691999 -12.978 0.63200003 0.34
-24.636999 -13.048 0.63200003 0.34999999
-24.604 -13.13 0.63200003 0.33000001
-24.605 -13.23 0.63300002 0.36000001
-24.629999 -13.343 0.634 0.31999999
-24.667 -13.464 0.63499999 0.38999999
-24.725 -13.596 0.63700002 0
-64.216003 -35.396 1.323 0
-64.071999 -35.578999 1.323 0
-67.234001 -41.591999 1.41 0
-67.003998 -41.742001 1.409 0
-66.871002 -41.951 1.409 0
-66.806 -42.203999 1.41 0
-66.911003 -42.417 1.413 0
-44.824001 -29.422001 1.023 0.25
-44.681 -29.530001 1.022 0.25
-44.584999 -29.566999 1.022 0.2
-44.529999 -29.732 1.022 0
-44.613998 -29.990999 1.025 0
-16.943001 -12.362 0.52700001 0.20999999
-17.040001 -12.514 0.52899998 0
-17.028999 -12.589 0.52999997 0
-17.275999 -12.854 0.53500003 0
-17.479 -13.091 0.54000002 0.11
-17.540001 -13.222 0.542 0.23
-17.563999 -13.284 0.54299998 0.19
-17.563 -13.37 0.54299998 0.20999999
-17.542 -13.441 0.54400003 0.19
-17.549 -13.534 0.54500002 0.22
-17.538 -13.613 0.54500002 0.18000001
-17.525 -13.692 0.546 0.31999999
-17.496 -13.758 0.546 0.11
-16.582001 -13.083 0.52899998 0.28
-16.598 -13.181 0.52999997 0.47999999
-16.607 -13.273 0.53100002 0.23
-16.584999 -13.341 0.53200001 0.2
-16.596001 -13.436 0.53299999 0.23
-16.582001 -13.511 0.53299999 0.2
-16.583 -13.598 0.53399998 0.22
-16.6 -13.656 0.53500003 0.2
-16.597 -13.741 0.53500003 0.14
-16.549 -13.789 0.53500003 0.30000001
-14.978 -12.563 0.505 0.30000001
-14.906 -12.583 0.50400001 0.40000001
-14.835 -12.603 0.50400001 0.31
-14.789 -12.604 0.50300002 0.38999999
-14.734 -12.638 0.50300002 0.40000001
-14.697 -12.686 0.50300002 0.34
-14.664 -12.738 0.50300002 0.40000001
-14.64 -12.798 0.50400001 0.41
-14.619 -12.861 0.50400001 0.36000001
-14.604 -12.93 0.50400001 0.38
-14.608 -12.974 0.505 0.36000001
-14.613 -13.061 0.50599998 0.46000001
-14.809 -13.319 0.51099998 0
-22.684999 -20.513 0.67299998 0
-38.212002 -35.188999 0.99800003 0
-38.455002 -35.523998 1.0039999 0.050000001
-48.679001 -45.243999 1.219 0
-48.486 -45.348999 1.2180001 0
-48.335999 -45.493999 1.217 0.12
-23.134001 -21.93 0.69300002 0.15000001
-18.290001 -17.455 0.59200001 0
-23.363001 -22.639 0.70300001 0.25999999
-17.504999 -17.186001 0.58099997 0.31999999
-17.472 -17.261999 0.58099997 0
-17.313 -17.486 0.58200002 0
-17.278999 -17.561001 0.58200002 0
-17.202999 -17.594 0.58200002 0.059999999
-17.16 -17.660999 0.58200002 0.14
-17.103001 -17.712999 0.58200002 0.16
-17.052999 -17.773001 0.58200002 0
-6.0630002 -6.3629999 0.34099999 0.12
-5.9959998 -6.3319998 0.34 0.17
-5.9089999 -6.2800002 0.33899999 0.14
-5.796 -6.1999998 0.33700001 0.14
-5.8119998 -6.256 0.338 0.23999999
-5.7719998 -6.2519999 0.33700001 0.17
-5.7519999 -6.27 0.33700001 0.41999999
-5.7420001 -6.2789998 0.33700001 0.20999999
-5.6989999 -6.2719998 0.33700001 0.25
-5.6620002 -6.2709999 0.336 0.19
-5.6409998 -6.2870002 0.336 0.28
-5.6160002 -6.2989998 0.336 0.27000001
-5.5900002 -6.309 0.336 0.11
-5.5669999 -6.323 0.336 0.17
-5.5689998 -6.3460002 0.336 0.28999999
-5.5380001 -6.3509998 0.336 0.2
-5.5320001 -6.3839998 0.336 0.18000001
-5.5089998 -6.3979998 0.336 0.14
-5.487 -6.414 0.336 0.16
-5.473 -6.4369998 0.336 0.12
-5.4569998 -6.46 0.336 0.14
-5.4629998 -6.487 0.33700001 0.22
-5.4580002 -6.5219998 0.33700001 0.25999999
-5.4510002 -6.5560002 0.33700001 0.25999999
-5.447 -6.5939999 0.338 0.11
-5.4499998 -6.638 0.338 0
-15.695 -19.226 0.58499998 0.30000001
-5.4710002 -6.7059999 0.33899999 0.11
-15.641 -19.283001 0.58499998 0.20999999
-15.589 -19.343 0.58600003 0.25
-15.527 -19.389999 0.58600003 0.2
-15.467 -19.440001 0.58600003 0.25999999
-15.416 -19.500999 0.58600003 0.25
-15.371 -19.57 0.58600003 0.31999999
-15.344 -19.599001 0.58600003 0.20999999
-15.283 -19.649 0.58600003 0.19
-15.239 -19.719 0.58700001 0.30000001
-15.184 -19.775999 0.58700001 0.25999999
-15.122 -19.823999 0.58700001 0
-15.084 -19.903 0.588 0
-15.015 -19.941999 0.58700001 0.1
-14.987 -19.971001 0.588 0.14
-14.915 -20.004999 0.58700001 0.20999999
-14.875 -20.082001 0.588 0.34999999
-14.823 -20.145 0.588 0.34
-14.758 -20.188 0.588 0.34
-14.705 -20.249001 0.588 0.34999999
-14.654 -20.313 0.58899999 0.34
-14.626 -20.341 0.58899999 0.34
-14.565 -20.391001 0.58899999 0.31999999
-14.532 -20.481001 0.58999997 0.5
-14.452 -20.504 0.58899999 0.33000001
-14.392 -20.555 0.58899999 0.23
-14.223 -20.451 0.58700001 0
-14.411 -20.861 0.59299999 0
-14.606 -21.356001 0.60100001 0
-14.696 -21.632999 0.60600001 0
-14.806 -22.091999 0.61199999 0
-15.026 -22.802999 0.62300003 0
-15.257 -23.472 0.634 0
-15.214 -23.568001 0.634 0
-15.434 -24.24 0.64499998 0
-15.668 -24.865 0.65499997 0
-15.632 -24.981001 0.65600002 0
-5.763 -12.484 0.417 0.18000001
-5.6890001 -12.428 0.41600001 0.41999999
-5.6269999 -12.395 0.41499999 0.33000001
-5.5749998 -12.383 0.414 0.34999999
-5.54 -12.357 0.414 0.40000001
-5.4910002 -12.353 0.41299999 0.38999999
-5.4439998 -12.352 0.41299999 0.38999999
-5.3959999 -12.347 0.41299999 0.38
-5.3530002 -12.354 0.41299999 0.40000001
-5.3099999 -12.362 0.412 0.40000001
-5.2670002 -12.368 0.412 0.36000001
-5.243 -12.367 0.412 0.37
-5.211 -12.398 0.412 0.31999999
-5.1719999 -12.416 0.412 0.44
-5.1350002 -12.436 0.412 0.38
-5.1020002 -12.467 0.41299999 0.44999999
-5.0650001 -12.488 0.41299999 0.41
-5.0349998 -12.526 0.41299999 0.34999999
-5.0370002 -12.59 0.414 0.34999999
-5.0139999 -12.646 0.41499999 0.38
-5.0040002 -12.737 0.41600001 0.34
-5.007 -12.862 0.41800001 0.44999999
-5.1040001 -13.232 0.42300001 0
-16.611 -44.342999 0.92799997 0.039999999
-16.452 -44.342999 0.92699999 0
-16.527 -45.865002 0.949 0
-16.458 -45.898998 0.949 0
-10.522 -31.208 0.70899999 0.18000001
-10.423 -31.239 0.70899999 0.28999999
-10.315 -31.079 0.70599997 0.34
-10.235 -31.164 0.70700002 0.30000001
-10.107 -31.103001 0.70499998 0.31
-10.027 -31.191999 0.70599997 0.28999999
-9.9040003 -31.143 0.70499998 0.23
-9.823 -31.226999 0.70599997 0.16
-9.8149996 -31.375 0.708 0.18000001
-10.599 -34.249001 0.75300002 0.2
-10.513 -34.353001 0.75400001 0.31
-10.406 -34.389999 0.75400001 0.23
-9.3909998 -31.398001 0.70599997 0.28
-9.2959995 -31.440001 0.70599997 0.14
-9.7340002 -33.301998 0.736 0.47999999
-9.6969995 -33.367001 0.736 0.38999999
-9.6490002 -33.597 0.73900002 0.15000001
-9.5190001 -33.541 0.73799998 0
-9.5489998 -34.049999 0.74599999 0
-10.491 -37.858002 0.80500001 0
-10.348 -37.804001 0.80400002 0
-10.206 -37.75 0.80299997 0
-10.133 -37.714001 0.80199999 0
-9.9919996 -37.661999 0.80000001 0
-8.7639999 -34.347 0.74699998 0.34999999
-8.1920004 -32.535999 0.71799999 0.1
-8.1940002 -32.980999 0.72500002 0.12
-8.1269999 -32.93 0.72399998 0
-7.9229999 -32.995998 0.72399998 0.27000001
-7.8060002 -32.962002 0.72299999 0.28
-7.691 -32.939999 0.722 0.28
-7.5739999 -32.903 0.72100002 0.28999999
-7.4580002 -32.872002 0.72000003 0.31
-7.401 -32.859001 0.72000003 0
-7.3299999 -33.029999 0.722 0
-8.2819996 -38.438999 0.80599999 0.28
-6.336 -29.888 0.67199999 0.23999999
-6.2490001 -29.945 0.67299998 0.19
-6.2030001 -29.959 0.67299998 0.11
-5.0539999 -24.822001 0.59299999 0.31999999
-4.9520001 -24.722 0.59100002 0.28
-4.8569999 -24.646999 0.58999997 0.38999999
-4.7610002 -24.568001 0.588 0.31
-4.6659999 -24.492001 0.58700001 0.31999999
-4.5710001 -24.407 0.58499998 0.34999999
-4.5139999 -24.316999 0.58399999 0.31
-4.4219999 -24.247 0.583 0.31999999
-4.322 -24.127001 0.58099997 0.31999999
-4.2329998 -24.063999 0.579 0.28999999
-4.1430001 -23.993999 0.57800001 0.31999999
-4.0630002 -23.979 0.57800001 0.46000001
-3.9909999 -24.018 0.57800001 0.30000001
-3.5209999 -21.412001 0.53799999 0.41
-3.898 -24.16 0.57999998 0.28999999
-3.8340001 -24.246 0.58099997 0.31999999
-3.7709999 -24.339001 0.58200002 0.46000001
-3.698 -24.375999 0.583 0.31999999
-3.631 -24.448999 0.58399999 0.23
-3.553 -24.452 0.58399999 0.34999999
-3.247 -22.613001 0.55500001 0.2
-3.2119999 -23.408001 0.56699997 0.19
-2.9590001 -22.087999 0.54699999 0.14
-3.0680001 -23.448999 0.56699997 0.12
-2.8110001 -22.033001 0.546 0.5
-2.6340001 -21.454 0.537 0.47999999
-2.589 -21.650999 0.53899997 0.23
-2.803 -24.058001 0.57599998 0.17
-2.4820001 -21.923 0.54299998 0.16
-2.296 -21.495001 0.537 0.28999999
-2.368 -22.490999 0.55199999 0.2
-2.2880001 -22.409 0.55000001 0.22
-2.2160001 -22.4 0.55000001 0.25999999
-2.1619999 -22.568001 0.55299997 0.23
-2.1040001 -22.719999 0.55500001 0.23999999
-2.0280001 -22.669001 0.55400002 0.12
-1.979 -23.799 0.57099998 0.30000001
-1.849 -22.676001 0.55400002 0
-1.8150001 -23.153999 0.56099999 0.16
-1.677 -23.268999 0.56300002 0.46000001
-1.595 -23.142 0.56099999 0
-1.529 -23.816 0.57099998 0.17
-1.452 -23.773001 0.56999999 0
-1.1670001 -22.636999 0.55299997 0.19
-1.086 -22.448999 0.55000001 0.090000004
-1.0140001 -22.41 0.54900002 0
-1.002 -24.667 0.583 0.20999999
-0.926 -24.708 0.58399999 0
-0.99199998 -28.771 0.64600003 0
-0.81599998 -28.933001 0.648 0
-0.46599999 -23.167999 0.56 0
-0.24600001 -23.044001 0.55800003 0.13
-0.176 -23.232 0.56099999 0.14
-0.103 -23.285 0.56199998 0.47
-0.075000003 -25.575001 0.597 0.23999999
0.0049999999 -25.542999 0.59600002 0.25999999
0.085000001 -25.483 0.59500003 0.23
0.16500001 -25.462 0.59500003 0.38
0.244 -25.375999 0.59399998 0.20999999
0.30000001 -23.325001 0.56300002 0
0.40200001 -25.274 0.59200001 0
0.542 -22.663 0.55299997 0
0.82700002 -30.952999 0.67900002 0
0.926 -30.992001 0.67900002 0
2.2079999 -67.821999 1.24 0
0.84500003 -24.264 0.57700002 0.12
0.88 -23.148001 0.56 0
2.753 -68.099998 1.245 0
2.9519999 -67.746002 1.239 0.07
1.095 -23.059 0.55900002 0.15000001
1.15 -22.722 0.55400002 0
3.585 -67.616997 1.238 0.07
2.276 -41.505001 0.83999997 0.14
2.4030001 -41.435001 0.83899999 0.27000001
2.533 -41.43 0.83899999 0.28999999
2.6689999 -41.507 0.83999997 0
4.0370002 -60.028999 1.123 0
3.9790001 -56.483002 1.069 0
4.191 -56.945 1.076 0
4.276 -56.887001 1.076 0
4.4569998 -56.901001 1.076 0
4.8189998 -59.139 1.11 0
4.823 -56.965 1.077 0
5.1370001 -58.5 1.101 0
5.362 -58.936001 1.108 0
5.598 -59.464001 1.1160001 0
5.414 -56.547001 1.072 0
5.6030002 -56.639 1.074 0
5.7810001 -56.620998 1.074 0
2.411 -22.082001 0.546 0.16
3.904 -34.882 0.74199998 0.27000001
4.0100002 -34.838001 0.741 0.23
4.059 -34.782001 0.74000001 0
4.1880002 -34.939999 0.74299997 0
8.3299999 -67.894997 1.248 0
7.1459999 -56.735001 1.0779999 0
7.3449998 -56.870998 1.08 0
7.5430002 -56.998001 1.082 0
7.651 -57.123001 1.084 0
9.2159996 -67.237 1.24 0
9.4300003 -67.225998 1.24 0
9.6040001 -66.935997 1.2359999 0
9.7869997 -66.722 1.234 0.059999999
10.011 -66.781998 1.235 0
10.219 -66.741997 1.235 0
10.729 -68.634003 1.2640001 0
10.549 -66.790001 1.2359999 0
10.747 -66.684998 1.235 0
10.958 -66.656998 1.235 0
11.217 -66.924004 1.24 0
11.396 -66.700996 1.237 0
11.639 -66.862 1.24 0
11.65 -66.306 1.232 0.1
5.2680001 -28.834999 0.65399998 0.28999999
5.3579998 -28.813999 0.65399998 0.41
5.4949999 -29.042999 0.65700001 0
5.5539999 -28.861 0.65499997 0
12.654 -64.822998 1.212 0
12.764 -64.846001 1.2130001 0
12.978 -64.856003 1.214 0
13.163 -64.721001 1.212 0
13.354 -64.621002 1.212 0
13.561 -64.598 1.212 0
14.03 -65.806999 1.2309999 0
14.118 -65.212997 1.223 0
13.789 -63.212002 1.192 0
13.986 -63.158001 1.192 0
14.143 -62.931 1.189 0
14.244 -62.460999 1.182 0
14.408 -62.275002 1.1799999 0
14.66 -62.473 1.184 0
14.807 -62.219002 1.181 0
14.662 -61.181999 1.165 0
14.994 -61.710999 1.174 0
15.122 -61.396 1.17 0
15.303 -61.300999 1.169 0
15.443 -61.044998 1.166 0
15.731 -61.372002 1.1720001 0.07
15.872 -61.120998 1.168 0
15.966 -61.091 1.168 0
16.176001 -61.108002 1.169 0
14.573 -54.351002 1.064 0
16.740999 -61.676998 1.1799999 0
16.860001 -61.352001 1.176 0
16.965 -60.980999 1.171 0
16.98 -60.665001 1.166 0
17.155001 -60.556999 1.165 0
17.429001 -60.794998 1.17 0
17.667999 -60.908001 1.1720001 0
17.856001 -60.84 1.1720001 0
18.198999 -61.296001 1.1799999 0
18.41 -61.299999 1.181 0.050000001
18.488001 -61.209 1.1799999 0
18.698 -61.212002 1.181 0
19.392 -62.777 1.207 0
19.497999 -62.424 1.2029999 0
19.618999 -62.124001 1.199 0
19.643999 -61.530998 1.1900001 0
19.771999 -61.264999 1.187 0
18.223 -56.155998 1.1059999 0
20.045 -61.125 1.186 0
20.235001 -61.056 1.186 0
20.410999 -60.945 1.1849999 0
20.608999 -60.900002 1.186 0.07
4.2410002 -12.213 0.40400001 0.28
4.2319999 -12.127 0.403 0.36000001
4.2470002 -12.046 0.40200001 0.30000001
4.2740002 -12.004 0.40200001 0.31
4.3070002 -11.975 0.40099999 0.28999999
4.3369999 -11.941 0.40099999 0.49000001
4.3629999 -11.896 0.40000001 0.38999999
4.3990002 -11.878 0.40000001 0.40000001
4.4169998 -11.871 0.40000001 0.34
4.4520001 -11.85 0.40000001 0.40000001
4.4889998 -11.836 0.40000001 0.37
4.527 -11.823 0.40000001 0.34999999
4.5630002 -11.807 0.40000001 0.41
4.6030002 -11.798 0.40000001 0.38999999
4.6220002 -11.795 0.40000001 0.40000001
4.6539998 -11.765 0.40000001 0.37
4.6989999 -11.771 0.40099999 0.36000001
4.744 -11.777 0.40099999 0.34999999
4.8099999 -11.834 0.40200001 0.47
4.8990002 -11.947 0.40400001 0.19
10.814 -26.218 0.639 0.5
11.008 -26.57 0.64499998 0.20999999
11.126 -26.618999 0.64700001 0.20999999
10.441 -24.754999 0.616 0.34
10.518 -24.719999 0.616 0.34
10.481 -24.42 0.61199999 0.15000001
10.687 -24.687 0.61699998 0.46000001
10.271 -23.52 0.59799999 0.16
10.305 -23.496 0.59799999 0.31
10.381 -23.469 0.59799999 0.34
10.564 -23.681 0.602 0.31
10.709 -23.806999 0.60500002 0.2
10.73 -23.655001 0.60299999 0.38
10.746 -23.492001 0.60100001 0.28999999
10.823 -23.465 0.60100001 0.28999999
10.853 -23.434 0.60100001 0.34
10.989 -23.533001 0.60299999 0.20999999
11.13 -23.642 0.60500002 0.43000001
11.147 -23.486 0.60299999 0.19
11.097 -23.191 0.59899998 0.27000001
11.244 -23.311001 0.60100001 0.34
10.362 -21.305 0.56800002 0.17
10.373 -21.243999 0.56699997 0.30000001
10.407 -21.145 0.56599998 0.31999999
10.459 -21.080999 0.56599998 0.34
10.616 -21.231001 0.56900001 0.31999999
10.584 -21.000999 0.565 0.37
10.468 -20.608999 0.55900002 0.20999999
10.417 -20.427999 0.55699998 0.28
10.463 -20.360001 0.55599999 0.38999999
10.53 -20.334 0.55599999 0.37
10.734 -20.569 0.56099999 0.28
10.637 -20.226999 0.55500001 0.25
10.658 -20.114 0.55400002 0.33000001
10.783 -20.197001 0.55599999 0.43000001
10.898 -20.257999 0.55800003 0.31999999
11.076 -20.514 0.56199998 0.37
11.16 -20.514 0.56300002 0.34999999
11.346 -20.702 0.56699997 0.28999999
11.278 -20.424 0.56300002 0.23999999
11.295 -20.302999 0.56099999 0.31999999
11.396 -20.334999 0.56199998 0.34
11.438 -20.259001 0.56199998 0.28
11.468 -20.24 0.56199998 0.41
11.661 -20.43 0.56599998 0.18000001
11.643 -20.250999 0.56300002 0.38999999
11.75 -20.288 0.56400001 0.34
11.857 -20.326 0.56599998 0.38999999
11.964 -20.362 0.56699997 0.2
12.073 -20.475 0.56900001 0.30000001
11.93 -20.087 0.56300002 0.20999999
12.232 -20.450001 0.56999999 0.17
12.328 -20.465 0.57099998 0.37
12.257 -20.202 0.56699997 0.25
12.258 -20.061001 0.565 0.23
12.293 -19.978001 0.565 0.25
13.67 -22.143 0.60399997 0.47999999
12.281 -19.747999 0.56099999 0.15000001
12.249 -19.558001 0.55900002 0.47999999
12.428 -19.707001 0.56199998 0.23
12.474 -19.643 0.56199998 0.28999999
12.491 -19.533001 0.56 0.28
12.573 -19.527 0.56099999 0.33000001
12.631 -19.549 0.56199998 0.40000001
12.843 -19.740999 0.56599998 0.23
12.993 -19.836 0.56800002 0.46000001
13.115 -19.886 0.56999999 0.2
13.086 -19.705999 0.56800002 0.54000002
6.723 -10.032 0.391 0.18000001
6.724 -9.9659996 0.391 0.28999999
6.717 -9.9219999 0.38999999 0.30000001
6.7410002 -9.8900003 0.38999999 0.33000001
6.783 -9.8850002 0.38999999 0.38999999
6.8239999 -9.8780003 0.38999999 0.34999999
6.8629999 -9.868 0.391 0.20999999
13.693 -19.601999 0.57099998 0.34999999
13.975 -19.872999 0.57700002 0.18000001
14.159 -20.069 0.58099997 0.34
14.267 -20.087999 0.583 0.27000001
14.19 -19.846001 0.579 0.28
14.162 -19.676001 0.57599998 0.37
14.145 -19.523001 0.574 0.34999999
14.191 -19.458 0.574 0.25999999
14.25 -19.41 0.574 0.38999999
14.317 -19.437 0.57499999 0.28
14.356 -19.362 0.574 0.38999999
14.721 -19.725 0.58200002 0.2
14.433 -19.212 0.57300001 0.17
14.5 -19.176001 0.57300001 0.5
14.636 -19.231001 0.57499999 0.17
14.442 -18.913 0.56999999 0.27000001
14.541 -18.919001 0.57099998 0.37
14.598 -18.870001 0.57099998 0.31999999
14.71 -18.892 0.57200003 0.43000001
14.977 -19.112 0.57700002 0.23
15.084 -19.124001 0.57800001 0.25999999
15.089 -19.007999 0.57700002 0.30000001
15.077 -18.931 0.57599998 0.36000001
15.12 -18.863001 0.57499999 0.36000001
15.323 -18.995001 0.579 0.28999999
15.365 -18.924999 0.579 0.31
15.503 -18.972 0.57999998 0.23
15.574 -18.937 0.58099997 0.41
15.5 -18.726 0.57700002 0.30000001
15.592 -18.778 0.579 0.25
15.754 -18.853001 0.58099997 0.28
15.95 -18.966 0.58499998 0.38999999
16.172001 -19.108 0.58899999 0.28
16.521999 -19.398001 0.59500003 0.28999999
16.573999 -19.336 0.59500003 0.36000001
16.671 -19.326 0.59600002 0.31
16.768 -19.377001 0.59799999 0.30000001
16.839001 -19.336 0.59799999 0.41
16.952 -19.344 0.59899998 0.28999999
17.156 -19.452 0.602 0
43.118 -48.639999 1.197 0
43.354 -48.598999 1.198 0
43.382999 -48.324001 1.196 0
14.042 -15.468 0.52600002 0.13
13.979 -15.301 0.523 0.34
13.954 -15.178 0.52100003 0.34999999
13.954 -15.082 0.51999998 0.40000001
13.966 -15 0.51899999 0.36000001
13.989 -14.93 0.51899999 0.38999999
13.992 -14.886 0.51800001 0.41999999
14.012 -14.814 0.51800001 0.41
14.055 -14.766 0.51800001 0.34999999
14.086 -14.706 0.51700002 0.47999999
14.13 -14.66 0.51700002 0.38999999
14.174 -14.613 0.51700002 0.43000001
14.198 -14.592 0.51700002 0.52999997
14.249 -14.553 0.51800001 0.37
14.296 -14.509 0.51800001 0.55000001
14.357 -14.48 0.51800001 0.37
14.413 -14.445 0.51800001 0.44999999
14.486 -14.428 0.51899999 0.33000001
14.561 -14.412 0.51899999 0.49000001
14.615 -14.42 0.51999998 0.38999999
14.705 -14.417 0.52100003 0.38999999
14.827 -14.446 0.523 0.5
14.844 -14.372 0.52200001 0
47.133999 -45.428001 1.204 0
47.624001 -45.612999 1.211 0
47.712002 -45.410999 1.21 0
47.661999 -45.220001 1.207 0
47.719002 -44.991001 1.205 0.059999999
47.962002 -44.936001 1.2079999 0.14
47.952999 -44.645 1.204 0
48.276001 -44.664001 1.2079999 0.07
48.644001 -44.722 1.2130001 0
48.891998 -44.667 1.215 0
48.965 -44.592999 1.215 0
49.178001 -44.505001 1.217 0
49.342999 -44.373001 1.217 0
49.502998 -44.236 1.2180001 0
49.638 -44.077999 1.2180001 0
49.811001 -43.952 1.2180001 0
49.958 -43.804001 1.2180001 0
50.004002 -43.705002 1.2180001 0
50.117001 -43.527 1.2180001 0
50.198002 -43.320999 1.216 0
50.323002 -43.153999 1.216 0
50.387001 -42.935001 1.215 0
50.338001 -42.620998 1.211 0
49.238998 -40.769001 1.1799999 0
49.355 -40.603001 1.1799999 0
49.202999 -40.220001 1.174 0
49.263 -40.011002 1.173 0
49.248001 -39.870998 1.1720001 0
49.178001 -39.558998 1.168 0
49.036999 -39.192001 1.163 0
48.786999 -38.742001 1.155 0
48.534 -38.292 1.148 0
48.268002 -37.837002 1.141 0
47.862999 -37.277 1.131 0
47.791 -37.099998 1.128 0
47.813 -36.877998 1.126 0
47.616001 -36.487 1.12 0
47.237999 -35.962002 1.1109999 0
47.008999 -35.555 1.104 0
46.839001 -35.195999 1.099 0.1
28.577 -21.32 0.75 0.16
28.479 -21.177 0.74800003 0.25
28.492001 -21.048 0.74699998 0.34
28.548 -20.952 0.74599999 0.33000001
28.614 -20.862 0.74599999 0.25
28.705 -20.791 0.74699998 0.2
28.823 -20.738001 0.74800003 0.50999999
28.972 -20.708 0.74900001 0
46.196999 -32.928001 1.071 0
46.390999 -32.848 1.072 0
46.506001 -32.709999 1.073 0
46.481998 -32.474998 1.0700001 0
46.375 -32.183998 1.066 0
45.716 -31.514 1.052 0
45.650002 -31.257 1.049 0
47.834 -32.644001 1.089 0
47.944 -32.499001 1.089 0
48.120998 -32.397999 1.09 0
49.165001 -32.101002 1.101 0
49.049 -31.806 1.097 0
48.791 -31.421 1.091 0
48.912998 -31.283001 1.091 0
48.896 -31.056 1.089 0
49.212002 -31.040001 1.0930001 0
49.323002 -31.002001 1.094 0
49.271 -30.754 1.091 0
49.632 -30.763 1.096 0
49.862 -30.688999 1.098 0
50.275002 -30.726 1.104 0
50.473999 -30.629999 1.1059999 0
50.536999 -30.452 1.105 0
50.306 -30.205 1.1 0
50.473999 -30.091 1.102 0
50.709999 -30.014999 1.104 0
50.688 -29.788 1.102 0
50.811001 -29.646 1.103 0
51.296001 -29.714001 1.11 0
53.046001 -30.506001 1.1390001 0
51.764 -29.66 1.115 0
52.103001 -29.636999 1.12 0
51.974998 -29.349001 1.1160001 0
54.021999 -30.282 1.15 0
54.474998 -30.312 1.156 0
23.160999 -12.68 0.60900003 0.27000001
23.472 -12.803 0.61400002 0
55.074001 -29.857 1.161 0
55.789001 -30.018 1.171 0
50.074001 -26.738001 1.071 0
50.138 -26.57 1.071 0
56.405998 -29.667999 1.177 0
56.891998 -29.697001 1.184 0
57.198002 -29.742001 1.188 0
57.486 -29.663 1.192 0
57.466999 -29.424999 1.1900001 0
57.709 -29.32 1.192 0
57.624001 -29.049999 1.189 0
12.272 -6.0910001 0.41600001 0.13
12.203 -6.0089998 0.41499999 0.34
12.184 -5.9520001 0.414 0.30000001
12.172 -5.8990002 0.41299999 0.40000001
12.191 -5.8610001 0.41299999 0.36000001
12.187 -5.8119998 0.41299999 0.37
12.202 -5.7719998 0.41299999 0.38
12.222 -5.7579999 0.41299999 0.38
12.225 -5.7129998 0.41299999 0.43000001
12.236 -5.671 0.41299999 0.34
12.29 -5.6490002 0.41299999 0.43000001
12.311 -5.612 0.414 0.34999999
12.36 -5.5879998 0.414 0.44999999
12.427 -5.5710001 0.41499999 0.46000001
12.656 -5.651 0.419 0
12.513 -5.539 0.41600001 0
62.009998 -27.33 1.239 0
41.953999 -18.167 0.903 0.14
41.924 -17.997999 0.90200001 0.14
41.987999 -17.870001 0.90200001 0
62.727001 -26.594 1.244 0
62.493 -26.263 1.239 0
66.080002 -27.042 1.294 0
66.278 -26.879999 1.296 0
66.234001 -26.621 1.294 0
66.805 -26.728001 1.302 0
66.985001 -26.556999 1.304 0
67.360001 -26.461 1.309 0
67.671997 -26.339001 1.312 0
67.931999 -26.194 1.3150001 0
68.170998 -26.041 1.318 0
68.337997 -25.858999 1.319 0
68.529999 -25.809 1.322 0
68.757004 -25.648001 1.324 0
69.038002 -25.506001 1.327 0
69.357002 -25.375999 1.331 0
69.592003 -25.215 1.334 0
69.867996 -25.066999 1.337 0
63.603001 -22.591999 1.234 0
63.542 -22.458 1.233 0.14
32.964001 -11.521 0.73900002 0.14
32.903999 -11.384 0.73699999 0.34
32.819 -11.239 0.73500001 0.27000001
32.794998 -11.116 0.73400003 0.31999999
32.835999 -11.015 0.73500001 0.28
32.875999 -10.913 0.73500001 0.34999999
32.921001 -10.871 0.73500001 0.36000001
32.988998 -10.779 0.736 0.31
32.994999 -10.666 0.73500001 0
33.319 -10.656 0.74000001 0
73.733002 -23.358 1.3839999 0
73.929001 -23.165001 1.386 0
74.351997 -23.041 1.392 0
74.597 -22.989 1.395 0
74.940002 -22.837 1.4 0
75.547997 -22.763 1.408 0
75.828003 -22.587999 1.411 0
76.121002 -22.415001 1.415 0
76.630997 -22.304001 1.4220001 0
76.766998 -22.083 1.423 0
40.421001 -11.272 0.84600002 0.18000001
40.285999 -11.098 0.84299999 0.23
40.261002 -10.955 0.84200001 0.2
40.273998 -10.822 0.84200001 0
40.316002 -10.698 0.84200001 0
16.676001 -4.381 0.47 0
16.691 -4.329 0.47 0
16.691 -4.2729998 0.47 0
16.684999 -4.2160001 0.47 0
16.722 -4.1690001 0.47 0
16.700001 -4.1079998 0.46900001 0
16.693001 -4.079 0.46900001 0
16.688 -4.0219998 0.46900001 0
16.683001 -3.9649999 0.46900001 0
16.681999 -3.9100001 0.46799999 0
16.669001 -3.8510001 0.46799999 0
16.674999 -3.7980001 0.46799999 0
16.681 -3.744 0.46799999 0
16.693001 -3.7190001 0.46799999 0
16.688 -3.6630001 0.46799999 0
16.745001 -3.6199999 0.46799999 0
17.605 -3.6919999 0.48100001 0
17.614 -3.6359999 0.48100001 0
17.622 -3.5799999 0.48100001 0
17.625 -3.552 0.48100001 0
17.652 -3.5 0.48100001 0
17.677 -3.447 0.48199999 0
17.677999 -3.3900001 0.48199999 0
17.686001 -3.3340001 0.48100001 0
17.688999 -3.277 0.48100001 0
17.674999 -3.217 0.48100001 0
17.667 -3.1860001 0.48100001 0
62.755001 -10.371 1.175 0.059999999
62.636002 -10.149 1.173 0.20999999
62.584 -10.039 1.1720001 0.23999999
62.632999 -9.8459997 1.1720001 0.11
62.758999 -9.6630001 1.174 0
24.556999 -3.529 0.58499998 0.2
55.909 -7.9770002 1.067 0.23999999
55.93 -7.8010001 1.067 0
56.039001 -7.6370001 1.068 0
40.428001 -5.244 0.82800001 0.12
40.282001 -5.0960002 0.82499999 0.25
40.223999 -4.96 0.824 0.30000001
40.212002 -4.895 0.824 0.30000001
40.272999 -4.7740002 0.82499999 0.30000001
40.381001 -4.658 0.82599998 0.28
40.386002 -4.5300002 0.82599998 0
62.195999 -6.2989998 1.159 0.16
62.220001 -6.1040001 1.159 0
62.459999 -5.9299998 1.1619999 0
32.813999 -2.3239999 0.708 0
32.823002 -2.221 0.708 0
78.164001 -2.8629999 1.398 0
78.105003 -2.615 1.397 0
69.856003 -0.47 1.27 0
74.295998 8.5459995 0.963 0
74.252998 8.7779999 0.963 0
74.223 9.0109997 0.963 0
59.706001 7.4330001 0.815 0
59.398998 7.585 0.81199998 0
59.339001 7.7670002 0.81199998 0
59.334 7.9559999 0.81199998 0
50.862 6.8969998 0.72600001 0
50.685001 7.0349998 0.72399998 0
50.596001 7.1849999 0.72399998 0
48.283001 7.0100002 0.69999999 0
50.626999 7.5139999 0.72399998 0
50.741001 7.6939998 0.72600001 0
73.902 11.456 0.963 0
73.867996 11.57 0.963 0
73.827003 11.801 0.963 0
73.806999 12.036 0.963 0
73.749001 12.264 0.963 0
73.725998 12.499 0.963 0
59.973 10.356 0.82200003 0
73.697998 12.851 0.963 0
73.672997 13.086 0.963 0
73.613998 13.314 0.963 0
33.575001 6.276 0.55199999 0.23
33.423 6.3559999 0.551 0.2
33.294998 6.4400001 0.55000001 0.19
33.237999 6.4829998 0.54900002 0.2
33.227001 6.5900002 0.55000001 0.38999999
33.242001 6.7010002 0.55000001 0.2
33.297001 6.8210001 0.551 0.31999999
33.362999 6.9439998 0.55199999 0
57.811001 12.242 0.80400002 0
57.863998 12.444 0.80500001 0
57.798 12.524 0.80500001 0
58.286999 13.399 0.81199998 0
57.926998 13.7 0.80900002 0
58.004002 13.815 0.81 0
57.571999 13.903 0.80599999 0
57.640999 14.112 0.80699998 0
52.145 13.286 0.75099999 0
65.254997 17.18 0.889 0
47.215 13.459 0.70300001 0
38.945 11.23 0.61699998 0
37.518002 10.945 0.602 0
36.625999 10.809 0.59299999 0
37.326 11.144 0.60100001 0
36.650002 11.067 0.59399998 0
36.561001 11.103 0.59299999 0
36.32 11.154 0.59100002 0.059999999
36.028999 11.189 0.588 0
36.054001 11.321 0.58899999 0
37.951 12.049 0.61000001 0
37.957001 12.182 0.61000001 0
38.27 12.416 0.61400002 0
36.085999 11.768 0.59100002 0
36.254002 11.949 0.59299999 0
36.258999 12.078 0.59299999 0
34.618 11.651 0.57599998 0
34.665001 11.788 0.57700002 0
34.775002 11.948 0.579 0
34.868999 12.103 0.57999998 0
34.358002 11.985 0.57499999 0
36.104 12.723 0.59399998 0
36.324001 12.929 0.597 0
36.028999 12.952 0.59399998 0
35.971001 13.059 0.59399998 0.13
35.887001 13.156 0.59299999 0
36.112 13.303 0.59600002 0
35.719002 13.286 0.59200001 0
45.314999 17.025 0.69599998 0
36.044998 13.665 0.597 0
33.967999 12.999 0.57499999 0
33.785 13.051 0.57300001 0
30.829 12.018 0.542 0.090000004
30.562 11.969 0.53899997 0.11
30.478001 12.046 0.53799999 0.34999999
30.438 12.141 0.53799999 0
29.122999 12.095 0.52600002 0
27.766001 12.046 0.51300001 0
27.584 12.069 0.51099998 0
26.124001 11.971 0.498 0
24.927 11.947 0.48699999 0
24.625 11.897 0.484 0
24.290001 11.877 0.47999999 0
24.111 11.883 0.479 0
23.92 11.882 0.477 0
23.709 11.87 0.47499999 0
23.534 11.875 0.47400001 0
23.146999 11.817 0.47 0
22.983999 11.824 0.46799999 0
22.818001 11.83 0.46700001 0
22.646999 11.831 0.465 0
22.443001 11.814 0.46399999 0
22.284 11.82 0.46200001 0
22.108999 11.816 0.461 0
21.952999 11.777 0.45899999 0
21.742001 11.752 0.45699999 0
21.614 11.77 0.456 0
21.454 11.77 0.45500001 0
21.27 11.756 0.45300001 0
21.118999 11.76 0.45199999 0
20.981001 11.769 0.44999999 0
9.6829996 5.5159998 0.31999999 0.19
9.6809998 5.5549998 0.31999999 0.68000001
9.8050003 5.6680002 0.322 0
9.6160002 5.599 0.31999999 0
19.948999 11.731 0.44100001 0
19.797001 11.683 0.44 0
19.657 11.684 0.43799999 0
19.528999 11.691 0.43700001 0
19.378 11.683 0.43599999 0
19.252001 11.689 0.435 0
19.106001 11.683 0.43399999 0
18.966999 11.68 0.43200001 0
18.874001 11.663 0.43099999 0.059999999
18.677999 11.623 0.43000001 0
18.589001 11.649 0.42899999 0
18.454 11.645 0.428 0
18.320999 11.642 0.42699999 0
18.188 11.638 0.42500001 0
18.093 11.616 0.42500001 0
17.972 11.619 0.42399999 0
17.847 11.617 0.42199999 0
17.705 11.604 0.421 0
17.591999 11.609 0.41999999 0
17.469 11.606 0.419 0
17.351999 11.608 0.41800001 0
17.226 11.562 0.417 0
17.146999 11.587 0.41600001 0
17.004999 11.569 0.41499999 0
16.878 11.56 0.414 0
16.768999 11.563 0.41299999 0
16.677 11.577 0.412 0
16.547001 11.564 0.41100001 0
16.461 11.543 0.41 0
16.360001 11.548 0.41 0
16.237 11.538 0.40900001 0
16.125999 11.535 0.40799999 0
7.3319998 5.2969999 0.29899999 0.12
7.2410002 5.2659998 0.29800001 0.44999999
7.2059999 5.257 0.29699999 0.27000001
7.1230001 5.2309999 0.29699999 0.50999999
7.105 5.2519999 0.29699999 0.31
7.053 5.2480001 0.296 0.55000001
7.0209999 5.2579999 0.296 0.33000001
6.9899998 5.2690001 0.296 0.44999999
6.98 5.296 0.296 0.38
6.9489999 5.29 0.296 0.47999999
6.9369998 5.316 0.296 0.38999999
6.9239998 5.3400002 0.296 0.41
6.8940001 5.3520002 0.29499999 0.41999999
6.895 5.3870001 0.296 0.38999999
6.8590002 5.3940001 0.29499999 0.51999998
6.836 5.4099998 0.29499999 0.38999999
6.8439999 5.4349999 0.296 0.43000001
6.8210001 5.4510002 0.296 0.47999999
6.796 5.4660001 0.29499999 0.44999999
6.783 5.4910002 0.29499999 0.38999999
6.7750001 5.52 0.296 0.41999999
6.7639999 5.5469999 0.296 0.34999999
6.7940001 5.6069999 0.296 0.47999999
6.8189998 5.6459999 0.29699999 0.31999999
6.8119998 5.677 0.29699999 0.44999999
6.8280001 5.7259998 0.29699999 0.38
6.8189998 5.756 0.29699999 0.63999999
6.9650002 5.9169998 0.30000001 0
13.328 11.426 0.38499999 0
13.281 11.422 0.384 0
13.174 11.402 0.38299999 0
13.125 11.432 0.38299999 0
13.023 11.415 0.382 0
12.955 11.428 0.382 0
12.856 11.413 0.38100001 0.1
12.764 11.402 0.38 0.11
12.675 11.358 0.37900001 0
12.643 11.402 0.37900001 0
12.571 11.408 0.37900001 0
12.462 11.381 0.37799999 0
12.403 11.398 0.377 0
12.31 11.384 0.377 0
12.262 11.412 0.377 0
12.198 11.388 0.37599999 0
12.099 11.367 0.375 0
12.048 11.39 0.375 0
11.951 11.369 0.37400001 0
11.892 11.385 0.37400001 0
11.796 11.364 0.373 0
11.744 11.385 0.373 0
11.661 11.34 0.37200001 0
11.618 11.369 0.37200001 0
11.519 11.344 0.37099999 0
11.448 11.345 0.37 0
11.393 11.361 0.37 0.13
11.134 11.243 0.36700001 0.17
11.185 11.33 0.368 0
11.12 11.335 0.368 0
11.036 11.32 0.36700001 0
10.988 11.341 0.36700001 0
10.909 11.331 0.366 0
10.839 11.329 0.366 0.13
10.772 11.33 0.36500001 0.090000004
10.713 11.303 0.36500001 0
10.651 11.309 0.36399999 0
10.598 11.323 0.36399999 0.13
10.507 11.297 0.36300001 0.090000004
10.444 11.3 0.36300001 0.079999998
10.393 11.317 0.36300001 0.14
10.32 11.308 0.36199999 0.090000004
10.269 11.287 0.361 0.14
10.204 11.286 0.361 0.1
10.15 11.298 0.361 0.15000001
10.08 11.291 0.36000001 0.1
10.023 11.298 0.36000001 0.15000001
9.9420004 11.279 0.359 0.090000004
9.9160004 11.284 0.359 0.15000001
9.8450003 11.274 0.359 0.13
9.7659998 11.255 0.35800001 0.18000001
9.6470003 11.188 0.35699999 0.18000001
9.6630001 11.278 0.35699999 0.16
9.599 11.275 0.35699999 0.1
9.5319996 11.268 0.35600001 0.15000001
9.4989996 11.265 0.35600001 0.16
9.4320002 11.256 0.35600001 0.16
9.3640003 11.247 0.35499999 0.1
9.309 11.252 0.35499999 0.15000001
9.2379999 11.238 0.354 0.17
9.1949997 11.257 0.354 0.17
9.1400003 11.263 0.354 0.17
9.0889997 11.235 0.35299999 0.16
9.0270004 11.231 0.35299999 0.16
8.9829998 11.248 0.35299999 0.17
8.9169998 11.237 0.352 0.23
8.8610001 11.239 0.352 0.25999999
8.8009996 11.235 0.35100001 0.25
8.7469997 11.239 0.35100001 0.23999999
8.6999998 11.214 0.35100001 0.25
8.6540003 11.227 0.35100001 0.25999999
8.6000004 11.231 0.34999999 0.25999999
8.5360003 11.219 0.34999999 0.25
8.4849997 11.225 0.34900001 0.25999999
8.4300003 11.226 0.34900001 0.27000001
8.3769999 11.229 0.34900001 0.25
8.3319998 11.205 0.34799999 0.14
8.2510004 11.168 0.34799999 0.31999999
8.2229996 11.204 0.34799999 0.40000001
8.1730003 11.21 0.347 0.25999999
8.1169996 11.207 0.347 0.27000001
8.0559998 11.196 0.347 0.11
8.0100002 11.207 0.34599999 0.16
7.9749999 11.195 0.34599999 0.28
7.9219999 11.194 0.34599999 0.19
7.8709998 11.196 0.34599999 0.18000001
7.8070002 11.179 0.345 0.18000001
7.7649999 11.194 0.345 0.12
7.7020001 11.179 0.34400001 0.16
7.6570001 11.188 0.34400001 0.12
7.619 11.17 0.34400001 0.17
7.5760002 11.182 0.34400001 0.28999999
7.5190001 11.173 0.34299999 0.19
7.4689999 11.175 0.34299999 0.18000001
7.4169998 11.172 0.34299999 0.12
7.3610001 11.163 0.34200001 0.17
7.322 11.181 0.34200001 0.28999999
7.2880001 11.167 0.34200001 0.19
7.2340002 11.16 0.34200001 0.18000001
7.1929998 11.174 0.34200001 0.28999999
7.145 11.177 0.34099999 0.20999999
7.0879998 11.163 0.34099999 0.18000001
7.0380001 11.162 0.34099999 0.18000001
6.9889998 11.162 0.34 0.28999999
6.9569998 11.151 0.34 0.2
6.9070001 11.147 0.34 0.18000001
6.8590002 11.148 0.34 0.14
6.802 11.134 0.33899999 0.20999999
6.7020001 11.047 0.338 0.56999999
6.7189999 11.154 0.33899999 0.2
6.6700001 11.153 0.33899999 0.18000001
6.6479998 11.155 0.338 0.31999999
6.5890002 11.136 0.338 0.2
6.54 11.132 0.338 0.18000001
6.4959998 11.137 0.338 0.31999999
6.4450002 11.13 0.33700001 0.2
6.4000001 11.133 0.33700001 0.19
6.375 11.129 0.33700001 0.20999999
6.3189998 11.112 0.336 0.19
6.2750001 11.116 0.336 0.20999999
6.2309999 11.119 0.336 0.18000001
6.1900001 11.128 0.336 0.31
6.1409998 11.122 0.336 0.2
6.0929999 11.117 0.33500001 0.2
6.059 11.097 0.33500001 0.20999999
6.0209999 11.109 0.33500001 0.2
5.9809999 11.119 0.33500001 0.20999999
5.9380002 11.123 0.33500001 0.2
5.8909998 11.119 0.33399999 0.20999999
5.8379998 11.102 0.33399999 0.19
5.7979999 11.111 0.33399999 0.20999999
5.7490001 11.101 0.33399999 0.18000001
5.7249999 11.098 0.333 0.20999999
5.6810002 11.098 0.333 0.19
5.6430001 11.11 0.333 0.20999999
5.5879998 11.087 0.333 0.19
5.5510001 11.101 0.333 0.20999999
5.4990001 11.084 0.33199999 0.18000001
5.4640002 11.099 0.33199999 0.22
5.4320002 11.079 0.33199999 0.20999999
5.3899999 11.08 0.33199999 0.16
5.2930002 11.058 0.331 0.56999999
5.2480001 11.053 0.331 0.38
5.224 11.091 0.331 0.36000001
5.1929998 11.07 0.331 0.18000001
5.1560001 11.083 0.331 0.37
5.112 11.079 0.331 0.19
5.0689998 11.077 0.33000001 0.34999999
5.0279999 11.08 0.33000001 0.2
4.9860001 11.079 0.33000001 0.34
4.941 11.071 0.33000001 0.2
4.915 11.06 0.33000001 0.36000001
4.8709998 11.054 0.329 0.19
4.8299999 11.054 0.329 0.36000001
4.7870002 11.051 0.329 0.23
4.7449999 11.049 0.329 0.18000001
4.7080002 11.057 0.329 0.38999999
4.6589999 11.038 0.32800001 0.23
4.6199999 11.044 0.32800001 0.25
4.6009998 11.046 0.32800001 0.25
4.5580001 11.04 0.32800001 0.27000001
4.5120001 11.026 0.32800001 0.28
4.4720001 11.027 0.32800001 0.28999999
4.4250002 11.011 0.32699999 0.27000001
4.3860002 11.014 0.32699999 0.31999999
4.348 11.019 0.32699999 0.34
4.323 11.007 0.32699999 0.34
4.2909999 11.026 0.32699999 0.31
4.2480001 11.019 0.32699999 0.31
4.2069998 11.015 0.32600001 0.30000001
4.1690001 11.019 0.32600001 0.38999999
4.1269999 11.011 0.32600001 0.36000001
4.1079998 11.014 0.32600001 0.34
4.0689998 11.014 0.32600001 0.36000001
4.0300002 11.015 0.32600001 0.37
3.987 11.005 0.32600001 0.38
3.951 11.014 0.32600001 0.34999999
3.9089999 11.006 0.32499999 0.44999999
3.872 11.01 0.32499999 0.31999999
3.848 10.996 0.32499999 0.40000001
3.8069999 10.989 0.32499999 0.38999999
3.7720001 11.001 0.32499999 0.44
3.7360001 11.009 0.32499999 0.41999999
3.697 11.007 0.32499999 0.40000001
3.6589999 11.009 0.32499999 0.38999999
3.6199999 11.005 0.324 0.38999999
3.598 10.996 0.324 0.41
3.5599999 10.998 0.324 0.34999999
3.5209999 10.993 0.324 0.44
3.4820001 10.993 0.324 0.36000001
3.4460001 10.996 0.324 0.44
3.4089999 11.001 0.324 0.37
3.3710001 11 0.324 0.44999999
3.3510001 10.996 0.32300001 0.37
3.313 10.995 0.32300001 0.47
3.2780001 11.004 0.32300001 0.38
3.2390001 10.998 0.32300001 0.38999999
3.197 10.984 0.32300001 0.44999999
3.161 10.99 0.32300001 0.31
3.122 10.982 0.32300001 0.5
3.109 11.003 0.32300001 0.33000001
3.0680001 10.989 0.32300001 0.54000002
3.03 10.987 0.322 0.33000001
2.9920001 10.983 0.322 0.44
2.9579999 10.994 0.322 0.41999999
2.918 10.982 0.322 0.44
2.8829999 10.992 0.322 0.44
2.8699999 11.01 0.322 0.36000001
2.823 10.972 0.322 0.46000001
2.789 10.983 0.322 0.37
2.753 10.986 0.322 0.47
2.7219999 11.006 0.322 0.38999999
2.678 10.977 0.32100001 0.47
2.645 10.992 0.322 0.38999999
2.6199999 10.963 0.32100001 0.49000001
2.5899999 10.988 0.32100001 0.38999999
2.553 10.987 0.32100001 0.41
2.5150001 10.979 0.32100001 0.43000001
2.48 10.987 0.32100001 0.44
2.4430001 10.985 0.32100001 0.46000001
2.4030001 10.963 0.32100001 0.60000002
2.3759999 10.924 0.31999999 0.44
2.348 10.963 0.32100001 0.31
2.312 10.958 0.31999999 0.41999999
2.28 10.977 0.32100001 0.47999999
2.243 10.973 0.31999999 0.47999999
2.204 10.958 0.31999999 0.49000001
2.1689999 10.963 0.31999999 0.47999999
2.1530001 10.97 0.31999999 0.47999999
2.1170001 10.973 0.31999999 0.50999999
2.0780001 10.954 0.31999999 0.47999999
2.0450001 10.968 0.31999999 0.47999999
2.006 10.947 0.31999999 0.50999999
1.971 10.953 0.31999999 0.5
1.937 10.962 0.31999999 0.50999999
1.9170001 10.945 0.31999999 0.5
1.882 10.947 0.31999999 0.5
1.848 10.957 0.31999999 0.51999998
1.812 10.957 0.31999999 0.54000002
1.776 10.948 0.31900001 0.52999997
