# .PCD v0.7 - Point Cloud Data file format
VERSION 0.7
FIELDS x y z intensity
SIZE 4 4 4 4
TYPE F F F F
COUNT 1 1 1 1
WIDTH 1419
HEIGHT 1
VIEWPOINT 0 0 0 1 0 0 0
POINTS 1419
DATA ascii
-4.4260001 -5.704 -1.549 0.20999999
-4.4039998 -5.7119999 -1.548 0.22
-4.4299998 -5.7649999 -1.561 0.28
-4.4109998 -5.7779999 -1.561 0.28
-4.3800001 -5.7740002 -1.556 0.27000001
-4.3579998 -5.783 -1.554 0.28
-4.3410001 -5.7989998 -1.5549999 0.27000001
-4.3239999 -5.8140001 -1.5549999 0.28
-4.2800002 -5.7930002 -1.545 0.2
-4.2969999 -5.8340001 -1.5549999 0.28999999
-4.256 -5.8179998 -1.5470001 0.23
-4.2379999 -5.8309999 -1.5470001 0.25
-4.2309999 -5.8600001 -1.551 0.25999999
-4.1830001 -5.8319998 -1.539 0.20999999
-4.1810002 -5.8670001 -1.546 0.30000001
-4.086 -5.7719998 -1.515 0.20999999
-4.1360002 -5.8629999 -1.539 0.25999999
-4.0879998 -5.8330002 -1.527 0.13
-3.5050001 -5.0279999 -1.2970001 0.18000001
-4.086 -5.9099998 -1.541 0.28
-4.0640001 -5.9180002 -1.54 0.28999999
-4.0510001 -5.9390001 -1.5420001 0.28999999
-4.0219998 -5.9349999 -1.538 0.28999999
-4.0079999 -5.9349999 -1.536 0.28999999
-3.997 -5.9590001 -1.539 0.28999999
-3.973 -5.9629998 -1.5369999 0.28999999
-3.9530001 -5.974 -1.536 0.28999999
-3.934 -5.987 -1.536 0.30000001
-3.9030001 -5.9790001 -1.531 0.28999999
-3.881 -5.987 -1.53 0.30000001
-3.8800001 -6.006 -1.533 0.30000001
-3.8540001 -6.006 -1.53 0.28999999
-3.825 -6.0040002 -1.526 0.30000001
-3.816 -6.0310001 -1.53 0.28999999
-3.7869999 -6.0279999 -1.526 0.30000001
-3.77 -6.0409999 -1.526 0.28999999
-3.7539999 -6.0580001 -1.528 0.28999999
-3.7290001 -6.039 -1.521 0.30000001
-3.7130001 -6.0560002 -1.522 0.28999999
-3.691 -6.0619998 -1.521 0.28999999
-3.6700001 -6.0700002 -1.52 0.30000001
-3.6470001 -6.0749998 -1.518 0.28999999
-3.635 -6.098 -1.521 0.28
-3.608 -6.0760002 -1.5140001 0.28
-3.5929999 -6.0939999 -1.516 0.28999999
-3.5799999 -6.1149998 -1.518 0.28999999
-3.552 -6.1110001 -1.5140001 0.28
-3.53 -6.1170001 -1.513 0.28999999
-3.5139999 -6.1350002 -1.515 0.28
-3.4860001 -6.131 -1.511 0.28999999
-3.4779999 -6.138 -1.511 0.28999999
-3.457 -6.1469998 -1.511 0.28999999
-3.4319999 -6.1479998 -1.508 0.27000001
-3.418 -6.1669998 -1.51 0.28999999
-3.3940001 -6.1690001 -1.508 0.28
-3.3740001 -6.1799998 -1.508 0.28
-3.346 -6.1729999 -1.503 0.28999999
-3.346 -6.197 -1.508 0.30000001
-3.316 -6.1890001 -1.503 0.28999999
-3.296 -6.197 -1.503 0.28
-3.2820001 -6.2179999 -1.506 0.28999999
-3.256 -6.2160001 -1.502 0.28999999
-3.2320001 -6.2179999 -1.5 0.28999999
-3.214 -6.23 -1.501 0.28999999
-3.198 -6.224 -1.498 0.28999999
-3.175 -6.2270002 -1.4960001 0.28999999
-3.1559999 -6.237 -1.4960001 0.30000001
-3.132 -6.2379999 -1.494 0.28999999
-3.118 -6.2600002 -1.497 0.30000001
-3.098 -6.2690001 -1.497 0.28999999
-3.072 -6.2659998 -1.493 0.30000001
-3.062 -6.2709999 -1.493 0.30000001
-3.0420001 -6.2800002 -1.493 0.28999999
-3.0190001 -6.2810001 -1.4910001 0.28999999
-2.9990001 -6.2909999 -1.4910001 0.30000001
-2.977 -6.296 -1.49 0.30000001
-2.9519999 -6.2930002 -1.487 0.28999999
-2.9319999 -6.303 -1.487 0.28999999
-2.921 -6.3039999 -1.4859999 0.28999999
-2.901 -6.3130002 -1.4859999 0.28
-2.8789999 -6.3179998 -1.485 0.28
-2.8629999 -6.336 -1.488 0.28999999
-2.835 -6.3260002 -1.483 0.28999999
-2.8150001 -6.3340001 -1.483 0.28999999
-2.8 -6.3540001 -1.485 0.28999999
-2.7869999 -6.3509998 -1.484 0.28999999
-2.7609999 -6.3470001 -1.48 0.28999999
-2.7390001 -6.3509998 -1.479 0.28999999
-2.714 -6.349 -1.476 0.28999999
-2.697 -6.3639998 -1.478 0.28
-2.6800001 -6.3800001 -1.48 0.28999999
-2.654 -6.3740001 -1.476 0.28999999
-2.642 -6.3730001 -1.475 0.30000001
-2.6240001 -6.3839998 -1.476 0.30000001
-2.6040001 -6.3940001 -1.476 0.28
-2.5840001 -6.401 -1.476 0.28999999
-2.5610001 -6.402 -1.474 0.28999999
-2.5380001 -6.402 -1.472 0.28999999
-2.5179999 -6.4120002 -1.473 0.28999999
-2.5079999 -6.4159999 -1.473 0.28999999
-2.4849999 -6.4169998 -1.471 0.28999999
-2.4660001 -6.428 -1.472 0.28999999
-2.4460001 -6.4359999 -1.472 0.28999999
-2.424 -6.4380002 -1.47 0.28999999
-2.401 -6.4380002 -1.469 0.28999999
-2.3829999 -6.4510002 -1.47 0.28
-2.3710001 -6.4489999 -1.469 0.30000001
-2.348 -6.4510002 -1.467 0.28
-2.3310001 -6.4679999 -1.47 0.30000001
-2.306 -6.461 -1.466 0.28999999
-2.2850001 -6.4660001 -1.465 0.30000001
-2.263 -6.4679999 -1.464 0.28999999
-2.2409999 -6.4710002 -1.4630001 0.30000001
-2.23 -6.473 -1.4630001 0.30000001
-2.21 -6.48 -1.4630001 0.30000001
-2.1889999 -6.4850001 -1.462 0.28999999
-2.1670001 -6.4860001 -1.461 0.31
-2.148 -6.4980001 -1.462 0.28999999
-2.125 -6.4980001 -1.461 0.28999999
-2.102 -6.4970002 -1.459 0.27000001
-2.098 -6.5170002 -1.4630001 0.34
-2.069 -6.4990001 -1.457 0.30000001
-2.053 -6.5170002 -1.46 0.31
-2.0309999 -6.5190001 -1.459 0.30000001
-2.006 -6.513 -1.456 0.30000001
-1.987 -6.5229998 -1.456 0.30000001
-1.977 -6.526 -1.456 0.30000001
-1.957 -6.5339999 -1.457 0.30000001
-1.934 -6.5310001 -1.455 0.28999999
-1.9170001 -6.5500002 -1.4579999 0.28999999
-1.89 -6.5349998 -1.4529999 0.28999999
-1.868 -6.5359998 -1.451 0.28999999
-1.855 -6.566 -1.457 0.30000001
-1.8380001 -6.546 -1.452 0.28999999
-1.817 -6.5500002 -1.451 0.30000001
-1.8 -6.5689998 -1.455 0.28999999
-1.772 -6.5479999 -1.448 0.28999999
-1.7539999 -6.5609999 -1.45 0.28
-1.7359999 -6.5780001 -1.4529999 0.28999999
-1.711 -6.566 -1.449 0.28999999
-1.702 -6.573 -1.45 0.30000001
-1.682 -6.5819998 -1.451 0.31
-1.6569999 -6.572 -1.447 0.28999999
-1.637 -6.579 -1.447 0.28999999
-1.619 -6.5939999 -1.45 0.28999999
-1.596 -6.5890002 -1.447 0.28999999
-1.574 -6.5900002 -1.447 0.28999999
-1.566 -6.6009998 -1.448 0.30000001
-1.54 -6.585 -1.443 0.31
-1.521 -6.5949998 -1.4450001 0.30000001
-1.502 -6.6090002 -1.447 0.30000001
-1.479 -6.6040001 -1.4450001 0.28999999
-1.455 -6.592 -1.441 0.28999999
-1.441 -6.6290002 -1.448 0.28999999
-1.424 -6.6009998 -1.441 0.28999999
-1.404 -6.6069999 -1.442 0.30000001
-1.385 -6.6230001 -1.444 0.28999999
-1.362 -6.6139998 -1.441 0.28999999
-1.341 -6.6199999 -1.442 0.28999999
-1.319 -6.618 -1.4400001 0.28999999
-1.296 -6.6110001 -1.437 0.28
-1.286 -6.6149998 -1.438 0.28
-1.266 -6.6230001 -1.439 0.28999999
-1.243 -6.6129999 -1.436 0.28999999
-1.224 -6.625 -1.437 0.28
-1.204 -6.632 -1.438 0.28999999
-1.1799999 -6.6230001 -1.4349999 0.28999999
-1.1619999 -6.638 -1.438 0.30000001
-1.148 -6.6230001 -1.434 0.28999999
-1.128 -6.6279998 -1.434 0.28
-1.107 -6.6350002 -1.4349999 0.28999999
-1.087 -6.6389999 -1.4349999 0.30000001
-1.0650001 -6.6360002 -1.434 0.28999999
-1.044 -6.6399999 -1.434 0.28999999
-1.022 -6.6370001 -1.433 0.28999999
-1.012 -6.6389999 -1.433 0.30000001
-0.99000001 -6.638 -1.432 0.28999999
-0.97000003 -6.6469998 -1.433 0.28999999
-0.94700003 -6.6350002 -1.429 0.28999999
-0.92799997 -6.651 -1.433 0.28
-0.90700001 -6.652 -1.432 0.28999999
-0.89600003 -6.6459999 -1.4299999 0.28999999
-0.875 -6.6459999 -1.4299999 0.28999999
-0.85299999 -6.6469998 -1.429 0.28
-0.83200002 -6.6479998 -1.429 0.28
-0.81 -6.6389999 -1.426 0.28999999
-0.79000002 -6.6490002 -1.428 0.28999999
-0.76800001 -6.6399999 -1.425 0.28
-0.75800002 -6.645 -1.426 0.28999999
-0.73799998 -6.6529999 -1.428 0.31
-0.71600002 -6.6479998 -1.426 0.31
-0.69499999 -6.6539998 -1.427 0.28999999
-0.67500001 -6.6560001 -1.427 0.30000001
-0.653 -6.6560001 -1.426 0.30000001
-0.63300002 -6.6620002 -1.427 0.28999999
-0.62199998 -6.6550002 -1.425 0.28999999
-0.60000002 -6.6459999 -1.423 0.28999999
-0.579 -6.651 -1.423 0.28999999
-0.55800003 -6.6469998 -1.4220001 0.30000001
-0.53799999 -6.6570001 -1.424 0.30000001
-0.51599997 -6.6550002 -1.423 0.28999999
-0.49599999 -6.6620002 -1.424 0.28999999
-0.48500001 -6.651 -1.4220001 0.28999999
-0.46399999 -6.6550002 -1.4220001 0.28999999
-0.44299999 -6.6560001 -1.4220001 0.28999999
-0.42300001 -6.665 -1.424 0.28999999
-0.40099999 -6.6609998 -1.423 0.28
-0.38 -6.6620002 -1.423 0.28999999
-0.359 -6.651 -1.42 0.30000001
-0.34799999 -6.6500001 -1.419 0.28999999
-0.32800001 -6.6550002 -1.42 0.30000001
-0.30599999 -6.6500001 -1.419 0.28
-0.28600001 -6.6529999 -1.419 0.28999999
-0.26499999 -6.6500001 -1.419 0.28999999
-0.244 -6.6469998 -1.418 0.28
-0.223 -6.6440001 -1.4170001 0.28999999
-0.212 -6.652 -1.419 0.28999999
-0.191 -6.645 -1.4170001 0.28999999
-0.171 -6.6529999 -1.419 0.28999999
-0.149 -6.6459999 -1.4170001 0.28999999
-0.12800001 -6.6300001 -1.413 0.28999999
-0.108 -6.6430001 -1.416 0.28999999
-0.086999997 -6.6350002 -1.414 0.28999999
-0.075999998 -6.6409998 -1.415 0.28999999
-0.055 -6.6370001 -1.414 0.30000001
-0.035 -6.6409998 -1.415 0.30000001
-0.014 -6.638 -1.414 0.28999999
0.0070000002 -6.6300001 -1.413 0.28999999
0.028000001 -6.6370001 -1.414 0.30000001
0.048999999 -6.632 -1.413 0.28999999
0.059 -6.6220002 -1.411 0.28999999
0.079999998 -6.631 -1.413 0.28999999
0.101 -6.6329999 -1.414 0.28999999
0.122 -6.6290002 -1.413 0.28999999
0.142 -6.6240001 -1.4119999 0.28999999
0.163 -6.618 -1.41 0.28
0.184 -6.6290002 -1.413 0.28999999
0.19499999 -6.6290002 -1.413 0.28
0.215 -6.6259999 -1.413 0.28
0.235 -6.6079998 -1.409 0.28999999
0.257 -6.6149998 -1.41 0.28999999
0.278 -6.6199999 -1.4119999 0.28999999
0.29800001 -6.6149998 -1.411 0.28
0.31900001 -6.6160002 -1.411 0.28999999
0.329 -6.6020002 -1.408 0.28999999
0.34999999 -6.6129999 -1.411 0.28999999
0.37 -6.6040001 -1.409 0.28999999
0.391 -6.6009998 -1.409 0.28
0.41100001 -6.5900002 -1.406 0.28999999
0.43399999 -6.6160002 -1.413 0.28999999
0.45300001 -6.5929999 -1.408 0.28999999
0.463 -6.5939999 -1.408 0.28999999
0.48500001 -6.6059999 -1.411 0.28999999
0.505 -6.5929999 -1.409 0.28999999
0.52499998 -6.585 -1.4069999 0.28999999
0.54699999 -6.6009998 -1.411 0.30000001
0.56599998 -6.5780001 -1.406 0.28999999
0.58700001 -6.5799999 -1.4069999 0.30000001
0.59899998 -6.5970001 -1.411 0.28999999
0.61799997 -6.572 -1.406 0.28
0.63999999 -6.5809999 -1.409 0.28999999
0.66100001 -6.585 -1.41 0.28999999
0.67900002 -6.5630002 -1.405 0.28
0.69999999 -6.5630002 -1.406 0.28999999
0.71200001 -6.5780001 -1.41 0.28
0.73000002 -6.552 -1.404 0.28999999
0.75199997 -6.5630002 -1.4069999 0.28
0.77499998 -6.5760002 -1.411 0.28999999
0.792 -6.5450001 -1.404 0.28999999
0.81300002 -6.5479999 -1.405 0.28
0.83600003 -6.559 -1.409 0.28
0.84500003 -6.5479999 -1.406 0.28
0.86500001 -6.5419998 -1.405 0.28999999
0.88800001 -6.5580001 -1.41 0.28999999
0.90499997 -6.5279999 -1.404 0.28999999
0.926 -6.533 -1.405 0.28999999
0.949 -6.5440001 -1.409 0.25999999
0.96700001 -6.5229998 -1.405 0.28999999
0.97600001 -6.5180001 -1.404 0.30000001
0.99699998 -6.5149999 -1.404 0.31999999
1.015 -6.494 -1.4 0.28999999
1.038 -6.5120001 -1.405 0.38
1.059 -6.5110002 -1.405 0.27000001
1.074 -6.4770002 -1.398 0.25999999
1.094 -6.4720001 -1.397 0.36000001
1.108 -6.4910002 -1.402 0.36000001
1.127 -6.48 -1.4 0.17
1.1440001 -6.4569998 -1.396 0.47
1.168 -6.4749999 -1.401 0.43000001
1.209 -6.467 -1.401 0.56999999
1.228 -6.4559999 -1.399 0.31999999
1.2359999 -6.4439998 -1.397 0.38
1.2589999 -6.4520001 -1.4 0.37
1.285 -6.48 -1.4069999 0.37
1.303 -6.4650002 -1.405 0.63
1.318 -6.434 -1.398 0.19
1.347 -6.4710002 -1.408 0.22
1.3609999 -6.4349999 -1.4 0.44999999
1.373 -6.4419999 -1.403 0.52999997
1.3940001 -6.4439998 -1.404 0.36000001
1.41 -6.4180002 -1.399 0.34
1.432 -6.421 -1.401 0.36000001
1.454 -6.4239998 -1.403 0.31
1.47 -6.4050002 -1.399 0.28999999
1.493 -6.4099998 -1.401 0.37
1.507 -6.4239998 -1.405 0.34999999
1.523 -6.4039998 -1.402 0.28999999
1.5420001 -6.3959999 -1.401 0.28
1.5650001 -6.4000001 -1.403 0.28999999
1.584 -6.3920002 -1.402 0.27000001
1.601 -6.375 -1.4 0.28
1.626 -6.3889999 -1.404 0.28
1.631 -6.368 -1.4 0.28999999
1.653 -6.3699999 -1.401 0.28999999
1.675 -6.3720002 -1.403 0.28999999
1.693 -6.3579998 -1.401 0.28999999
1.7130001 -6.3520002 -1.401 0.28999999
1.734 -6.3520002 -1.402 0.28999999
1.743 -6.3439999 -1.401 0.28999999
1.762 -6.3369999 -1.4 0.28999999
1.786 -6.3460002 -1.404 0.30000001
1.803 -6.329 -1.401 0.28999999
1.822 -6.3200002 -1.4 0.28
1.845 -6.3249998 -1.403 0.30000001
1.863 -6.3140001 -1.402 0.28999999
1.872 -6.3070002 -1.401 0.28999999
1.8940001 -6.309 -1.403 0.28999999
1.911 -6.2930002 -1.4 0.28
1.931 -6.2870002 -1.4 0.28999999
1.952 -6.2870002 -1.402 0.28
1.9680001 -6.27 -1.399 0.28
1.992 -6.2750001 -1.402 0.28999999
2.0039999 -6.2789998 -1.404 0.28
2.0209999 -6.2649999 -1.402 0.28999999
2.0409999 -6.2610002 -1.402 0.28
2.0650001 -6.2649999 -1.405 0.28999999
2.079 -6.244 -1.401 0.28999999
2.0999999 -6.2410002 -1.402 0.27000001
2.1240001 -6.2470002 -1.405 0.27000001
2.128 -6.2259998 -1.401 0.28999999
2.151 -6.2280002 -1.403 0.28999999
2.1730001 -6.2290001 -1.405 0.28999999
2.1919999 -6.2199998 -1.405 0.28
2.211 -6.2129998 -1.405 0.28999999
2.234 -6.2150002 -1.4069999 0.28999999
2.2449999 -6.1859999 -1.401 0.28
2.2579999 -6.1919999 -1.404 0.28
2.2809999 -6.1919999 -1.405 0.30000001
2.299 -6.1810002 -1.405 0.28999999
2.3180001 -6.1739998 -1.405 0.25999999
2.3399999 -6.1739998 -1.406 0.28
2.3510001 -6.145 -1.401 0.30000001
2.375 -6.1479998 -1.404 0.28
2.3840001 -6.1440001 -1.404 0.28999999
2.4070001 -6.1440001 -1.405 0.27000001
2.427 -6.138 -1.406 0.27000001
2.447 -6.132 -1.406 0.28
2.464 -6.1209998 -1.405 0.27000001
2.483 -6.112 -1.405 0.30000001
2.494 -6.1110001 -1.406 0.28
2.5090001 -6.0939999 -1.404 0.28
2.53 -6.0900002 -1.405 0.28999999
2.552 -6.0890002 -1.406 0.28999999
2.569 -6.0760002 -1.405 0.28999999
2.5929999 -6.0780001 -1.408 0.27000001
2.6140001 -6.0760002 -1.409 0.28
2.6289999 -6.0580001 -1.4069999 0.30000001
2.6400001 -6.0580001 -1.408 0.25999999
2.6659999 -6.0640001 -1.411 0.28999999
2.6700001 -6.0229998 -1.403 0.28
2.6960001 -6.0289998 -1.4069999 0.28999999
2.724 -6.04 -1.4119999 0.27000001
2.7309999 -6.007 -1.405 0.28
2.74 -6.0009999 -1.405 0.28999999
2.766 -6.0079999 -1.409 0.28999999
2.78 -5.9889998 -1.406 0.28999999
2.796 -5.9749999 -1.405 0.28
2.8199999 -5.9759998 -1.408 0.28999999
2.8329999 -5.9549999 -1.405 0.28999999
2.8540001 -5.9520001 -1.406 0.28999999
2.8710001 -5.9629998 -1.41 0.28999999
2.882 -5.9380002 -1.406 0.28
2.902 -5.9320002 -1.4069999 0.28999999
2.9289999 -5.9390001 -1.411 0.28
2.941 -5.9159999 -1.4069999 0.28999999
2.9590001 -5.9070001 -1.4069999 0.27000001
2.9849999 -5.9109998 -1.411 0.27000001
2.987 -5.8930001 -1.4069999 0.27000001
3.0079999 -5.888 -1.409 0.28
3.0280001 -5.882 -1.41 0.27000001
3.0420001 -5.8639998 -1.4069999 0.28
3.063 -5.8579998 -1.408 0.27000001
3.0940001 -5.8720002 -1.414 0.28
3.102 -5.8439999 -1.41 0.27000001
3.1099999 -5.8369999 -1.409 0.28
3.138 -5.8449998 -1.414 0.28999999
3.1530001 -5.8280001 -1.4119999 0.28
3.171 -5.8179998 -1.4119999 0.27000001
3.1930001 -5.8150001 -1.414 0.28
3.2019999 -5.7880001 -1.409 0.28999999
3.2219999 -5.7810001 -1.41 0.28
3.233 -5.7789998 -1.411 0.27000001
3.2460001 -5.7610002 -1.409 0.28
3.2639999 -5.75 -1.409 0.27000001
3.2920001 -5.757 -1.413 0.28
3.3069999 -5.7420001 -1.4119999 0.28
3.322 -5.7259998 -1.41 0.28
3.3469999 -5.7270002 -1.414 0.28
3.348 -5.7090001 -1.41 0.27000001
3.375 -5.7129998 -1.414 0.27000001
3.3970001 -5.7090001 -1.416 0.28999999
3.4030001 -5.6789999 -1.41 0.27000001
3.427 -5.678 -1.413 0.28
3.447 -5.6719999 -1.414 0.28999999
3.4560001 -5.6669998 -1.414 0.27000001
3.4690001 -5.6469998 -1.4119999 0.28999999
3.4960001 -5.651 -1.416 0.28
3.5079999 -5.6300001 -1.414 0.27000001
3.5239999 -5.618 -1.413 0.25999999
3.5439999 -5.6100001 -1.414 0.28999999
3.5639999 -5.6020002 -1.415 0.27000001
3.573 -5.598 -1.415 0.28999999
3.595 -5.5929999 -1.4170001 0.27000001
3.6059999 -5.572 -1.414 0.27000001
3.6259999 -5.5640001 -1.415 0.27000001
3.6459999 -5.5560002 -1.416 0.27000001
3.6630001 -5.5450001 -1.416 0.28
3.677 -5.5279999 -1.415 0.30000001
3.6889999 -5.527 -1.416 0.28999999
3.7 -5.506 -1.414 0.28
3.7179999 -5.4959998 -1.414 0.28
3.7490001 -5.5029998 -1.419 0.27000001
3.757 -5.4790001 -1.416 0.27000001
3.779 -5.473 -1.418 0.28
3.7969999 -5.4629998 -1.418 0.28
3.8039999 -5.454 -1.4170001 0.28
3.822 -5.4439998 -1.418 0.27000001
3.842 -5.4359999 -1.419 0.28999999
3.859 -5.4239998 -1.419 0.28
3.8710001 -5.4039998 -1.4170001 0.28
3.8940001 -5.401 -1.419 0.28999999
3.9089999 -5.3860002 -1.419 0.28
3.9189999 -5.381 -1.419 0.28999999
3.9389999 -5.3740001 -1.42 0.28999999
3.9590001 -5.3660002 -1.4220001 0.28999999
3.9690001 -5.3439999 -1.419 0.28
3.994 -5.3429999 -1.4220001 0.30000001
4.0029998 -5.3189998 -1.419 0.28999999
4.0250001 -5.3140001 -1.421 0.28999999
4.0310001 -5.3049998 -1.42 0.28999999
4.0469999 -5.2909999 -1.42 0.28
4.066 -5.2810001 -1.421 0.28999999
4.0840001 -5.27 -1.421 0.28999999
4.099 -5.2550001 -1.421 0.28999999
4.1129999 -5.2389998 -1.42 0.31
4.1090002 -5.2010002 -1.4119999 0.27000001
4.138 -5.2199998 -1.42 0.28999999
4.1599998 -5.2150002 -1.4220001 0.28999999
4.1810002 -5.2069998 -1.424 0.28999999
4.1919999 -5.1869998 -1.4220001 0.28999999
4.21 -5.177 -1.423 0.28999999
4.2280002 -5.165 -1.423 0.30000001
4.2449999 -5.1529999 -1.423 0.30000001
4.2509999 -5.1430001 -1.423 0.30000001
4.2789998 -5.145 -1.427 0.30000001
4.2870002 -5.1209998 -1.424 0.30000001
4.3070002 -5.112 -1.425 0.30000001
4.3280001 -5.1040001 -1.427 0.31
4.329 -5.073 -1.4220001 0.28
4.3439999 -5.059 -1.4220001 0.30000001
4.3429999 -5.0419998 -1.419 0.28999999
4.3130002 -4.9759998 -1.402 0.31
4.3520002 -4.9889998 -1.41 0.31
4.3579998 -4.9650002 -1.4069999 0.28
4.3130002 -4.8829999 -1.386 0.31999999
4.3660002 -4.9109998 -1.399 0.25
4.2540002 -4.7550001 -1.355 0.27000001
4.2729998 -4.7620001 -1.359 0.38
4.302 -4.7639999 -1.364 0.34999999
4.323 -4.756 -1.3660001 0.36000001
4.3730001 -4.7810001 -1.378 0.28999999
4.3470001 -4.723 -1.364 0.25999999
4.4060001 -4.757 -1.3789999 0.31999999
4.4089999 -4.7459998 -1.377 0.31999999
4.447 -4.756 -1.385 0.41
4.4499998 -4.7290001 -1.381 0.31
4.467 -4.7179999 -1.382 0.31999999
4.4710002 -4.6929998 -1.378 0.34
4.5019999 -4.6950002 -1.3839999 0.34
4.5139999 -4.678 -1.383 0.34
4.5310001 -4.6810002 -1.386 0.34
4.5170002 -4.638 -1.377 0.31999999
4.5149999 -4.6069999 -1.3710001 0.41
4.5100002 -4.573 -1.365 0.34
4.5650001 -4.599 -1.378 0.37
4.5359998 -4.5419998 -1.364 0.38999999
4.553 -4.5300002 -1.365 0.31999999
4.5739999 -4.5370002 -1.369 0.34
4.6040001 -4.5380001 -1.374 0.37
4.605 -4.5110002 -1.37 0.37
4.638 -4.5139999 -1.376 0.33000001
4.6300001 -4.4780002 -1.369 0.41
4.6700001 -4.4889998 -1.377 0.38
4.684 -4.474 -1.377 0.37
4.6799998 -4.4559999 -1.374 0.38
4.6799998 -4.428 -1.369 0.31999999
4.7270002 -4.4439998 -1.38 0.5
4.2049999 -3.9319999 -1.21 0.23
4.7589998 -4.4180002 -1.381 0.28999999
4.8010001 -4.4289999 -1.39 0.34
4.8150001 -4.414 -1.39 0.36000001
4.7979999 -4.3839998 -1.382 0.34
4.8299999 -4.3860002 -1.388 0.36000001
4.8179998 -4.348 -1.38 0.37
4.8340001 -4.335 -1.381 0.34
4.8540001 -4.3249998 -1.383 0.37
4.8410001 -4.2870002 -1.375 0.37
4.829 -4.25 -1.367 0.31999999
4.8210001 -4.2290001 -1.363 0.31999999
4.8379998 -4.217 -1.363 0.34
4.8909998 -4.2360001 -1.376 0.37
4.8800001 -4.1999998 -1.368 0.31999999
4.8979998 -4.1880002 -1.37 0.41
4.954 -4.2090001 -1.383 0.36000001
4.9910002 -4.2140002 -1.39 0.38999999
4.974 -4.1859999 -1.383 0.33000001
4.974 -4.1589999 -1.3789999 0.37
4.9400001 -4.105 -1.365 0.34
4.9770002 -4.1090002 -1.372 0.34
4.9660001 -4.0739999 -1.365 0.34
4.9949999 -4.072 -1.37 0.41
4.994 -4.0580001 -1.368 0.31999999
5.0370002 -4.0669999 -1.377 0.34
5.0900002 -4.0819998 -1.388 0.38
5.0869999 -4.0539999 -1.3839999 0.34999999
5.0710001 -4.0149999 -1.375 0.31999999
5.0339999 -3.961 -1.3609999 0.38999999
5.0479999 -3.9460001 -1.3609999 0.34
4.9959998 -3.8929999 -1.344 0.33000001
5.1110001 -3.957 -1.374 0.36000001
5.1440001 -3.9560001 -1.38 0.33000001
5.1630001 -3.9449999 -1.382 0.38
5.1939998 -3.9430001 -1.387 0.38999999
5.1900001 -3.915 -1.383 0.33000001
5.2010002 -3.8970001 -1.382 0.41
5.1290002 -3.8310001 -1.36 0.28
5.2259998 -3.8770001 -1.3839999 0.38
5.2280002 -3.8540001 -1.382 0.38999999
5.263 -3.8529999 -1.388 0.31999999
5.2589998 -3.825 -1.383 0.34999999
5.2519999 -3.7950001 -1.378 0.36000001
5.2729998 -3.786 -1.381 0.38
5.2740002 -3.7739999 -1.3789999 0.34
5.277 -3.7509999 -1.377 0.38
5.3239999 -3.7590001 -1.386 0.36000001
5.3070002 -3.7219999 -1.378 0.30000001
5.3660002 -3.7379999 -1.392 0.36000001
5.3959999 -3.734 -1.397 0.34999999
5.3979998 -3.71 -1.3940001 0.38
5.3779998 -3.684 -1.387 0.31999999
5.3930001 -3.6689999 -1.388 0.38
5.3860002 -3.6400001 -1.383 0.31999999
5.4039998 -3.628 -1.385 0.34
5.4169998 -3.612 -1.385 0.34
5.415 -3.586 -1.382 0.34
5.4330001 -3.5739999 -1.383 0.34
5.447 -3.5699999 -1.386 0.34999999
5.448 -3.5469999 -1.383 0.38999999
5.4679999 -3.5350001 -1.385 0.36000001
5.4689999 -3.5109999 -1.382 0.38
5.467 -3.4860001 -1.3789999 0.37
5.4710002 -3.4649999 -1.377 0.34
5.427 -3.4130001 -1.362 0.36000001
5.4390001 -3.4089999 -1.364 0.37
5.553 -3.4549999 -1.392 0.34
5.4390001 -3.3610001 -1.358 0.34999999
5.3610001 -3.2909999 -1.334 0.36000001
5.4580002 -3.326 -1.358 0.34999999
5.4819999 -3.3169999 -1.3609999 0.31999999
5.3670001 -3.2249999 -1.327 0.36000001
5.401 -3.234 -1.335 0.33000001
5.4679999 -3.25 -1.35 0.31999999
5.5149999 -3.2550001 -1.36 0.34
5.618 -3.2909999 -1.385 0.38999999
5.4000001 -3.142 -1.324 0.28999999
5.6589999 -3.267 -1.391 0.37
5.598 -3.221 -1.373 0.31999999
5.6279998 -3.2149999 -1.378 0.36000001
5.5300002 -3.1359999 -1.349 0.25999999
5.7010002 -3.2090001 -1.392 0.36000001
5.7080002 -3.1889999 -1.391 0.34999999
5.7280002 -3.177 -1.3940001 0.37
5.7600002 -3.171 -1.4 0.31999999
5.7719998 -3.165 -1.402 0.38999999
5.7659998 -3.1389999 -1.398 0.36000001
5.783 -3.1240001 -1.4 0.38
5.7839999 -3.102 -1.397 0.36000001
5.7839999 -3.0780001 -1.395 0.34999999
5.8140001 -3.0710001 -1.4 0.37
5.8319998 -3.0569999 -1.402 0.31999999
5.882 -3.0710001 -1.414 0.34
5.8670001 -3.04 -1.408 0.37
5.9000001 -3.033 -1.414 0.34
5.8990002 -3.0090001 -1.411 0.37
5.875 -2.974 -1.402 0.31999999
5.8649998 -2.9460001 -1.397 0.36000001
5.9109998 -2.9460001 -1.4069999 0.38999999
5.9089999 -2.9330001 -1.405 0.34
5.9419999 -2.9260001 -1.411 0.31
5.967 -2.915 -1.415 0.34999999
5.9899998 -2.9030001 -1.419 0.37
6.0139999 -2.891 -1.423 0.38999999
5.993 -2.858 -1.415 0.36000001
5.9400001 -2.8099999 -1.399 0.30000001
6.0240002 -2.8380001 -1.419 0.34
6.04 -2.823 -1.421 0.31999999
6.066 -2.812 -1.426 0.38999999
6.1209998 -2.8139999 -1.437 0.37
6.0819998 -2.773 -1.425 0.36000001
6.0339999 -2.7279999 -1.411 0.36000001
6.0669999 -2.72 -1.4170001 0.38
6.0640001 -2.7079999 -1.415 0.34999999
6.0890002 -2.6949999 -1.419 0.31
6.0970001 -2.6760001 -1.419 0.44999999
6.0949998 -2.6530001 -1.4170001 0.34999999
6.1030002 -2.6329999 -1.4170001 0.33000001
6.165 -2.6370001 -1.4299999 0.34999999
6.1360002 -2.602 -1.421 0.33000001
6.1399999 -2.592 -1.421 0.36000001
6.1539998 -2.575 -1.4220001 0.34
6.158 -2.5539999 -1.421 0.36000001
6.112 -2.513 -1.408 0.31999999
6.197 -2.5250001 -1.427 0.36000001
6.1820002 -2.4960001 -1.421 0.34
6.2059999 -2.483 -1.425 0.37
6.2259998 -2.48 -1.429 0.36000001
6.2179999 -2.454 -1.425 0.37
6.256 -2.4460001 -1.433 0.36000001
6.2579999 -2.424 -1.432 0.36000001
6.2729998 -2.408 -1.433 0.34
6.283 -2.3889999 -1.434 0.33000001
6.3099999 -2.3759999 -1.439 0.40000001
6.3070002 -2.3640001 -1.437 0.34999999
6.3249998 -2.348 -1.4400001 0.40000001
6.3629999 -2.339 -1.447 0.34999999
6.369 -2.319 -1.447 0.36000001
6.3889999 -2.303 -1.45 0.38999999
6.4050002 -2.286 -1.452 0.38999999
6.3239999 -2.2349999 -1.431 0.31999999
6.4530001 -2.2690001 -1.461 0.34999999
6.4559999 -2.247 -1.461 0.34
6.4499998 -2.223 -1.457 0.31
6.4850001 -2.2119999 -1.464 0.40000001
6.4879999 -2.1900001 -1.4630001 0.34
6.5139999 -2.1760001 -1.4680001 0.44999999
6.4829998 -2.1429999 -1.459 0.23999999
6.552 -2.154 -1.474 0.34999999
6.5599999 -2.1340001 -1.475 0.36000001
6.6020002 -2.125 -1.484 0.38
6.6269999 -2.1099999 -1.488 0.34999999
6.6009998 -2.079 -1.48 0.30000001
6.6240001 -2.063 -1.484 0.44999999
6.6230001 -2.04 -1.482 0.37
6.6110001 -2.0250001 -1.479 0.34
6.6020002 -2 -1.475 0.36000001
6.6370001 -1.987 -1.482 0.36000001
6.6370001 -1.965 -1.48 0.37
6.6700001 -1.951 -1.487 0.36000001
6.7490001 -1.951 -1.5039999 0.40000001
6.7909999 -1.9400001 -1.513 0.37
6.8049998 -1.933 -1.516 0.31
6.8319998 -1.9170001 -1.521 0.33000001
6.8410001 -1.897 -1.521 0.27000001
6.8470001 -1.875 -1.521 0.25999999
6.862 -1.8559999 -1.524 0.28
6.8699999 -1.835 -1.524 0.28999999
6.8979998 -1.831 -1.53 0.2
7.0240002 -1.84 -1.559 0.25999999
7.1199999 -1.841 -1.581 0.2
7.2280002 -1.844 -1.605 0.23
7.342 -1.848 -1.631 0.23
7.4159999 -1.842 -1.647 0.28
7.4369998 -1.822 -1.65 0.25999999
7.447 -1.812 -1.652 0.28
7.4489999 -1.788 -1.651 0.28
7.4679999 -1.768 -1.655 0.25999999
7.4640002 -1.742 -1.652 0.20999999
7.4710002 -1.719 -1.653 0.14
7.4549999 -1.691 -1.648 0.19
7.4549999 -1.666 -1.646 0.050000001
7.4499998 -1.653 -1.645 0.17
7.4530001 -1.6289999 -1.6440001 0.050000001
7.4619999 -1.6059999 -1.645 0.17
7.467 -1.5829999 -1.645 0.050000001
7.4840002 -1.562 -1.648 0.16
7.4809999 -1.5369999 -1.646 0.050000001
7.48 -1.512 -1.645 0.16
7.4860001 -1.501 -1.646 0.18000001
7.4949999 -1.478 -1.646 0.18000001
7.4860001 -1.452 -1.643 0.16
7.5019999 -1.431 -1.646 0.16
7.5009999 -1.406 -1.645 0.16
7.507 -1.383 -1.645 0.16
7.5110002 -1.36 -1.645 0.17
7.5149999 -1.348 -1.646 0.16
7.5100002 -1.323 -1.643 0.039999999
7.5139999 -1.299 -1.643 0.07
7.5289998 -1.277 -1.646 0.039999999
7.5139999 -1.251 -1.641 0.07
7.5180001 -1.227 -1.641 0.039999999
7.533 -1.205 -1.6440001 0.07
7.5139999 -1.1900001 -1.6390001 0.039999999
7.533 -1.169 -1.643 0.07
7.533 -1.145 -1.642 0.039999999
7.5250001 -1.119 -1.6390001 0.07
7.5320001 -1.096 -1.64 0.039999999
7.5510001 -1.075 -1.6440001 0.07
7.5450001 -1.062 -1.642 0.039999999
7.5479999 -1.038 -1.642 0.07
7.5479999 -1.0140001 -1.641 0.039999999
7.553 -0.99000001 -1.641 0.07
7.552 -0.96600002 -1.641 0.039999999
7.559 -0.94300002 -1.641 0.079999998
7.5450001 -0.917 -1.637 0.039999999
7.559 -0.90700001 -1.641 0.079999998
7.5570002 -0.88200003 -1.6390001 0.039999999
7.5630002 -0.85900003 -1.64 0.07
7.5440001 -0.833 -1.635 0.039999999
7.572 -0.81199998 -1.641 0.07
7.5630002 -0.787 -1.638 0.039999999
7.566 -0.76300001 -1.638 0.07
7.573 -0.75199997 -1.64 0.039999999
7.5650001 -0.727 -1.637 0.07
7.5640001 -0.70300001 -1.637 0.039999999
7.5679998 -0.67900002 -1.637 0.079999998
7.5560002 -0.65499997 -1.6339999 0.039999999
7.572 -0.63200003 -1.637 0.07
7.5679998 -0.60799998 -1.636 0.039999999
7.5770001 -0.59600002 -1.637 0.07
7.5669999 -0.57200003 -1.635 0.039999999
7.5819998 -0.54900002 -1.638 0.07
7.5760002 -0.52499998 -1.636 0.039999999
7.5799999 -0.50099999 -1.637 0.079999998
7.5770001 -0.477 -1.636 0.039999999
7.579 -0.45300001 -1.636 0.079999998
7.5910001 -0.442 -1.638 0.16
7.5890002 -0.41800001 -1.637 0.039999999
7.5760002 -0.39300001 -1.6339999 0.07
7.572 -0.36899999 -1.633 0.039999999
7.5840001 -0.34599999 -1.636 0.07
7.5780001 -0.322 -1.6339999 0.039999999
7.592 -0.29800001 -1.637 0.07
7.5929999 -0.28600001 -1.637 0.039999999
7.5819998 -0.26199999 -1.6339999 0.07
7.5749998 -0.23800001 -1.632 0.039999999
7.5970001 -0.215 -1.637 0.07
7.5879998 -0.191 -1.635 0.15000001
7.585 -0.167 -1.6339999 0.039999999
7.5890002 -0.14300001 -1.635 0.079999998
7.5809999 -0.131 -1.633 0.16
7.5879998 -0.107 -1.635 0.16
7.586 -0.082999997 -1.6339999 0.16
7.586 -0.059999999 -1.6339999 0.16
7.592 -0.035999998 -1.636 0.16
7.5879998 -0.012 -1.635 0.039999999
7.3559999 0.0040000002 -1.641 0.050000001
7.362 0.027000001 -1.643 0.18000001
7.375 0.050000001 -1.646 0.20999999
7.3709998 0.061999999 -1.645 0.1
7.355 0.085000001 -1.641 0.18000001
7.3740001 0.108 -1.646 0.2
7.3699999 0.131 -1.645 0.1
7.3790002 0.155 -1.647 0.18000001
7.3670001 0.178 -1.645 0.050000001
7.3720002 0.20100001 -1.646 0.18000001
7.3660002 0.212 -1.645 0.2
7.368 0.235 -1.645 0.1
7.3569999 0.25799999 -1.643 0.18000001
7.3559999 0.28099999 -1.643 0.2
7.3709998 0.30500001 -1.646 0.1
7.3540001 0.32800001 -1.643 0.19
7.349 0.35100001 -1.642 0.1
7.3779998 0.36300001 -1.649 0.18000001
7.3590002 0.38600001 -1.645 0.050000001
7.3639998 0.40900001 -1.646 0.18000001
7.3660002 0.433 -1.647 0.19
7.3610001 0.45500001 -1.646 0.1
7.3639998 0.479 -1.647 0.16
7.3660002 0.50199997 -1.648 0.20999999
7.3509998 0.51300001 -1.645 0.1
7.3460002 0.53600001 -1.6440001 0.18000001
7.3639998 0.56 -1.648 0.11
7.3639998 0.583 -1.649 0.17
7.3460002 0.60500002 -1.645 0.050000001
7.3429999 0.62800002 -1.645 0.17
7.3540001 0.65200001 -1.648 0.2
7.3569999 0.66399997 -1.649 0.1
7.3509998 0.68699998 -1.648 0.17
7.3390002 0.70899999 -1.645 0.20999999
7.3429999 0.73299998 -1.647 0.1
7.3379998 0.75599998 -1.646 0.18000001
7.3460002 0.77999997 -1.649 0.11
7.3260002 0.801 -1.645 0.19
7.3499999 0.815 -1.651 0.11
7.3260002 0.83600003 -1.645 0.18000001
7.3369999 0.861 -1.649 0.11
7.3400002 0.884 -1.65 0.18000001
7.3270001 0.90600002 -1.648 0.1
7.3179998 0.92799997 -1.646 0.18000001
7.335 0.954 -1.651 0.11
7.3140001 0.963 -1.646 0.19
7.3210001 0.98699999 -1.649 0.11
7.3189998 1.01 -1.649 0.2
7.3099999 1.033 -1.648 0.11
7.3070002 1.056 -1.648 0.18000001
7.3210001 1.081 -1.652 0.11
7.3140001 1.103 -1.651 0.18000001
7.3099999 1.115 -1.651 0.22
7.3099999 1.138 -1.652 0.18000001
7.3049998 1.161 -1.651 0.23
7.2989998 1.184 -1.651 0.19
7.2969999 1.207 -1.651 0.23999999
7.2880001 1.229 -1.65 0.18000001
7.2880001 1.252 -1.651 0.23999999
7.2859998 1.2640001 -1.651 0.18000001
7.2839999 1.2869999 -1.651 0.23
7.2779999 1.309 -1.651 0.19
7.2810001 1.334 -1.652 0.12
7.256 1.353 -1.647 0.20999999
7.2670002 1.378 -1.651 0.2
7.2719998 1.403 -1.653 0.23999999
7.2360001 1.408 -1.645 0.18000001
7.25 1.434 -1.65 0.23
7.2529998 1.459 -1.652 0.19
7.243 1.48 -1.65 0.23999999
7.2249999 1.5 -1.647 0.18000001
7.243 1.528 -1.652 0.23999999
7.2189999 1.546 -1.648 0.19
7.2280002 1.5599999 -1.651 0.23999999
7.2210002 1.582 -1.65 0.22
7.1939998 1.6 -1.645 0.2
7.2129998 1.628 -1.651 0.25
7.2160001 1.653 -1.652 0.2
7.1989999 1.673 -1.65 0.25
7.1789999 1.6799999 -1.645 0.19
7.1999998 1.709 -1.652 0.23999999
7.1859999 1.729 -1.65 0.20999999
7.1739998 1.75 -1.648 0.12
7.178 1.775 -1.651 0.20999999
7.152 1.793 -1.645 0.18000001
7.1609998 1.819 -1.649 0.27000001
7.1570001 1.83 -1.649 0.23999999
7.1339998 1.848 -1.645 0.18000001
7.151 1.876 -1.65 0.25999999
7.1370001 1.896 -1.648 0.23
7.1269999 1.918 -1.647 0.2
7.125 1.941 -1.648 0.25
7.1149998 1.9630001 -1.647 0.23
7.092 1.9680001 -1.642 0.19
7.1149998 1.999 -1.65 0.27000001
7.0960002 2.017 -1.646 0.23
7.0910001 2.04 -1.647 0.19
7.0960002 2.066 -1.65 0.27000001
7.092 2.0880001 -1.65 0.23
7.0609999 2.1040001 -1.6440001 0.2
7.0780001 2.1210001 -1.649 0.27000001
7.066 2.141 -1.648 0.23
7.046 2.1600001 -1.645 0.19
7.0650001 2.1900001 -1.651 0.27000001
7.0489998 2.2090001 -1.649 0.23999999
7.0310001 2.2279999 -1.646 0.2
7.04 2.2550001 -1.65 0.27000001
7.033 2.2650001 -1.649 0.25
7.013 2.283 -1.646 0.2
7.0149999 2.3080001 -1.648 0.28
7.013 2.332 -1.65 0.25
7.0079999 2.3540001 -1.65 0.23999999
6.993 2.3740001 -1.648 0.18000001
6.9910002 2.398 -1.65 0.28999999
6.9850001 2.408 -1.649 0.25
6.974 2.4289999 -1.648 0.2
6.9759998 2.454 -1.651 0.28
6.9679999 2.4760001 -1.651 0.25
6.96 2.4979999 -1.651 0.2
6.961 2.523 -1.653 0.27000001
6.9520001 2.5320001 -1.652 0.25
6.9400001 2.552 -1.651 0.23999999
6.941 2.5769999 -1.653 0.18000001
6.9330001 2.599 -1.653 0.23
6.9200001 2.619 -1.652 0.34
6.9000001 2.6359999 -1.649 0.51999998
6.908 2.664 -1.653 0.34999999
6.8909998 2.6700001 -1.65 0.5
6.8940001 2.6960001 -1.652 0.38
6.8800001 2.7160001 -1.651 0.41
6.8730001 2.7379999 -1.652 0.41
6.8649998 2.76 -1.652 0.43000001
6.8629999 2.7839999 -1.653 0.47
6.8600001 2.8080001 -1.655 0.52999997
6.8540001 2.8180001 -1.654 0.58999997
6.8460002 2.8399999 -1.655 0.62
6.8340001 2.8599999 -1.654 0.63999999
6.802 2.872 -1.648 0.72000003
6.7820001 2.8889999 -1.645 0.52999997
6.796 2.9200001 -1.651 0.28999999
6.7810001 2.9389999 -1.65 0.2
6.7859998 2.9530001 -1.652 0.28
6.7690001 2.971 -1.65 0.25
6.7719998 2.9979999 -1.653 0.25999999
6.75 3.0139999 -1.65 0.2
6.7600002 3.0439999 -1.655 0.28
6.7379999 3.059 -1.652 0.25
6.7220001 3.0769999 -1.65 0.25999999
6.7259998 3.092 -1.652 0.25999999
6.7210002 3.1159999 -1.654 0.20999999
6.717 3.1389999 -1.655 0.28
6.6999998 3.1570001 -1.653 0.25
6.6810002 3.174 -1.651 0.2
6.6869998 3.2019999 -1.655 0.27000001
6.6589999 3.2149999 -1.651 0.25
6.6729999 3.2349999 -1.656 0.25
6.6539998 3.2509999 -1.653 0.18000001
6.6490002 3.2750001 -1.655 0.28
6.6300001 3.2909999 -1.652 0.25
6.6199999 3.312 -1.652 0.25
6.6030002 3.329 -1.651 0.2
6.6160002 3.362 -1.6569999 0.27000001
6.6059999 3.3699999 -1.656 0.25
6.5830002 3.385 -1.652 0.18000001
6.5929999 3.4159999 -1.658 0.25999999
6.5669999 3.4289999 -1.654 0.22
6.5599999 3.451 -1.655 0.2
6.5609999 3.4779999 -1.658 0.25
6.5430002 3.4820001 -1.655 0.2
6.5500002 3.5120001 -1.659 0.25
6.5320001 3.529 -1.658 0.23
6.5120001 3.5439999 -1.655 0.2
6.5139999 3.572 -1.659 0.25
6.5009999 3.592 -1.659 0.23
6.494 3.6140001 -1.659 0.19
6.4879999 3.6240001 -1.659 0.25999999
6.4819999 3.648 -1.661 0.23
6.467 3.6659999 -1.66 0.2
6.4619999 3.6900001 -1.6619999 0.23999999
6.447 3.7079999 -1.661 0.2
6.4390001 3.7309999 -1.6619999 0.25
6.4180002 3.7460001 -1.659 0.23
6.4239998 3.763 -1.663 0.2
6.4159999 3.7850001 -1.664 0.23999999
6.401 3.803 -1.663 0.19
6.4050002 3.8329999 -1.6670001 0.23999999
6.3829999 3.8469999 -1.665 0.2
6.3709998 3.8670001 -1.665 0.12
6.369 3.8929999 -1.6670001 0.20999999
6.3540001 3.898 -1.665 0.11
6.3319998 3.9119999 -1.6619999 0.2
6.3429999 3.9460001 -1.669 0.11
6.3140001 3.9560001 -1.664 0.2
6.3049998 3.9779999 -1.665 0.11
6.3039999 4.0050001 -1.668 0.2
6.2810001 4.0180001 -1.666 0.11
6.277 4.0289998 -1.666 0.2
6.2839999 4.0619998 -1.6720001 0.11
6.2420001 4.0619998 -1.663 0.2
6.2470002 4.0939999 -1.668 0.11
6.2319999 4.112 -1.668 0.2
6.224 4.1350002 -1.669 0.11
6.2059999 4.151 -1.668 0.2
6.2010002 4.1760001 -1.67 0.11
6.1869998 4.1799998 -1.668 0.18000001
6.191 4.2119999 -1.673 0.20999999
6.1760001 4.23 -1.673 0.19
6.158 4.2459998 -1.671 0.23
6.132 4.257 -1.6670001 0.19
6.1389999 4.29 -1.673 0.22
6.131 4.2989998 -1.673 0.19
6.1170001 4.3179998 -1.673 0.22
6.1129999 4.3439999 -1.676 0.19
6.0890002 4.355 -1.673 0.23
6.073 4.3730001 -1.6720001 0.2
6.0770001 4.4050002 -1.677 0.22
6.0500002 4.415 -1.673 0.19
6.0450001 4.4260001 -1.674 0.23
6.0339999 4.447 -1.675 0.18000001
6.0110002 4.4590001 -1.6720001 0.23
6.0089998 4.487 -1.676 0.19
6.0050001 4.513 -1.679 0.23
5.9650002 4.513 -1.671 0.19
5.9699998 4.546 -1.677 0.22
5.9720001 4.5619998 -1.6799999 0.18000001
5.941 4.5679998 -1.674 0.23
5.9260001 4.5869999 -1.674 0.19
5.9299998 4.619 -1.6799999 0.23
5.8959999 4.6220002 -1.674 0.19
5.8940001 4.651 -1.678 0.23999999
5.8850002 4.6739998 -1.6799999 0.19
5.869 4.6760001 -1.677 0.23
5.8600001 4.6989999 -1.679 0.2
5.8569999 4.7270002 -1.682 0.23
5.8260002 4.7319999 -1.677 0.18000001
5.823 4.7600002 -1.681 0.23
5.7989998 4.7709999 -1.678 0.19
5.7820001 4.7880001 -1.678 0.25
5.7820001 4.803 -1.6799999 0.19
5.776 4.829 -1.683 0.25
5.7480001 4.836 -1.679 0.23
5.737 4.8579998 -1.6799999 0.2
5.7290001 4.882 -1.682 0.25
5.7059999 4.8940001 -1.6799999 0.23
5.691 4.9120002 -1.6799999 0.18000001
5.6960001 4.9320002 -1.684 0.25999999
5.6750002 4.9450002 -1.682 0.23
5.6560001 4.96 -1.681 0.19
5.6550002 4.9899998 -1.686 0.25999999
5.6339998 5.0029998 -1.684 0.23
5.6110001 5.0139999 -1.682 0.19
5.605 5.0409999 -1.6849999 0.25999999
5.5900002 5.0430002 -1.683 0.23
5.573 5.059 -1.682 0.18000001
5.5780001 5.0970001 -1.689 0.25999999
5.5469999 5.0999999 -1.684 0.22
5.5349998 5.1209998 -1.686 0.2
5.5300002 5.1490002 -1.689 0.25
5.507 5.1599998 -1.687 0.23
5.4959998 5.1659999 -1.686 0.2
5.4899998 5.1919999 -1.689 0.25
5.4699998 5.2069998 -1.688 0.19
5.454 5.224 -1.688 0.25
5.4390001 5.2420001 -1.689 0.22
5.415 5.2529998 -1.687 0.050000001
5.3839998 5.2550001 -1.681 0
5.375 5.263 -1.681 0
5.349 5.2709999 -1.678 0
5.3390002 5.2940001 -1.6799999 0.059999999
5.3249998 5.3140001 -1.681 0.15000001
5.3200002 5.3410001 -1.6849999 0.17
5.3070002 5.362 -1.687 0.18000001
5.3000002 5.388 -1.6900001 0.23
5.2989998 5.4050002 -1.693 0.2
5.2800002 5.4190001 -1.692 0.23
5.2670002 5.4400001 -1.693 0.18000001
5.2519999 5.4590001 -1.694 0.23999999
5.2259998 5.4660001 -1.691 0.19
5.2210002 5.4949999 -1.6950001 0.23
5.1989999 5.507 -1.693 0.19
5.1999998 5.5250001 -1.697 0.23
5.1750002 5.533 -1.694 0.18000001
5.1609998 5.553 -1.6950001 0.23
5.1399999 5.5650001 -1.694 0.18000001
5.1360002 5.5960002 -1.699 0.23
5.1090002 5.6020002 -1.6950001 0.19
5.1020002 5.6290002 -1.699 0.23999999
5.0840001 5.6269999 -1.696 0.2
5.0749998 5.6529999 -1.699 0.23
5.0510001 5.6620002 -1.697 0.19
5.0419998 5.6880002 -1.7 0.23
5.0240002 5.704 -1.7 0.19
5.0110002 5.7249999 -1.702 0.23
4.9879999 5.7350001 -1.7 0.19
4.9860001 5.75 -1.702 0.23999999
4.9580002 5.756 -1.699 0.19
4.9530001 5.7859998 -1.704 0.23999999
4.921 5.7849998 -1.699 0.19
4.914 5.8140001 -1.7029999 0.23999999
4.8979998 5.8319998 -1.704 0.20999999
4.8769999 5.8449998 -1.7029999 0.22
4.8649998 5.848 -1.701 0.18000001
4.8590002 5.8779998 -1.706 0.23
4.835 5.8870001 -1.704 0.19
4.8200002 5.9070001 -1.706 0.23
4.7989998 5.9190001 -1.705 0.19
4.7810001 5.934 -1.705 0.23999999
4.7670002 5.9549999 -1.707 0.20999999
4.7600002 5.9660001 -1.707 0.12
4.7379999 5.9759998 -1.706 0.20999999
4.724 5.9970002 -1.7079999 0.11
4.6960001 6.0009999 -1.705 0.2
4.6880002 6.0300002 -1.709 0.11
4.6669998 6.0409999 -1.7079999 0.2
4.6589999 6.0700002 -1.712 0.11
4.6350002 6.0580001 -1.707 0.2
4.631 6.0929999 -1.7130001 0.11
4.6069999 6.1009998 -1.711 0.2
4.5900002 6.119 -1.712 0.11
4.5650001 6.1259999 -1.709 0.19
4.5560002 6.1539998 -1.714 0.11
4.5310001 6.1599998 -1.711 0.19
4.5219998 6.1680002 -1.711 0.11
4.5019999 6.1820002 -1.711 0.2
4.4850001 6.1989999 -1.712 0.11
4.4640002 6.211 -1.712 0.19
4.454 6.2379999 -1.715 0.11
4.4260001 6.2410002 -1.712 0.19
4.3779998 6.2140002 -1.7 0.050000001
4.3449998 6.1890001 -1.691 0
4.0029998 5.7420001 -1.556 0
3.8399999 5.5479999 -1.495 0.1
3.79 5.5489998 -1.489 0.31
3.7920001 5.5900002 -1.497 0.31999999
3.786 5.6199999 -1.502 0.66000003
3.7780001 5.625 -1.502 0.52999997
3.76 5.6370001 -1.502 0.38
3.7160001 5.6479998 -1.499 0.41
3.6860001 5.6420002 -1.493 0.69
3.681 5.6729999 -1.499 0.22
3.6589999 5.678 -1.497 0.54000002
3.6489999 5.6820002 -1.497 0.52999997
3.6070001 5.6560001 -1.4859999 0.16
3.5869999 5.664 -1.485 0.34
3.573 5.6799998 -1.4859999 0.47999999
3.553 5.6880002 -1.485 0.30000001
3.5139999 5.6659999 -1.476 0.20999999
3.497 5.6789999 -1.477 0.49000001
3.5120001 5.7220001 -1.487 0.36000001
3.4979999 5.7399998 -1.489 0.23999999
3.4349999 5.678 -1.469 0.33000001
3.418 5.6880002 -1.469 0
3.3699999 5.6490002 -1.455 0
3.3440001 5.6459999 -1.451 0
3.322 5.6500001 -1.449 0
3.322 5.6700001 -1.4529999 0
3.3299999 5.724 -1.465 0
3.8469999 6.652 -1.72 0.12
3.8469999 6.7010002 -1.73 0.2
3.826 6.7140002 -1.73 0.19
3.8110001 6.7360001 -1.733 0.22
3.7869999 6.7420001 -1.732 0.19
3.776 6.7480001 -1.732 0.23
3.76 6.7690001 -1.734 0.2
3.737 6.7789998 -1.734 0.22
3.7090001 6.777 -1.73 0.18000001
3.7030001 6.8179998 -1.738 0.23
3.671 6.8099999 -1.733 0.19
3.652 6.8249998 -1.734 0.23
3.6459999 6.8400002 -1.7359999 0.19
3.6210001 6.8439999 -1.734 0.23
3.5969999 6.8520002 -1.733 0.19
3.5869999 6.8860002 -1.739 0.23
3.5550001 6.8759999 -1.734 0.19
3.5420001 6.9050002 -1.738 0.23
3.5220001 6.9190001 -1.739 0.19
3.5079999 6.9180002 -1.737 0.23999999
3.48 6.9169998 -1.734 0.19
3.473 6.9569998 -1.742 0.23999999
3.441 6.947 -1.7359999 0.19
3.425 6.9699998 -1.74 0.23999999
3.402 6.9790001 -1.739 0.2
3.3859999 7 -1.742 0.25
3.3599999 7.0040002 -1.74 0.19
3.355 7.0209999 -1.743 0.23999999
3.326 7.0180001 -1.74 0.19
3.312 7.0440001 -1.744 0.23999999
3.2850001 7.0440001 -1.7410001 0.22
3.2620001 7.052 -1.7410001 0.2
3.243 7.0710001 -1.743 0.25
3.2360001 7.085 -1.745 0.22
3.2060001 7.0780001 -1.7410001 0.2
3.1930001 7.1069999 -1.7460001 0.25
3.1700001 7.1170001 -1.7460001 0.2
3.1500001 7.131 -1.747 0.25
3.122 7.1279998 -1.743 0.23
3.105 7.1500001 -1.747 0.18000001
3.0840001 7.164 -1.748 0.25999999
3.0680001 7.158 -1.745 0.20999999
3.052 7.1830001 -1.749 0.2
3.0280001 7.1890001 -1.748 0.25
3 7.1849999 -1.744 0.22
2.983 7.2080002 -1.748 0.2
2.96 7.2179999 -1.748 0.25
2.938 7.2270002 -1.748 0.22
2.928 7.2350001 -1.749 0.2
2.904 7.2420001 -1.749 0.25
2.885 7.2610002 -1.751 0.22
2.8640001 7.2729998 -1.752 0.2
2.8440001 7.2909999 -1.7539999 0.25
2.8169999 7.289 -1.751 0.19
2.8010001 7.3140001 -1.756 0.25
2.7850001 7.3080001 -1.753 0.19
2.767 7.329 -1.756 0.25
2.74 7.3270001 -1.753 0.19
2.7219999 7.3499999 -1.757 0.25
2.6919999 7.3400002 -1.752 0.19
2.6760001 7.3670001 -1.757 0.23999999
2.6489999 7.3649998 -1.7539999 0.23
2.638 7.3709998 -1.755 0.2
2.622 7.3990002 -1.76 0.25
2.5929999 7.3909998 -1.756 0.20999999
2.569 7.3969998 -1.755 0.2
2.5510001 7.421 -1.7589999 0.25
2.5250001 7.4219999 -1.757 0.23
2.4979999 7.4190001 -1.755 0.18000001
2.494 7.4429998 -1.76 0.25999999
2.4660001 7.4380002 -1.756 0.23
2.444 7.4489999 -1.757 0.2
2.428 7.4790001 -1.763 0.25
2.398 7.4679999 -1.758 0.22
2.3759999 7.48 -1.7589999 0.2
2.358 7.5050001 -1.7640001 0.25
2.3410001 7.4920001 -1.76 0.23
2.3199999 7.5089998 -1.762 0.20999999
2.3039999 7.539 -1.768 0.25
2.2739999 7.527 -1.763 0.23
2.2509999 7.5339999 -1.763 0.18000001
2.2360001 7.573 -1.771 0.25999999
2.2079999 7.5650001 -1.767 0.23
2.1949999 7.5650001 -1.766 0.2
2.181 7.6030002 -1.774 0.27000001
2.151 7.5900002 -1.7690001 0.23
2.125 7.5890002 -1.767 0.19
2.1099999 7.6269999 -1.775 0.28
2.0799999 7.612 -1.77 0.23
2.0580001 7.6259999 -1.771 0.23
2.043 7.619 -1.7690001 0.17
2.027 7.6539998 -1.776 0.28999999
2 7.6490002 -1.773 0.25
1.977 7.6589999 -1.774 0.27000001
1.955 7.6729999 -1.776 0.27000001
1.933 7.6859999 -1.778 0.27000001
1.9119999 7.7059999 -1.781 0.27000001
1.901 7.7140002 -1.783 0.28999999
1.878 7.7259998 -1.784 0.30000001
1.852 7.724 -1.7819999 0.28999999
1.83 7.7389998 -1.784 0.31999999
1.806 7.7470002 -1.785 0.30000001
1.785 7.7659998 -1.788 0.34
1.7539999 7.743 -1.781 0.27000001
1.747 7.7670002 -1.786 0.36000001
1.726 7.7870002 -1.79 0.34999999
1.697 7.7740002 -1.785 0.30000001
1.673 7.7789998 -1.785 0.33000001
1.648 7.7859998 -1.786 0.33000001
1.626 7.8010001 -1.788 0.34999999
1.601 7.8039999 -1.788 0.33000001
1.591 7.816 -1.79 0.34999999
1.566 7.8189998 -1.79 0.36000001
1.539 7.8119998 -1.7869999 0.33000001
1.5140001 7.8169999 -1.7869999 0.34
1.4910001 7.8260002 -1.788 0.34
1.465 7.8270001 -1.7869999 0.34
1.441 7.835 -1.788 0.36000001
1.429 7.8390002 -1.788 0.34999999
1.406 7.849 -1.79 0.37
1.382 7.8569999 -1.791 0.34
1.357 7.8579998 -1.79 0.36000001
1.334 7.8740001 -1.7920001 0.36000001
1.3099999 7.882 -1.793 0.34
1.285 7.888 -1.794 0.38999999
1.273 7.888 -1.793 0.34999999
1.249 7.8969998 -1.795 0.28999999
1.227 7.921 -1.799 0.44
1.197 7.8940001 -1.7920001 0.25999999
1.175 7.9109998 -1.795 0.36000001
1.152 7.9299998 -1.799 0.38
1.123 7.9060001 -1.7920001 0.34999999
1.102 7.9330001 -1.798 0.41999999
1.089 7.9310002 -1.7970001 0.31
1.064 7.9400001 -1.798 0.38
1.04 7.9450002 -1.799 0.30000001
1.015 7.9520001 -1.8 0.37
0.98900002 7.9419999 -1.7970001 0.30000001
0.96499997 7.9530001 -1.798 0.34999999
0.93900001 7.954 -1.798 0.30000001
0.92799997 7.967 -1.801 0.34999999
0.903 7.9660001 -1.8 0.34
0.87699997 7.9629998 -1.798 0.31999999
0.85299999 7.9749999 -1.801 0.28999999
0.82800001 7.974 -1.8 0.34
0.80299997 7.9809999 -1.801 0.33000001
0.778 7.9850001 -1.801 0.31999999
0.76499999 7.9770002 -1.799 0.30000001
0.74000001 7.987 -1.801 0.31
0.71399999 7.9790001 -1.798 0.28999999
0.68900001 7.9759998 -1.7970001 0.25999999
0.662 7.96 -1.793 0.18000001
0.639 7.9889998 -1.799 0.30000001
0.625 7.973 -1.795 0.22
0.60100001 7.9770002 -1.796 0.23
0.57499999 7.973 -1.794 0.2
0.551 7.9819999 -1.796 0.23999999
0.52499998 7.9710002 -1.793 0.19
0.50099999 7.9879999 -1.7970001 0.23999999
0.47400001 7.9699998 -1.7920001 0.2
0.45100001 7.9980001 -1.798 0.23
0.43799999 7.9889998 -1.796 0.19
0.41299999 8 -1.798 0.23999999
0.38800001 7.994 -1.7970001 0.19
0.36300001 8.0089998 -1.8 0.23999999
0.338 8.0019999 -1.798 0.20999999
0.31299999 8.0089998 -1.799 0.12
0.287 7.9980001 -1.7970001 0.20999999
0.27399999 7.9949999 -1.796 0.2
0.25 8.0170002 -1.801 0.25
0.22400001 8.0039997 -1.7970001 0.19
0.2 8.0220003 -1.802 0.25
0.17399999 7.9959998 -1.795 0.19
0.149 8.0190001 -1.801 0.23999999
0.124 8.0100002 -1.798 0.19
0.112 8.0279999 -1.803 0.23
0.086000003 8.0030003 -1.7970001 0.19
0.061000001 8.026 -1.802 0.23
0.035999998 8.0229998 -1.801 0.2
0.011 8.0249996 -1.802 0.23999999
-0.015 8.0229998 -1.801 0.20999999
-0.039999999 8.0249996 -1.802 0.12
-0.052000001 8.0050001 -1.7970001 0.20999999
-0.078000002 8.0299997 -1.803 0.2
-0.103 8.0299997 -1.803 0.23
-0.12800001 8.0139999 -1.799 0.19
-0.154 8.0430002 -1.806 0.23
-0.178 8.0089998 -1.798 0.19
-0.204 8.0340004 -1.804 0.23
-0.21699999 8.0369997 -1.8049999 0.19
-0.242 8.0290003 -1.804 0.23
-0.26699999 8.0179996 -1.801 0.2
-0.29300001 8.0489998 -1.809 0.23999999
-0.317 8.0170002 -1.801 0.19
-0.34299999 8.0369997 -1.806 0.23999999
-0.368 8.0299997 -1.8049999 0.20999999
-0.38 8.0179996 -1.802 0.2
-0.40599999 8.0360003 -1.807 0.23
-0.43099999 8.0310001 -1.806 0.19
-0.456 8.0290003 -1.806 0.25
-0.48100001 8.0100002 -1.802 0.19
-0.509 8.0570002 -1.813 0.23999999
-0.53299999 8.04 -1.8099999 0.19
-0.54500002 8.0340004 -1.808 0.23
-0.57099998 8.0340004 -1.809 0.18000001
-0.59600002 8.0360003 -1.8099999 0.23999999
-0.62 8.0139999 -1.8049999 0.19
-0.648 8.0530005 -1.8150001 0.23999999
-0.671 8.0159998 -1.806 0.19
-0.69700003 8.0240002 -1.809 0.23999999
-0.70999998 8.0319996 -1.811 0.19
-0.73500001 8.0279999 -1.811 0.23
-0.759 8.0139999 -1.808 0.18000001
-0.78799999 8.0430002 -1.8150001 0.23999999
-0.81099999 8.0229998 -1.811 0.19
-0.83700001 8.0279999 -1.813 0.23
-0.86299998 8.0290003 -1.814 0.19
-0.889 8.0380001 -1.817 0.23
-0.89899999 8.0150003 -1.811 0.18000001
-0.926 8.0279999 -1.8150001 0.23
-0.95099998 8.0229998 -1.8150001 0.2
-0.977 8.0220003 -1.8150001 0.23
-1.003 8.0299997 -1.818 0.2
-1.028 8.0229998 -1.817 0.23
-1.052 8.0100002 -1.8150001 0.19
-1.068 8.0360003 -1.821 0.22
-1.09 8.0050001 -1.8150001 0.19
-1.1160001 8.0100002 -1.817 0.23
-1.14 8 -1.8150001 0.19
-1.1670001 8.0080004 -1.818 0.22
-1.1900001 7.9889998 -1.814 0.19
-1.219 8.0080004 -1.8200001 0.11
-1.228 7.987 -1.8150001 0.19
-1.255 7.993 -1.818 0.11
-1.279 7.9809999 -1.816 0.2
-1.3049999 7.987 -1.818 0.11
-1.326 7.9559999 -1.811 0.2
-1.357 7.9879999 -1.8200001 0.11
-1.378 7.961 -1.8150001 0.2
-1.395 7.9850001 -1.821 0.11
-1.419 7.9710002 -1.819 0.19
-1.4450001 7.973 -1.8200001 0.11
-1.467 7.9530001 -1.817 0.2
-1.495 7.9650002 -1.821 0.11
-1.517 7.9450002 -1.817 0.19
-1.546 7.9619999 -1.822 0.11
-1.5549999 7.9380002 -1.817 0.2
-1.582 7.947 -1.8200001 0.11
-1.6059999 7.9359999 -1.819 0.2
-1.637 7.9590001 -1.826 0.11
-1.658 7.9349999 -1.821 0.19
-1.684 7.934 -1.822 0.11
-1.705 7.9130001 -1.818 0.18000001
-1.721 7.9239998 -1.822 0.1
-1.7460001 7.9180002 -1.822 0.18000001
-1.775 7.9320002 -1.826 0.20999999
-1.7970001 7.9130001 -1.823 0.1
-1.818 7.8899999 -1.819 0.19
-1.848 7.9070001 -1.825 0.11
-1.867 7.8790002 -1.819 0.19
-1.8839999 7.8940001 -1.824 0.11
-1.905 7.8730001 -1.8200001 0.19
-1.933 7.881 -1.823 0.11
-1.955 7.8629999 -1.8200001 0.19
-1.9859999 7.8829999 -1.827 0.11
-2.0079999 7.8639998 -1.824 0.2
-2.0350001 7.869 -1.826 0.1
-2.046 7.8579998 -1.825 0.19
-2.073 7.8629999 -1.827 0.11
-2.096 7.849 -1.825 0.19
-2.1240001 7.8540001 -1.8279999 0.1
-2.145 7.8340001 -1.825 0.19
-2.175 7.8460002 -1.83 0.11
-2.1930001 7.8179998 -1.825 0.2
-2.223 7.8299999 -1.829 0.11
-2.233 7.8189998 -1.827 0.19
-2.2590001 7.816 -1.8279999 0.1
-2.283 7.8070002 -1.8279999 0.18000001
-2.309 7.803 -1.829 0.11
-2.3299999 7.7870002 -1.826 0.19
-2.355 7.7810001 -1.827 0.1
-2.3759999 7.7620001 -1.824 0.19
-2.395 7.7810001 -1.83 0.11
-2.415 7.7589998 -1.826 0.19
-2.4460001 7.7709999 -1.831 0.11
-2.464 7.743 -1.826 0.19
-2.4909999 7.7449999 -1.8279999 0.1
-2.5150001 7.7350001 -1.8279999 0.2
-2.5439999 7.7420001 -1.832 0.11
-2.549 7.7160001 -1.826 0.19
-2.579 7.724 -1.83 0.11
-2.596 7.6960001 -1.825 0.2
-2.628 7.7119999 -1.831 0.11
-2.648 7.6900001 -1.8279999 0.19
-2.677 7.6950002 -1.831 0.11
-2.6949999 7.6680002 -1.826 0.18000001
-2.7119999 7.6799998 -1.831 0.20999999
