# .PCD v0.7 - Point Cloud Data file format
VERSION 0.7
FIELDS x y z intensity
SIZE 4 4 4 4
TYPE F F F F
COUNT 1 1 1 1
WIDTH 1417
HEIGHT 1
VIEWPOINT 0 0 0 1 0 0 0
POINTS 1417
DATA ascii
1.363 4.7670002 -1.8789999 0.34
1.347 4.7659998 -1.877 0.36000001
1.332 4.77 -1.877 0.36000001
1.318 4.7779999 -1.878 0.36000001
1.3 4.7709999 -1.874 0.36000001
1.291 4.77 -1.872 0.36000001
1.2819999 4.7950001 -1.881 0.36000001
1.263 4.7849998 -1.875 0.34999999
1.249 4.7909999 -1.876 0.34999999
1.237 4.809 -1.882 0.38999999
1.219 4.8000002 -1.877 0.38
1.204 4.802 -1.876 0.34
1.189 4.8099999 -1.878 0.36000001
1.181 4.8080001 -1.876 0.41
1.166 4.8140001 -1.877 0.34999999
1.152 4.823 -1.8789999 0.38
1.138 4.8280001 -1.88 0.38
1.1210001 4.8260002 -1.878 0.38
1.109 4.8400002 -1.882 0.33000001
1.092 4.8369999 -1.8789999 0.41999999
1.085 4.8400002 -1.88 0.33000001
1.069 4.8439999 -1.88 0.37
1.054 4.8470001 -1.88 0.36000001
1.04 4.8559999 -1.882 0.34999999
1.025 4.8610001 -1.883 0.34
1.01 4.862 -1.882 0.34999999
0.99599999 4.8720002 -1.885 0.34999999
0.98799998 4.8740001 -1.885 0.38
0.97100002 4.868 -1.881 0.34999999
0.95599997 4.8730001 -1.882 0.34
0.94099998 4.8779998 -1.883 0.36000001
0.926 4.881 -1.883 0.36000001
0.91000003 4.8829999 -1.883 0.34
0.89499998 4.888 -1.8839999 0.31999999
0.88700002 4.888 -1.883 0.38999999
0.87300003 4.8940001 -1.8839999 0.30000001
0.85799998 4.902 -1.887 0.41
0.84299999 4.9070001 -1.887 0.34999999
0.82700002 4.908 -1.887 0.40000001
0.81199998 4.908 -1.886 0.31
0.79699999 4.9159999 -1.888 0.40000001
0.79000002 4.9190001 -1.8890001 0.38
0.77499998 4.927 -1.891 0.40000001
0.75800002 4.9190001 -1.887 0.31999999
0.74299997 4.9229999 -1.887 0.38
0.72799999 4.927 -1.888 0.40000001
0.71100003 4.9180002 -1.8839999 0.33000001
0.69599998 4.928 -1.887 0.34
0.68900001 4.9349999 -1.8890001 0.34
0.67400002 4.9419999 -1.891 0.38
0.65799999 4.9369998 -1.888 0.31999999
0.64300001 4.941 -1.8890001 0.34
0.62699997 4.9390001 -1.887 0.36000001
0.611 4.9429998 -1.888 0.34
0.59600002 4.947 -1.8890001 0.37
0.58099997 4.9499998 -1.89 0.37
0.57300001 4.9549999 -1.891 0.38
0.55800003 4.96 -1.893 0.36000001
0.542 4.9569998 -1.89 0.34
0.52700001 4.96 -1.891 0.38
0.51099998 4.9640002 -1.892 0.34
0.495 4.9580002 -1.8890001 0.38999999
0.47999999 4.9650002 -1.891 0.38
0.472 4.967 -1.892 0.31
0.45699999 4.974 -1.8940001 0.34999999
0.44100001 4.9720001 -1.893 0.34
0.426 4.9770002 -1.8940001 0.34
0.40900001 4.9640002 -1.888 0.34
0.39399999 4.974 -1.892 0.34
0.37900001 4.9829998 -1.895 0.30000001
0.37099999 4.9759998 -1.892 0.41
0.35600001 4.9860001 -1.896 0.38
0.34099999 4.9949999 -1.899 0.38999999
0.324 4.987 -1.895 0.38
0.30899999 4.9970002 -1.899 0.38999999
0.29300001 4.9920001 -1.896 0.31999999
0.27700001 4.9910002 -1.896 0.36000001
0.27000001 4.9959998 -1.897 0.34
0.25400001 4.9949999 -1.896 0.36000001
0.23800001 4.9970002 -1.897 0.34999999
0.223 4.994 -1.896 0.36000001
0.208 5.0100002 -1.902 0.36000001
0.192 5.007 -1.9 0.34999999
0.176 5.0029998 -1.899 0.36000001
0.168 5.0089998 -1.901 0.34
0.152 5.0079999 -1.9 0.31
0.13699999 5.0120001 -1.902 0.36000001
0.121 5.0110002 -1.901 0.38
0.105 5.0040002 -1.898 0.34999999
0.090000004 5.0149999 -1.902 0.38999999
0.074000001 5.0170002 -1.903 0.37
0.066 5.0079999 -1.899 0.36000001
0.050000001 5.0209999 -1.905 0.38
0.034000002 5.0229998 -1.905 0.37
0.018999999 5.0159998 -1.902 0.30000001
0.003 5.02 -1.904 0.38999999
-0.013 5.02 -1.904 0.34
-0.028999999 5.0139999 -1.902 0.41
-0.044 5.0180001 -1.903 0.34999999
-0.052000001 5.027 -1.9069999 0.43000001
-0.068000004 5.0229998 -1.905 0.38
-0.083999999 5.0240002 -1.906 0.33000001
-0.1 5.0300002 -1.908 0.37
-0.116 5.0279999 -1.908 0.38999999
-0.131 5.033 -1.91 0.36000001
-0.147 5.0320001 -1.91 0.34
-0.155 5.0229998 -1.906 0.38999999
-0.171 5.026 -1.908 0.34999999
-0.18700001 5.0310001 -1.91 0.38999999
-0.20299999 5.0279999 -1.909 0.31999999
-0.219 5.033 -1.911 0.38999999
-0.234 5.0359998 -1.913 0.31
-0.25 5.0359998 -1.913 0.43000001
-0.25799999 5.0409999 -1.915 0.34
-0.27399999 5.0440001 -1.9170001 0.40000001
-0.28999999 5.0409999 -1.916 0.33000001
-0.30599999 5.0339999 -1.914 0.41
-0.322 5.0450001 -1.918 0.36000001
-0.338 5.0440001 -1.918 0.38
-0.354 5.0440001 -1.919 0.38
-0.36199999 5.0510001 -1.9220001 0.33000001
-0.37799999 5.052 -1.923 0.38
-0.39399999 5.0489998 -1.9220001 0.36000001
-0.41 5.0489998 -1.923 0.38
-0.426 5.0500002 -1.923 0.37
-0.442 5.0469999 -1.923 0.34
-0.458 5.0489998 -1.924 0.36000001
-0.46599999 5.046 -1.923 0.33000001
-0.48300001 5.0539999 -1.927 0.38999999
-0.49900001 5.0539999 -1.928 0.36000001
-0.51499999 5.0570002 -1.929 0.34
-0.53100002 5.0549998 -1.929 0.36000001
-0.54699999 5.0570002 -1.931 0.43000001
-0.56199998 5.0479999 -1.928 0.36000001
-0.579 5.0510001 -1.9299999 0.34999999
-0.58700001 5.0539999 -1.931 0.34999999
-0.602 5.0469999 -1.929 0.38999999
-0.61799997 5.0489998 -1.931 0.34
-0.63599998 5.0580001 -1.9349999 0.36000001
-0.65200001 5.0580001 -1.936 0.36000001
-0.667 5.0479999 -1.933 0.41999999
-0.68400002 5.059 -1.938 0.34999999
-0.69099998 5.0500002 -1.9349999 0.31999999
-0.70700002 5.046 -1.934 0.41
-0.72500002 5.0609999 -1.941 0.38
-0.73799998 5.0380001 -1.933 0.30000001
-0.755 5.0430002 -1.936 0.44999999
-0.77100003 5.0440001 -1.937 0.33000001
-0.78600001 5.0349998 -1.934 0.36000001
-0.79400003 5.0370002 -1.936 0.30000001
-0.81300002 5.0489998 -1.942 0.38999999
-0.82599998 5.0339999 -1.937 0.38
-0.84299999 5.0349998 -1.938 0.34
-0.86000001 5.04 -1.941 0.38999999
-0.87400001 5.0279999 -1.937 0.33000001
-0.88999999 5.0289998 -1.939 0.40000001
-0.89999998 5.0359998 -1.943 0.36000001
-0.912 5.0100002 -1.933 0.34
-0.92900002 5.0159998 -1.937 0.41
-0.94700003 5.026 -1.942 0.38
-0.96100003 5.0149999 -1.939 0.37
-0.977 5.0110002 -1.938 0.33000001
-0.99400002 5.0149999 -1.941 0.34999999
-1 5.0019999 -1.937 0.34999999
-1.0140001 4.994 -1.934 0.36000001
-1.0319999 5.0009999 -1.939 0.40000001
-1.045 4.9840002 -1.933 0.31999999
-1.0599999 4.9780002 -1.932 0.36000001
-1.0779999 4.9840002 -1.936 0.38
-1.091 4.9699998 -1.931 0.33000001
-1.099 4.9699998 -1.932 0.40000001
-1.118 4.9790001 -1.937 0.28
-1.131 4.9629998 -1.932 0.38999999
-1.146 4.9580002 -1.931 0.38
-1.163 4.961 -1.934 0.33000001
-1.176 4.9450002 -1.929 0.38999999
-1.194 4.9520001 -1.934 0.37
-1.211 4.954 -1.936 0.37
-1.217 4.9460001 -1.934 0.38
-1.233 4.9439998 -1.934 0.33000001
-1.249 4.9439998 -1.936 0.38
-1.262 4.927 -1.931 0.38999999
-1.275 4.914 -1.927 0.36000001
-1.296 4.9320002 -1.936 0.38
-1.307 4.9120002 -1.929 0.38
-1.319 4.9239998 -1.9349999 0.38
-1.336 4.9250002 -1.937 0.34
-1.347 4.9050002 -1.931 0.36000001
-1.363 4.9039998 -1.932 0.34
-1.381 4.9089999 -1.936 0.34
-1.3940001 4.8959999 -1.932 0.36000001
-1.411 4.8979998 -1.9349999 0.37
-1.419 4.8979998 -1.936 0.36000001
-1.4349999 4.895 -1.937 0.37
-1.45 4.8870001 -1.9349999 0.34
-1.47 4.9000001 -1.943 0.31999999
-1.48 4.8779998 -1.9349999 0.38999999
-1.498 4.8800001 -1.938 0.34
-1.517 4.888 -1.943 0.38999999
-1.52 4.8709998 -1.937 0.36000001
-1.534 4.8610001 -1.9349999 0.37
-1.552 4.8649998 -1.939 0.34999999
-1.566 4.8569999 -1.937 0.40000001
-1.582 4.8540001 -1.938 0.25999999
-1.602 4.8629999 -1.944 0.52999997
-1.612 4.842 -1.937 0.37
-1.625 4.855 -1.944 0.36000001
-1.641 4.8540001 -1.946 0.38
-1.652 4.8340001 -1.9400001 0.34
-1.669 4.836 -1.943 0.36000001
-1.689 4.8429999 -1.948 0.41999999
-1.699 4.8239999 -1.942 0.37
-1.715 4.8200002 -1.943 0.37
-1.735 4.829 -1.949 0.36000001
-1.738 4.8140001 -1.943 0.34
-1.758 4.822 -1.949 0.34
-1.775 4.822 -1.952 0.36000001
-1.79 4.8150001 -1.951 0.36000001
-1.809 4.8189998 -1.955 0.38999999
-1.822 4.8080001 -1.9529999 0.31
-1.835 4.7979999 -1.951 0.34
-1.844 4.8000002 -1.9529999 0.34999999
-1.865 4.8099999 -1.96 0.36000001
-1.875 4.79 -1.954 0.36000001
-1.893 4.7909999 -1.957 0.37
-1.914 4.8000002 -1.964 0.36000001
-1.923 4.7789998 -1.957 0.30000001
-1.937 4.7709999 -1.956 0.40000001
-1.95 4.7800002 -1.961 0.37
-1.96 4.7639999 -1.957 0.34999999
-1.977 4.7610002 -1.9579999 0.34
-2 4.7740002 -1.967 0.36000001
-2.01 4.7550001 -1.961 0.34999999
-2.03 4.7610002 -1.967 0.34999999
-2.0469999 4.7600002 -1.969 0.34
-2.052 4.7509999 -1.967 0.36000001
-2.0699999 4.7519999 -1.97 0.34999999
-2.089 4.7550001 -1.974 0.36000001
-2.102 4.744 -1.972 0.36000001
-2.119 4.7420001 -1.974 0.34999999
-2.1389999 4.7470002 -1.979 0.34
-2.151 4.7340002 -1.976 0.36000001
-2.168 4.7319999 -1.979 0.34999999
-2.1830001 4.7459998 -1.9859999 0.38
-2.198 4.7389998 -1.9859999 0.37
-2.2090001 4.723 -1.982 0.37
-2.2290001 4.7280002 -1.988 0.34999999
-2.243 4.7179999 -1.9859999 0.37
-2.2550001 4.7059999 -1.984 0.37
-2.2780001 4.7150002 -1.9910001 0.33000001
-2.283 4.7069998 -1.989 0.40000001
-2.2980001 4.7010002 -1.99 0.41999999
-2.312 4.6919999 -1.989 0.33000001
-2.3269999 4.6849999 -1.989 0.34999999
-2.348 4.6890001 -1.994 0.34
-2.362 4.6820002 -1.994 0.37
-2.3740001 4.6680002 -1.9910001 0.34999999
-2.3829999 4.6669998 -1.993 0.36000001
-2.402 4.6700001 -1.997 0.37
-2.4170001 4.6620002 -1.997 0.38999999
-2.431 4.6529999 -1.9960001 0.33000001
-2.451 4.6570001 -2.0020001 0.37
-2.4630001 4.6440001 -1.999 0.37
-2.4790001 4.638 -2 0.36000001
-2.4849999 4.632 -1.999 0.36000001
-2.5020001 4.6300001 -2.0020001 0.34
-2.52 4.6269999 -2.0039999 0.34999999
-2.5380001 4.625 -2.007 0.40000001
-2.5510001 4.6160002 -2.006 0.33000001
-2.5639999 4.6040001 -2.0050001 0.34
-2.586 4.6090002 -2.0109999 0.36000001
-2.5999999 4.6009998 -2.0109999 0.34999999
-2.608 4.599 -2.0109999 0.38999999
-2.625 4.5939999 -2.013 0.31999999
-2.638 4.5840001 -2.0120001 0.34999999
-2.654 4.579 -2.0139999 0.34
-2.671 4.5749998 -2.016 0.34
-2.6849999 4.5650001 -2.0150001 0.34
-2.6989999 4.5570002 -2.0150001 0.46000001
-2.7060001 4.552 -2.0150001 0.34999999
-2.7260001 4.553 -2.02 0.40000001
-2.733 4.5320001 -2.0139999 0.28999999
-2.7509999 4.5300002 -2.017 0.40000001
-2.766 4.5229998 -2.017 0.33000001
-2.7809999 4.5159998 -2.0179999 0.37
-2.7980001 4.5120001 -2.02 0.37
-2.806 4.507 -2.02 0.38999999
-2.8210001 4.5 -2.0209999 0.36000001
-2.8369999 4.494 -2.023 0.38999999
-2.848 4.48 -2.02 0.33000001
-2.8629999 4.473 -2.0209999 0.38
-2.8770001 4.4640002 -2.0209999 0.36000001
-2.888 4.4499998 -2.0190001 0.34999999
-2.8959999 4.447 -2.02 0.36000001
-2.911 4.4400001 -2.02 0.34
-2.9230001 4.428 -2.0190001 0.34
-2.937 4.4180002 -2.0190001 0.36000001
-2.9489999 4.4060001 -2.017 0.34999999
-2.9630001 4.3979998 -2.0179999 0.34999999
-2.9809999 4.395 -2.0209999 0.36000001
-2.9979999 4.3899999 -2.023 0.36000001
-3.013 4.3979998 -2.029 0.36000001
-3.0510001 4.4239998 -2.0469999 0.28
-3.0610001 4.408 -2.0439999 0
-3.069 4.3889999 -2.039 0
-3.0840001 4.382 -2.0409999 0
-3.599 3.839 -2.0020001 0
-3.609 3.825 -2 0
-3.622 3.8150001 -2.0009999 0.039999999
-3.6289999 3.7980001 -1.998 0.16
-3.655 3.802 -2.006 0.20999999
-3.6429999 3.777 -1.9960001 0.28
-3.668 3.779 -2.003 0.31
-3.665 3.753 -1.995 0.25
-3.668 3.7320001 -1.99 0.27000001
-3.6889999 3.73 -1.995 0.34999999
-3.698 3.7160001 -1.993 0.31999999
-3.698 3.6919999 -1.987 0.28
-3.7060001 3.6889999 -1.988 0.34
-3.727 3.6860001 -1.993 0.34999999
-3.7320001 3.668 -1.99 0.28
-3.7379999 3.651 -1.987 0.34
-3.7590001 3.6489999 -1.992 0.38
-3.7679999 3.6340001 -1.99 0.31999999
-3.7780001 3.6210001 -1.99 0.28999999
-3.7780001 3.6099999 -1.987 0.34999999
-3.79 3.598 -1.987 0.34999999
-3.7909999 3.5769999 -1.982 0.25
-3.8069999 3.569 -1.984 0.38999999
-3.8210001 3.5599999 -1.985 0.34
-3.826 3.5420001 -1.982 0.28
-3.846 3.5380001 -1.987 0.34999999
-3.842 3.523 -1.982 0.30000001
-3.8510001 3.51 -1.9809999 0.28999999
-3.8640001 3.4990001 -1.982 0.34999999
-3.868 3.4809999 -1.978 0.27000001
-3.8729999 3.4630001 -1.975 0.36000001
-3.885 3.4519999 -1.976 0.34
-3.892 3.437 -1.973 0.31999999
-3.9100001 3.4300001 -1.977 0.34
-3.9119999 3.4219999 -1.976 0.30000001
-3.918 3.405 -1.973 0.37
-3.928 3.392 -1.973 0.31999999
-3.9460001 3.3859999 -1.976 0.34
-3.947 3.365 -1.971 0.31
-3.9489999 3.345 -1.967 0.30000001
-3.9519999 3.3269999 -1.9630001 0.31
-3.97 3.332 -1.97 0.38
-3.9809999 3.319 -1.97 0.31
-3.99 3.3050001 -1.969 0.31999999
-3.9990001 3.2920001 -1.9680001 0.31999999
-3.997 3.27 -1.962 0.28999999
-4.0120001 3.2609999 -1.964 0.30000001
-4.0219998 3.2479999 -1.964 0.33000001
-4.0219998 3.237 -1.961 0.28999999
-4.0289998 3.2219999 -1.96 0.31999999
-4.0370002 3.2079999 -1.959 0.31
-4.04 3.1900001 -1.955 0.30000001
-4.0500002 3.177 -1.955 0.30000001
-4.059 3.1630001 -1.955 0.31
-4.0799999 3.1589999 -1.961 0.34999999
-4.072 3.1429999 -1.954 0.30000001
-4.079 3.128 -1.952 0.34999999
-4.0900002 3.1159999 -1.9529999 0.30000001
-4.0960002 3.0999999 -1.951 0.31
-4.1040001 3.086 -1.95 0.31
-4.1090002 3.069 -1.948 0.28999999
-4.1220002 3.059 -1.949 0.34999999
-4.125 3.0510001 -1.949 0.31999999
-4.132 3.036 -1.947 0.30000001
-4.1469998 3.027 -1.95 0.33000001
-4.1459999 3.007 -1.9450001 0.28999999
-4.1560001 2.994 -1.9450001 0.37
-4.1560001 2.974 -1.9400001 0.28
-4.171 2.9649999 -1.943 0.34
-4.1700001 2.954 -1.9400001 0.34999999
-4.1789999 2.941 -1.9400001 0.31999999
-4.1869998 2.927 -1.9400001 0.36000001
-4.198 2.915 -1.9400001 0.31999999
-4.2020001 2.8989999 -1.938 0.33000001
-4.2020001 2.8789999 -1.934 0.33000001
-4.2069998 2.8629999 -1.931 0.30000001
-4.2160001 2.859 -1.934 0.36000001
-4.2249999 2.846 -1.934 0.31
-4.2259998 2.8280001 -1.9299999 0.33000001
-4.2410002 2.8180001 -1.933 0.31999999
-4.2340002 2.7950001 -1.925 0.38999999
-4.2459998 2.783 -1.927 0.30000001
-4.2610002 2.7739999 -1.9299999 0.37
-4.2480001 2.756 -1.9220001 0.30000001
-4.2550001 2.7420001 -1.921 0.34999999
-4.2620001 2.7279999 -1.92 0.27000001
-4.2729998 2.7149999 -1.921 0.40000001
-4.2779999 2.7 -1.92 0.33000001
-4.283 2.684 -1.918 0.28999999
-4.2919998 2.671 -1.918 0.34999999
-4.2940001 2.6630001 -1.9170001 0.31
-4.3010001 2.6489999 -1.9170001 0.34
-4.3049998 2.632 -1.914 0.28
-4.3130002 2.619 -1.914 0.31999999
-4.3260002 2.608 -1.9170001 0.25
-4.3169999 2.5840001 -1.908 0.23
-4.3330002 2.575 -1.9119999 0.25999999
-4.342 2.562 -1.913 0.33000001
-4.3530002 2.559 -1.916 0.31
-4.3379998 2.5320001 -1.905 0.25
-4.3559999 2.5239999 -1.91 0.38
-4.3569999 2.507 -1.9069999 0.31999999
-4.3569999 2.4890001 -1.903 0.25999999
-4.3730001 2.4790001 -1.9069999 0.34
-4.3660002 2.457 -1.9 0.28999999
-4.3670001 2.4489999 -1.899 0.31
-4.3909998 2.444 -1.906 0.34999999
-4.381 2.4200001 -1.898 0.25999999
-4.4039998 2.4159999 -1.905 0.36000001
-4.402 2.3959999 -1.901 0.31
-4.4029999 2.3789999 -1.898 0.27000001
-4.414 2.3670001 -1.899 0.33000001
-4.4180002 2.3599999 -1.899 0.31999999
-4.415 2.3410001 -1.895 0.27000001
-4.4239998 2.3280001 -1.896 0.34999999
-4.4299998 2.313 -1.895 0.31999999
-4.4419999 2.302 -1.897 0.31999999
-4.4559999 2.2909999 -1.9 0.34999999
-4.461 2.276 -1.899 0.30000001
-4.447 2.26 -1.891 0.23
-4.4689999 2.2539999 -1.898 0.25999999
-4.4720001 2.2379999 -1.896 0
-4.4759998 2.2219999 -1.895 0
-4.4530001 2.1930001 -1.881 0
-4.4850001 2.191 -1.893 0
-4.3179998 -1.9400001 -1.789 0
-4.3189998 -1.957 -1.7920001 0.02
-4.3140001 -1.971 -1.793 0.07
-4.3130002 -1.979 -1.793 0.20999999
-4.3169999 -1.997 -1.798 0.23
-4.3140001 -2.0120001 -1.799 0.31999999
-4.2940001 -2.0190001 -1.793 0.27000001
-4.2989998 -2.0380001 -1.798 0.33000001
-4.2859998 -2.0480001 -1.795 0.36000001
-4.276 -2.0599999 -1.794 0.33000001
-4.2800002 -2.0699999 -1.7970001 0.31
-4.2680001 -2.0810001 -1.795 0.36000001
-4.2519999 -2.0899999 -1.79 0.43000001
-4.2449999 -2.1029999 -1.79 0.38
-4.224 -2.109 -1.784 0.31999999
-4.2119999 -2.1199999 -1.781 0.37
-4.204 -2.132 -1.781 0.33000001
-4.1950002 -2.1359999 -1.778 0.41999999
-4.1919999 -2.151 -1.78 0.36000001
-4.1869998 -2.165 -1.781 0.37
-4.1750002 -2.1760001 -1.778 0.34
-4.1700001 -2.1900001 -1.779 0.34
-4.164 -2.204 -1.78 0.36000001
-4.1539998 -2.2149999 -1.778 0.34
-4.1469998 -2.22 -1.777 0.34999999
-4.1440001 -2.2349999 -1.778 0.36000001
-4.138 -2.2479999 -1.779 0.38
-4.1300001 -2.2609999 -1.778 0.38
-4.131 -2.2780001 -1.7819999 0.37
-4.1220002 -2.29 -1.781 0.33000001
-4.1069999 -2.299 -1.778 0.34999999
-4.1030002 -2.3050001 -1.778 0.44
-4.1090002 -2.325 -1.784 0.23999999
-4.0960002 -2.335 -1.781 0.46000001
-4.0840001 -2.345 -1.779 0.34999999
-4.0560002 -2.346 -1.7690001 0.41999999
-4.0320001 -2.3499999 -1.762 0.38999999
-4.0380001 -2.3699999 -1.768 0.37
-4 -2.3570001 -1.752 0.41
-4.007 -2.378 -1.7589999 0.30000001
-4 -2.3900001 -1.7589999 0.52999997
-3.9649999 -2.3870001 -1.7460001 0.25
-3.9389999 -2.388 -1.737 0.54000002
-3.9760001 -2.427 -1.758 0.28
-3.9389999 -2.4219999 -1.745 0.44
-3.961 -2.444 -1.757 0.38999999
-3.9749999 -2.47 -1.767 0.41
-3.9389999 -2.464 -1.7539999 0.34
-3.927 -2.474 -1.751 0.34
-3.9170001 -2.4849999 -1.751 0.47
-3.9219999 -2.5050001 -1.757 0.36000001
-3.9059999 -2.513 -1.753 0.43000001
-3.9159999 -2.536 -1.761 0.33000001
-3.905 -2.5380001 -1.758 0.51999998
-3.8940001 -2.5480001 -1.757 0.44
-3.8789999 -2.556 -1.753 0.40000001
-3.8659999 -2.5650001 -1.751 0.38
-3.8310001 -2.559 -1.738 0.41
-3.8110001 -2.563 -1.732 0.34
-3.721 -2.5209999 -1.692 0.38
-3.7 -2.5150001 -1.684 0.31
-3.6600001 -2.5050001 -1.668 0.47
-3.661 -2.523 -1.673 0.38999999
-3.6719999 -2.5469999 -1.682 0.37
-3.638 -2.54 -1.669 0.36000001
-3.619 -2.5439999 -1.664 0.40000001
-3.6129999 -2.5569999 -1.665 0.34
-3.566 -2.533 -1.6440001 0.34
-3.517 -2.5150001 -1.624 0.44999999
-3.5209999 -2.5339999 -1.63 0.36000001
-3.494 -2.5320001 -1.62 0.5
-3.378 -2.464 -1.566 0.14
-2.994 -2.2030001 -1.3789999 0.090000004
-2.9760001 -2.197 -1.372 0.16
-2.954 -2.1949999 -1.364 0.039999999
-2.9400001 -2.1989999 -1.3609999 0.16
-2.928 -2.2049999 -1.358 0.050000001
-2.9089999 -2.2049999 -1.352 0.16
-2.895 -2.2079999 -1.349 0.20999999
-2.9030001 -2.2290001 -1.3559999 0.28999999
-2.8840001 -2.2290001 -1.35 0.28999999
-2.8770001 -2.2309999 -1.349 0.050000001
-2.8410001 -2.2179999 -1.334 0.12
-2.8 -2.2 -1.317 0.28999999
-2.8110001 -2.223 -1.326 0.31999999
-2.8139999 -2.24 -1.331 0.25
-2.8670001 -2.296 -1.3609999 0.34999999
-2.8610001 -2.306 -1.362 0.20999999
-2.723 -2.217 -1.296 0.57999998
-2.7190001 -2.2279999 -1.298 0.60000002
-2.7260001 -2.2479999 -1.3049999 0.34999999
-2.697 -2.2390001 -1.294 0.059999999
-2.6589999 -2.2219999 -1.278 0.07
-2.6300001 -2.2119999 -1.267 0.090000004
-2.6240001 -2.214 -1.265 0.19
-2.6229999 -2.227 -1.268 0
-2.6600001 -2.2720001 -1.291 0
-2.661 -2.2880001 -1.296 0
-2.648 -2.2909999 -1.293 0
-2.4990001 -2.1919999 -1.221 0.23999999
-2.503 -2.2019999 -1.225 0.059999999
-2.4849999 -2.2 -1.219 0
-2.45 -2.1830001 -1.204 0
-2.451 -2.198 -1.2079999 0.059999999
-2.4419999 -2.2030001 -1.207 0.039999999
-2.4219999 -2.2 -1.2 0.029999999
-2.404 -2.197 -1.194 0.15000001
-2.408 -2.207 -1.198 0.050000001
-2.3940001 -2.2090001 -1.194 0.079999998
-2.3870001 -2.2160001 -1.194 0.079999998
-2.388 -2.2309999 -1.199 0.039999999
-2.3629999 -2.2219999 -1.189 0.029999999
-2.3740001 -2.2460001 -1.199 0.039999999
-2.3699999 -2.256 -1.2 0.07
-2.381 -2.2739999 -1.2079999 0
-2.355 -2.2639999 -1.198 0
-2.2980001 -2.224 -1.17 0
-2.247 -2.188 -1.145 0
-2.237 -2.1930001 -1.1440001 0
-2.234 -2.204 -1.146 0
-2.2090001 -2.1930001 -1.136 0
-2.1989999 -2.1900001 -1.132 0
-1.603 -2.224 -0.986 0
-1.572 -2.1960001 -0.97000003 0
-1.571 -2.201 -0.97100002 0
-1.566 -2.2090001 -0.97299999 0
-1.556 -2.21 -0.97100002 0
-1.549 -2.2149999 -0.97100002 0
-1.5420001 -2.2190001 -0.97100002 0
-1.524 -2.2090001 -0.963 0
-1.5190001 -2.217 -0.96499997 0
-1.499 -2.1949999 -0.95300001 0
-1.494 -2.2030001 -0.954 0
-1.487 -2.207 -0.954 0
-1.48 -2.2119999 -0.954 0
-1.4680001 -2.2090001 -0.94999999 0
-1.461 -2.214 -0.94999999 0
-1.452 -2.2149999 -0.949 0
-1.438 -2.2019999 -0.94199997 0
-1.433 -2.21 -0.94300002 0
-1.427 -2.214 -0.94300002 0
-1.418 -2.2149999 -0.94199997 0
-1.41 -2.2179999 -0.94099998 0
-1.399 -2.2160001 -0.93800002 0
-1.3839999 -2.2079999 -0.93199998 0
-1.381 -2.2119999 -0.93300003 0
-1.372 -2.2130001 -0.93099999 0
-1.3609999 -2.211 -0.92799997 0
-1.352 -2.2119999 -0.92699999 0
-1.349 -2.223 -0.93000001 0
-1.336 -2.2179999 -0.92500001 0
-1.317 -2.201 -0.91500002 0
-1.324 -2.221 -0.92400002 0
-1.314 -2.22 -0.921 0
-1.2970001 -2.207 -0.91299999 0
-1.291 -2.2119999 -0.91399997 0
-1.288 -2.224 -0.91799998 0
-1.271 -2.211 -0.90899998 0
-1.27 -2.2249999 -0.91399997 0
-1.25 -2.1989999 -0.90100002 0
-1.2460001 -2.2079999 -0.903 0
-1.24 -2.214 -0.90399998 0
-1.232 -2.2160001 -0.903 0
-1.2180001 -2.207 -0.89700001 0
-1.205 -2.1989999 -0.89200002 0
-1.199 -2.2049999 -0.89300001 0
-1.191 -2.207 -0.89200002 0
-1.193 -2.2179999 -0.89700001 0
-1.177 -2.2060001 -0.889 0
-1.1569999 -2.1849999 -0.87800002 0
-1.177 -2.2390001 -0.90100002 0
-1.153 -2.21 -0.88599998 0
-1.147 -2.2160001 -0.88700002 0
-1.1440001 -2.2190001 -0.88800001 0
-1.126 -2.201 -0.87800002 0
-1.1160001 -2.2 -0.87599999 0
-1.1160001 -2.2160001 -0.88200003 0
-1.102 -2.2049999 -0.875 0
-1.096 -2.21 -0.87599999 0
-1.089 -2.2149999 -0.87699997 0
-1.079 -2.204 -0.87099999 0
-1.069 -2.2 -0.86799997 0
-1.063 -2.2049999 -0.86799997 0
-1.048 -2.1919999 -0.861 0
-1.043 -2.2 -0.86299998 0
-1.043 -2.217 -0.86900002 0
-1.0319999 -2.2119999 -0.86500001 0
-1.031 -2.2190001 -0.86799997 0
-1.018 -2.21 -0.86199999 0
-1.0039999 -2.198 -0.85600001 0
-1.001 -2.21 -0.85900003 0
-0.99400002 -2.211 -0.85900003 0
-0.98199999 -2.204 -0.85399997 0
-0.97799999 -2.214 -0.85699999 0
-0.972 -2.2090001 -0.85399997 0
-0.97399998 -2.234 -0.86400002 0
-0.95999998 -2.22 -0.85600001 0
-0.95899999 -2.237 -0.86199999 0
-0.94400001 -2.223 -0.85500002 0
-0.93400002 -2.217 -0.85100001 0
-0.921 -2.2060001 -0.84500003 0
-0.91600001 -2.204 -0.84399998 0
-0.91299999 -2.2160001 -0.847 0
-0.903 -2.2119999 -0.84399998 0
-0.889 -2.197 -0.83700001 0
-0.90700001 -2.2620001 -0.86400002 0
-0.889 -2.237 -0.852 0
-0.87599999 -2.2249999 -0.84500003 0
-0.87199998 -2.2260001 -0.84500003 0
-0.866 -2.23 -0.84600002 0
-0.85399997 -2.221 -0.84100002 0
-0.84200001 -2.2119999 -0.83499998 0
-0.84600002 -2.24 -0.847 0
-0.82200003 -2.201 -0.829 0
-0.82300001 -2.2249999 -0.838 0
-0.815 -2.214 -0.83200002 0
-0.81800002 -2.2409999 -0.84299999 0
-0.80199999 -2.221 -0.833 0
-0.796 -2.227 -0.83499998 0
-0.78899997 -2.2290001 -0.83499998 0
-0.77200001 -2.204 -0.82300001 0
-0.76499999 -2.2060001 -0.82300001 0
-0.75700003 -2.2030001 -0.81999999 0
-0.75199997 -2.201 -0.81900001 0
-0.74599999 -2.2049999 -0.81999999 0
-0.73699999 -2.204 -0.81800002 0
-0.73100001 -2.2079999 -0.81900001 0
-0.72500002 -2.214 -0.81999999 0
-0.71499997 -2.207 -0.81699997 0
-0.71100003 -2.207 -0.81599998 0
-0.704 -2.2090001 -0.81599998 0
-0.70099998 -2.223 -0.82099998 0.059999999
-0.68900001 -2.21 -0.815 0.039999999
-0.68199998 -2.2119999 -0.815 0.039999999
-0.67500001 -2.214 -0.815 0.039999999
-0.667 -2.2130001 -0.81300002 0.039999999
-0.66500002 -2.217 -0.815 0.07
-0.65399998 -2.2049999 -0.80900002 0.039999999
-0.64600003 -2.2030001 -0.80699998 0.039999999
-0.64399999 -2.221 -0.81400001 0.07
-0.63300002 -2.2130001 -0.80900002 0.039999999
-0.62699997 -2.2179999 -0.81099999 0.07
-0.61799997 -2.2130001 -0.80800003 0.039999999
-0.616 -2.2179999 -0.80900002 0.079999998
-0.60600001 -2.2090001 -0.80500001 0.039999999
-0.60399997 -2.2290001 -0.81199998 0.07
-0.59600002 -2.2249999 -0.81 0.15000001
-0.59100002 -2.2360001 -0.81400001 0.17
-0.58099997 -2.227 -0.80900002 0.16
-0.57200003 -2.22 -0.80599999 0.16
-0.56699997 -2.2290001 -0.80900002 0.17
-0.56300002 -2.23 -0.80900002 0.16
-0.55599999 -2.23 -0.80800003 0.16
-0.54900002 -2.2320001 -0.80800003 0.17
-0.542 -2.233 -0.80800003 0.17
-0.528 -2.21 -0.79699999 0.039999999
-0.523 -2.2190001 -0.80000001 0.15000001
-0.51599997 -2.2179999 -0.80000001 0.050000001
-0.514 -2.2260001 -0.80299997 0.14
-0.50599998 -2.224 -0.801 0.050000001
-0.50400001 -2.2460001 -0.80900002 0.15000001
-0.49200001 -2.2279999 -0.801 0.050000001
-0.48100001 -2.2090001 -0.79299998 0.14
-0.47600001 -2.2219999 -0.79699999 0.050000001
-0.47099999 -2.23 -0.80000001 0.16
-0.46200001 -2.2090001 -0.79100001 0.050000001
-0.461 -2.234 -0.801 0.16
-0.44999999 -2.221 -0.79500002 0.050000001
-0.44600001 -2.234 -0.80000001 0.16
-0.43799999 -2.233 -0.79900002 0.050000001
-0.42899999 -2.224 -0.79400003 0.16
-0.419 -2.21 -0.78799999 0.050000001
-0.42199999 -2.24 -0.80000001 0.17
-0.41100001 -2.223 -0.79299998 0.18000001
-0.40700001 -2.2390001 -0.79900002 0.1
-0.40200001 -2.253 -0.80400002 0.16
-0.389 -2.2219999 -0.79100001 0.050000001
-0.38299999 -2.23 -0.79400003 0.17
-0.37900001 -2.2479999 -0.80000001 0.11
-0.37099999 -2.223 -0.79000002 0.18000001
-0.36500001 -2.2290001 -0.792 0.1
-0.359 -2.2360001 -0.79400003 0.18000001
-0.352 -2.237 -0.79400003 0.11
-0.345 -2.2360001 -0.79400003 0.18000001
-0.338 -2.2409999 -0.79500002 0.1
-0.33000001 -2.2349999 -0.792 0.18000001
-0.32699999 -2.237 -0.79299998 0.11
-0.32100001 -2.247 -0.79699999 0.18000001
-0.31099999 -2.23 -0.78899997 0.22
-0.30399999 -2.2249999 -0.787 0.16
-0.29899999 -2.243 -0.79400003 0.23999999
-0.28999999 -2.2309999 -0.78799999 0.16
-0.28400001 -2.2390001 -0.79100001 0.23999999
-0.28099999 -2.2449999 -0.79400003 0.16
-0.27200001 -2.2309999 -0.78799999 0.23999999
-0.26699999 -2.2449999 -0.79299998 0.16
-0.25999999 -2.2460001 -0.79299998 0.25
-0.25 -2.223 -0.78299999 0.16
-0.244 -2.2349999 -0.78799999 0.23999999
-0.237 -2.233 -0.787 0.14
-0.233 -2.2320001 -0.78600001 0.25999999
-0.226 -2.233 -0.78600001 0.25
-0.222 -2.256 -0.79500002 0.25
-0.213 -2.243 -0.79000002 0.28
-0.206 -2.2379999 -0.78799999 0.28
-0.199 -2.2390001 -0.78799999 0.30000001
-0.189 -2.21 -0.77600002 0.25999999
-0.186 -2.2179999 -0.77899998 0.30000001
-0.18000001 -2.233 -0.78500003 0.33000001
-0.171 -2.2130001 -0.77600002 0.34
-0.16500001 -2.2160001 -0.77700001 0.28999999
-0.15800001 -2.22 -0.77899998 0.31999999
-0.15000001 -2.211 -0.77499998 0.31999999
-0.14300001 -2.2079999 -0.773 0.36000001
-0.14 -2.2079999 -0.773 0.31999999
-0.133 -2.2090001 -0.773 0.34
-0.126 -2.211 -0.77399999 0.37
-0.119 -2.211 -0.77399999 0.37
-0.111 -2.201 -0.76999998 0.31
-0.104 -2.197 -0.76800001 0.34999999
-0.101 -2.201 -0.76999998 0.36000001
-0.093999997 -2.194 -0.76700002 0.38
-0.086999997 -2.2 -0.76899999 0.38999999
-0.079999998 -2.198 -0.76800001 0.38999999
-0.072999999 -2.1889999 -0.764 0.34
-0.066 -2.1949999 -0.76700002 0.43000001
-0.059 -2.201 -0.76899999 0.36000001
-0.052000001 -2.1900001 -0.764 0.44999999
-0.048999999 -2.1949999 -0.76700002 0.30000001
-0.041999999 -2.1860001 -0.76300001 0.47999999
-0.035 -2.207 -0.77100003 0.23
-0.028000001 -2.201 -0.76899999 0.51999998
-0.022 -2.214 -0.77399999 0.25
-0.014 -2.2 -0.76800001 0.52999997
-0.0080000004 -2.207 -0.77100003 0.27000001
-0.0040000002 -2.198 -0.76700002 0.54000002
0.003 -2.211 -0.773 0.27000001
0.0099999998 -2.198 -0.76700002 0.54000002
0.017000001 -2.211 -0.773 0.28
0.024 -2.2030001 -0.76999998 0.47999999
0.030999999 -2.2119999 -0.773 0.28999999
0.037999999 -2.197 -0.76700002 0.55000001
0.041000001 -2.2049999 -0.76999998 0.27000001
0.048 -2.2030001 -0.76999998 0.56999999
0.055 -2.2079999 -0.77200001 0.27000001
0.061999999 -2.2079999 -0.77200001 0.55000001
0.068999998 -2.2019999 -0.76999998 0.28
0.075999998 -2.204 -0.76999998 0.56
0.082999997 -2.207 -0.77200001 0.25
0.086000003 -2.1960001 -0.76700002 0.51999998
0.093000002 -2.1960001 -0.76700002 0.23999999
0.1 -2.2030001 -0.76999998 0.58999997
0.108 -2.23 -0.78200001 0.34
0.113 -2.184 -0.76300001 0.28999999
0.12 -2.1830001 -0.76300001 0.30000001
0.12800001 -2.2049999 -0.77200001 0.43000001
0.13 -2.174 -0.759 0.2
0.138 -2.1949999 -0.76800001 0.31
0.14399999 -2.178 -0.76099998 0.22
0.15099999 -2.181 -0.76300001 0.11
0.15700001 -2.1700001 -0.75800002 0.16
0.16500001 -2.184 -0.764 0.20999999
0.171 -2.178 -0.76200002 0.18000001
0.175 -2.1889999 -0.76700002 0.23999999
0.183 -2.1960001 -0.76999998 0.25
0.19 -2.1949999 -0.76999998 0.23999999
0.197 -2.1960001 -0.76999998 0.27000001
0.204 -2.198 -0.77100003 0.30000001
0.20999999 -2.1930001 -0.76999998 0.27000001
0.22 -2.224 -0.78200001 0.44999999
0.223 -2.2219999 -0.78200001 0.31
0.23 -2.2160001 -0.77899998 0.34999999
0.236 -2.2130001 -0.77899998 0.36000001
0.243 -2.207 -0.77600002 0.36000001
0.24699999 -2.175 -0.764 0.16
0.257 -2.207 -0.77700001 0.28999999
0.26300001 -2.197 -0.773 0.22
0.26699999 -2.204 -0.77600002 0.12
0.27700001 -2.2249999 -0.78500003 0.18000001
0.285 -2.2349999 -0.79000002 0.19
0.29100001 -2.223 -0.78500003 0.039999999
0.29800001 -2.2219999 -0.78500003 0.079999998
0.30700001 -2.2420001 -0.79400003 0.079999998
0.31600001 -2.256 -0.80000001 0
0.31600001 -2.2260001 -0.78799999 0
0.32600001 -2.2490001 -0.79699999 0
2.1199999 -3.9289999 -1.6799999 0
2.132 -3.921 -1.6799999 0
2.152 -3.9289999 -1.686 0.029999999
2.1530001 -3.9159999 -1.682 0.18000001
2.1700001 -3.9170001 -1.686 0.2
2.187 -3.9200001 -1.6900001 0.30000001
2.1860001 -3.8889999 -1.679 0.28
2.2019999 -3.888 -1.682 0.34
2.217 -3.8859999 -1.684 0.34
2.227 -3.8759999 -1.683 0.38
2.233 -3.8729999 -1.683 0.33000001
2.2509999 -3.875 -1.687 0.34
2.2579999 -3.858 -1.683 0.41
2.273 -3.8559999 -1.6849999 0.38
2.2880001 -3.8540001 -1.687 0.36000001
2.2939999 -3.8369999 -1.683 0.31999999
2.3 -3.8329999 -1.683 0.36000001
2.3210001 -3.8399999 -1.689 0.34
2.3199999 -3.812 -1.6799999 0.28
2.3340001 -3.8080001 -1.681 0.30000001
2.355 -3.8150001 -1.688 0.34999999
2.3529999 -3.786 -1.677 0.38999999
2.3740001 -3.7920001 -1.684 0.38
2.3840001 -3.7820001 -1.683 0.34
2.382 -3.766 -1.677 0.34
2.3959999 -3.7609999 -1.678 0.38999999
2.405 -3.75 -1.677 0.34
2.4119999 -3.7349999 -1.673 0.28999999
2.4300001 -3.737 -1.677 0.34999999
2.4460001 -3.7349999 -1.6799999 0.31
2.451 -3.7179999 -1.676 0.34999999
2.457 -3.7149999 -1.676 0.31999999
2.4690001 -3.707 -1.676 0.27000001
2.483 -3.7019999 -1.677 0.34999999
2.4920001 -3.691 -1.676 0.31999999
2.5079999 -3.6900001 -1.679 0.31
2.5150001 -3.6760001 -1.676 0.34
2.5320001 -3.675 -1.6799999 0.38
2.5409999 -3.6760001 -1.682 0.34
2.5450001 -3.6570001 -1.677 0.30000001
2.5569999 -3.6489999 -1.677 0.37
2.573 -3.6489999 -1.6799999 0.36000001
2.576 -3.628 -1.674 0.33000001
2.5840001 -3.6159999 -1.6720001 0.31999999
2.598 -3.622 -1.677 0.34
2.6040001 -3.6070001 -1.674 0.31999999
2.619 -3.6040001 -1.677 0.38
2.6340001 -3.6010001 -1.679 0.27000001
2.6400001 -3.585 -1.675 0.34
2.651 -3.5769999 -1.675 0.30000001
2.6630001 -3.5699999 -1.676 0.41
2.6619999 -3.5569999 -1.671 0.38
2.681 -3.559 -1.677 0.37
2.6900001 -3.5469999 -1.675 0.28999999
2.7030001 -3.5420001 -1.677 0.36000001
2.711 -3.529 -1.674 0.31
2.73 -3.5309999 -1.6799999 0.36000001
2.734 -3.513 -1.675 0.34
2.74 -3.5090001 -1.675 0.34
2.7509999 -3.5 -1.675 0.34
2.7490001 -3.4749999 -1.6670001 0.31
2.7750001 -3.4860001 -1.677 0.33000001
2.7850001 -3.4760001 -1.676 0.37
2.7950001 -3.4649999 -1.675 0.31999999
2.8 -3.4489999 -1.671 0.30000001
2.8110001 -3.4519999 -1.675 0.30000001
2.819 -3.4400001 -1.674 0.31999999
2.8329999 -3.434 -1.675 0.25999999
2.845 -3.427 -1.676 0.38999999
2.8469999 -3.408 -1.671 0.44999999
2.8599999 -3.402 -1.6720001 0.43000001
2.8670001 -3.3889999 -1.67 0.36000001
2.8889999 -3.392 -1.677 0.31
2.8900001 -3.3840001 -1.674 0.47
2.891 -3.3629999 -1.668 0.28999999
2.908 -3.3610001 -1.6720001 0.33000001
2.918 -3.352 -1.6720001 0.44
2.928 -3.3410001 -1.671 0.38
2.941 -3.335 -1.673 0.38
2.947 -3.322 -1.671 0.40000001
2.9630001 -3.3280001 -1.677 0.37
2.9719999 -3.3169999 -1.676 0.37
2.9809999 -3.3069999 -1.675 0.33000001
2.9949999 -3.3010001 -1.677 0.41999999
2.9979999 -3.2839999 -1.673 0.38999999
3.003 -3.2690001 -1.67 0.30000001
3.013 -3.2690001 -1.673 0.36000001
3.0190001 -3.2550001 -1.67 0.34
3.0280001 -3.244 -1.669 0.33000001
3.043 -3.24 -1.6720001 0.31999999
3.049 -3.2260001 -1.67 0.34999999
3.053 -3.21 -1.666 0.28999999
3.063 -3.2 -1.666 0.31
3.059 -3.1860001 -1.661 0.31
3.0810001 -3.188 -1.668 0.31
3.089 -3.177 -1.6670001 0.34
3.0910001 -3.1589999 -1.663 0.27000001
3.1010001 -3.1500001 -1.663 0.28999999
3.119 -3.148 -1.6670001 0.43000001
3.128 -3.1370001 -1.666 0.36000001
3.1270001 -3.1270001 -1.663 0.37
3.1440001 -3.1229999 -1.6670001 0.33000001
3.148 -3.108 -1.664 0.37
3.1570001 -3.0969999 -1.663 0.28
3.161 -3.082 -1.66 0.28999999
3.1730001 -3.0739999 -1.6619999 0.41
3.1800001 -3.062 -1.66 0.34
3.191 -3.062 -1.663 0.31
3.1849999 -3.0380001 -1.655 0.31999999
3.1960001 -3.029 -1.656 0.34
3.2149999 -3.0280001 -1.661 0.30000001
3.2179999 -3.0120001 -1.6569999 0.28999999
3.233 -3.006 -1.66 0.36000001
3.2479999 -3.0009999 -1.663 0.33000001
3.2479999 -2.9920001 -1.661 0.36000001
3.263 -2.987 -1.664 0.41
3.2739999 -2.9779999 -1.665 0.38999999
3.2780001 -2.9630001 -1.6619999 0.34
3.2939999 -2.9590001 -1.665 0.36000001
3.3 -2.9460001 -1.664 0.36000001
3.3080001 -2.934 -1.663 0.34999999
3.312 -2.928 -1.663 0.31999999
3.3280001 -2.924 -1.666 0.36000001
3.3329999 -2.9100001 -1.664 0.34
3.3310001 -2.8889999 -1.658 0.27000001
3.359 -2.8959999 -1.668 0.38
3.3499999 -2.8699999 -1.659 0.30000001
3.359 -2.859 -1.659 0.30000001
3.3710001 -2.8599999 -1.663 0.31
3.3800001 -2.849 -1.663 0.34
3.381 -2.8329999 -1.659 0.28999999
3.402 -2.8310001 -1.665 0.33000001
3.398 -2.8099999 -1.658 0.28999999
3.4119999 -2.8039999 -1.661 0.33000001
3.427 -2.7980001 -1.664 0.30000001
3.414 -2.779 -1.655 0.25
3.427 -2.7709999 -1.6569999 0.33000001
3.4489999 -2.7709999 -1.664 0.34999999
3.454 -2.7579999 -1.663 0.37
3.46 -2.7449999 -1.661 0.38999999
3.4890001 -2.75 -1.671 0.44999999
3.477 -2.723 -1.661 0.31999999
3.4920001 -2.7260001 -1.666 0.34
3.4949999 -2.71 -1.663 0.28
3.4909999 -2.6900001 -1.6569999 0.33000001
3.5139999 -2.6900001 -1.665 0.31999999
3.526 -2.681 -1.666 0.27000001
3.5239999 -2.6619999 -1.661 0.28999999
3.5280001 -2.648 -1.659 0.28999999
3.533 -2.6440001 -1.66 0.27000001
3.54 -2.631 -1.659 0.34
3.5539999 -2.625 -1.6619999 0.34999999
3.575 -2.622 -1.668 0.31
3.5810001 -2.6099999 -1.6670001 0.52999997
3.585 -2.595 -1.665 0.31
3.602 -2.5910001 -1.669 0.28999999
3.5940001 -2.576 -1.663 0.31999999
3.608 -2.569 -1.666 0.38999999
3.622 -2.562 -1.669 0.28
3.6229999 -2.546 -1.665 0.52999997
3.6340001 -2.536 -1.6670001 0.38999999
3.6459999 -2.5280001 -1.669 0.31999999
3.6440001 -2.5090001 -1.664 0.31
3.651 -2.506 -1.665 0.30000001
3.665 -2.4979999 -1.668 0.31
3.6619999 -2.4790001 -1.663 0.31999999
3.668 -2.467 -1.663 0.30000001
3.677 -2.4560001 -1.663 0.31999999
3.6819999 -2.4430001 -1.6619999 0.31999999
3.6819999 -2.4260001 -1.658 0.28999999
3.6960001 -2.427 -1.663 0.33000001
3.6960001 -2.411 -1.66 0.30000001
3.7079999 -2.402 -1.6619999 0.28999999
3.7130001 -2.388 -1.66 0.28999999
3.7279999 -2.382 -1.664 0.47
3.733 -2.368 -1.663 0.38
3.7320001 -2.3510001 -1.659 0.25
3.73 -2.3410001 -1.656 0.23
3.7349999 -2.329 -1.655 0.31999999
3.7490001 -2.3210001 -1.658 0.34999999
3.7509999 -2.306 -1.656 0.30000001
3.756 -2.2920001 -1.654 0.40000001
3.763 -2.2809999 -1.654 0.38
3.7679999 -2.2679999 -1.654 0.34
3.7809999 -2.2679999 -1.658 0.36000001
3.7839999 -2.253 -1.656 0.31999999
3.7809999 -2.2349999 -1.651 0.23999999
3.7950001 -2.227 -1.654 0.31999999
3.7969999 -2.2119999 -1.652 0.31999999
3.8150001 -2.207 -1.6569999 0.41
3.8199999 -2.194 -1.6569999 0.34
3.825 -2.1889999 -1.6569999 0.33000001
3.8369999 -2.1800001 -1.66 0.38
3.842 -2.1670001 -1.659 0.33000001
3.8440001 -2.152 -1.6569999 0.37
3.8559999 -2.1429999 -1.659 0.34
3.8559999 -2.1270001 -1.656 0.34
3.8640001 -2.1159999 -1.6569999 0.34999999
3.872 -2.112 -1.659 0.36000001
3.8759999 -2.098 -1.6569999 0.38
3.8770001 -2.0840001 -1.655 0.36000001
3.8840001 -2.0710001 -1.655 0.33000001
3.8989999 -2.0639999 -1.659 0.34
3.915 -2.0569999 -1.663 0.36000001
3.931 -2.049 -1.668 0.38999999
3.938 -2.0450001 -1.669 0.33000001
3.9560001 -2.039 -1.674 0.27000001
3.95 -2.02 -1.669 0.38
3.9679999 -2.0139999 -1.674 0.41
3.98 -2.0039999 -1.677 0.38999999
4.0009999 -1.999 -1.683 0.38999999
3.997 -1.9809999 -1.679 0.36000001
3.9990001 -1.974 -1.678 0.37
4.013 -1.966 -1.682 0.40000001
4.0180001 -1.952 -1.681 0.36000001
4.02 -1.938 -1.6799999 0.31999999
4.0250001 -1.925 -1.679 0.34
4.026 -1.909 -1.677 0.38999999
4.0320001 -1.897 -1.677 0.36000001
4.033 -1.89 -1.676 0.37
4.0370002 -1.876 -1.675 0.34
4.0619998 -1.872 -1.683 0.43000001
4.0489998 -1.851 -1.675 0.31
4.053 -1.837 -1.674 0.38
4.0669999 -1.8279999 -1.678 0.30000001
4.066 -1.813 -1.675 0.31999999
4.0760002 -1.809 -1.678 0.36000001
4.0780001 -1.795 -1.677 0.31
4.085 -1.783 -1.677 0.37
4.079 -1.765 -1.6720001 0.28999999
4.1020002 -1.7589999 -1.6799999 0.34999999
4.1020002 -1.744 -1.677 0.34
4.1139998 -1.734 -1.6799999 0.34
4.1149998 -1.727 -1.6799999 0.30000001
4.1160002 -1.712 -1.677 0.34999999
4.1259999 -1.701 -1.6799999 0.34
4.125 -1.6849999 -1.677 0.28
4.1329999 -1.674 -1.678 0.38
4.1370001 -1.66 -1.677 0.31
4.1550002 -1.66 -1.684 0.34999999
4.1500001 -1.643 -1.6799999 0.34
4.1500001 -1.628 -1.677 0.28
4.1690001 -1.62 -1.683 0.36000001
4.165 -1.603 -1.6799999 0.31999999
4.165 -1.5880001 -1.677 0.34999999
4.1869998 -1.582 -1.6849999 0.31999999
4.1820002 -1.5650001 -1.6799999 0.33000001
4.177 -1.556 -1.677 0.27000001
4.2049999 -1.551 -1.687 0.40000001
4.1989999 -1.534 -1.683 0.33000001
4.1989999 -1.5190001 -1.6799999 0.31999999
4.2119999 -1.5089999 -1.684 0.33000001
4.2010002 -1.49 -1.677 0.31999999
4.204 -1.476 -1.677 0.28999999
4.224 -1.476 -1.684 0.36000001
4.2129998 -1.457 -1.677 0.27000001
4.2329998 -1.449 -1.684 0.38
4.2340002 -1.4349999 -1.683 0.25999999
4.2389998 -1.421 -1.683 0.38
4.2410002 -1.4069999 -1.682 0.34999999
4.256 -1.397 -1.686 0.34
4.2389998 -1.3839999 -1.678 0.30000001
4.2540002 -1.375 -1.683 0.31
4.2620001 -1.362 -1.684 0.31999999
4.2589998 -1.347 -1.681 0.31999999
4.277 -1.3380001 -1.687 0.36000001
4.283 -1.325 -1.688 0.28999999
4.2729998 -1.307 -1.682 0.31
4.277 -1.301 -1.683 0.36000001
4.2919998 -1.291 -1.687 0.31
4.29 -1.276 -1.6849999 0.31999999
4.303 -1.265 -1.689 0.31999999
4.3070002 -1.251 -1.689 0.28999999
4.2989998 -1.234 -1.683 0.31999999
4.3060002 -1.222 -1.6849999 0.34999999
4.322 -1.219 -1.691 0.30000001
4.3189998 -1.2029999 -1.688 0.31999999
4.316 -1.188 -1.6849999 0.27000001
4.3299999 -1.177 -1.689 0.31999999
4.3249998 -1.161 -1.686 0.30000001
4.3249998 -1.146 -1.684 0.30000001
4.3319998 -1.1339999 -1.686 0.27000001
4.3319998 -1.127 -1.6849999 0.33000001
4.3369999 -1.113 -1.686 0.31999999
4.348 -1.102 -1.689 0.33000001
4.3460002 -1.087 -1.686 0.31999999
4.3509998 -1.073 -1.687 0.31999999
4.3540001 -1.0599999 -1.687 0.30000001
4.3610001 -1.0470001 -1.689 0.31
4.3610001 -1.04 -1.688 0.31
4.3639998 -1.026 -1.688 0.31999999
4.3709998 -1.013 -1.689 0.31999999
4.3730001 -0.99900001 -1.689 0.28999999
4.3779998 -0.986 -1.689 0.34
4.3790002 -0.97100002 -1.689 0.28999999
4.3800001 -0.95700002 -1.688 0.23
4.3889999 -0.95200002 -1.691 0.14
4.3850002 -0.93699998 -1.688 0.19
4.395 -0.92400002 -1.691 0
4.3990002 -0.91100001 -1.692 0
4.375 -0.89099997 -1.6799999 0
4.4159999 -0.88599998 -1.696 0
2.5369999 -0.48899999 -0.92299998 0
2.543 -0.486 -0.92500001 0
2.536 -0.47600001 -0.921 0
4.2839999 1.1619999 -1.716 0
4.2919998 1.1720001 -1.72 0
4.2610002 1.178 -1.7079999 0.02
4.2649999 1.193 -1.711 0.029999999
4.2589998 1.206 -1.71 0.039999999
4.2519999 1.2180001 -1.709 0.029999999
4.25 1.232 -1.71 0.029999999
4.2509999 1.247 -1.712 0.039999999
4.2399998 1.251 -1.7079999 0.029999999
4.2519999 1.2690001 -1.715 0.039999999
4.25 1.283 -1.716 0
4.2600002 1.301 -1.722 0.059999999
4.2470002 1.311 -1.7180001 0.039999999
4.2459998 1.326 -1.72 0.07
4.23 1.3279999 -1.714 0.14
4.2399998 1.346 -1.72 0.16
4.2379999 1.36 -1.72 0.039999999
4.2329998 1.373 -1.72 0.07
4.2249999 1.385 -1.719 0.079999998
4.2280002 1.401 -1.722 0.15000001
4.2309999 1.416 -1.725 0.17
4.2160001 1.419 -1.72 0.16
4.217 1.434 -1.722 0.039999999
4.211 1.447 -1.721 0.07
4.2150002 1.4630001 -1.725 0.079999998
4.2119999 1.477 -1.726 0.14
4.2059999 1.489 -1.725 0.039999999
4.2059999 1.5039999 -1.727 0.07
4.1999998 1.517 -1.726 0.039999999
4.204 1.526 -1.73 0.07
4.2010002 1.54 -1.73 0
4.2030001 1.556 -1.733 0.059999999
4.1929998 1.567 -1.7309999 0.15000001
4.1929998 1.582 -1.733 0.16
4.1880002 1.595 -1.733 0.16
4.1820002 1.608 -1.733 0.17
4.184 1.6160001 -1.735 0.039999999
4.1690001 1.625 -1.73 0.16
4.1719999 1.642 -1.734 0.19
4.1719999 1.6569999 -1.7359999 0.039999999
4.1620002 1.668 -1.734 0.079999998
4.1700001 1.687 -1.74 0.079999998
4.1609998 1.699 -1.739 0.079999998
4.1589999 1.705 -1.739 0.079999998
4.1669998 1.724 -1.745 0.090000004
4.1500001 1.732 -1.739 0.090000004
4.1560001 1.75 -1.745 0.15000001
4.1399999 1.7589999 -1.74 0.17
4.1420002 1.775 -1.743 0.039999999
4.1339998 1.779 -1.7410001 0.16
4.1430001 1.799 -1.748 0.20999999
4.1360002 1.811 -1.747 0.17
4.1300001 1.824 -1.747 0.039999999
4.1350002 1.841 -1.752 0.07
4.1259999 1.853 -1.75 0.15000001
4.1160002 1.864 -1.749 0.16
4.1149998 1.8710001 -1.749 0.039999999
4.1090002 1.8839999 -1.749 0.07
4.1149998 1.903 -1.755 0.16
4.1059999 1.914 -1.753 0.050000001
4.1009998 1.928 -1.7539999 0.079999998
4.0900002 1.938 -1.752 0.039999999
4.0869999 1.9529999 -1.753 0.14
4.0929999 1.9630001 -1.757 0.050000001
4.0749998 1.97 -1.752 0.15000001
4.085 1.9910001 -1.7589999 0.050000001
4.079 2.0039999 -1.7589999 0.07
4.0710001 2.016 -1.7589999 0.15000001
4.0739999 2.0339999 -1.763 0.16
4.066 2.046 -1.762 0.039999999
4.0700002 2.056 -1.765 0.07
4.0619998 2.0680001 -1.765 0.079999998
4.0570002 2.0810001 -1.765 0.090000004
4.0320001 2.0840001 -1.757 0.16
4.0489998 2.109 -1.768 0.17
4.039 2.1199999 -1.766 0.17
4.0240002 2.128 -1.762 0.039999999
4.0279999 2.1470001 -1.768 0.07
4.0300002 2.1559999 -1.77 0.039999999
4.0170002 2.165 -1.767 0.17
4.0240002 2.1860001 -1.774 0.050000001
4.0029998 2.191 -1.767 0.17
4.0040002 2.2079999 -1.771 0.19
4.0019999 2.223 -1.773 0.17
3.9949999 2.2349999 -1.773 0.090000004
3.9979999 2.2449999 -1.776 0.16
3.9909999 2.2579999 -1.776 0.050000001
3.987 2.2720001 -1.778 0.039999999
3.9809999 2.286 -1.778 0.07
3.984 2.3039999 -1.783 0.090000004
3.977 2.316 -1.783 0.079999998
3.9590001 2.3139999 -1.776 0.14
3.9660001 2.335 -1.783 0.039999999
3.9519999 2.3440001 -1.78 0.16
3.9519999 2.3610001 -1.784 0.19
3.947 2.3740001 -1.784 0.090000004
3.9419999 2.3889999 -1.786 0.16
3.928 2.3970001 -1.783 0.050000001
3.9389999 2.4119999 -1.79 0.17
3.9300001 2.4230001 -1.789 0.050000001
3.9159999 2.4319999 -1.786 0.17
3.9189999 2.451 -1.791 0.2
3.9130001 2.464 -1.7920001 0.039999999
3.9000001 2.474 -1.79 0.16
3.905 2.494 -1.796 0.2
3.901 2.5 -1.796 0.18000001
3.8989999 2.516 -1.799 0.17
3.895 2.5309999 -1.801 0.16
3.8840001 2.5409999 -1.799 0.090000004
3.8710001 2.55 -1.7970001 0.16
3.8710001 2.5669999 -1.801 0.050000001
3.859 2.5769999 -1.799 0.16
3.859 2.595 -1.803 0.18000001
3.8559999 2.602 -1.804 0.1
3.8599999 2.622 -1.8099999 0.079999998
3.845 2.6289999 -1.806 0.090000004
3.836 2.641 -1.806 0.19
3.823 2.6500001 -1.804 0.11
3.8199999 2.665 -1.806 0.19
3.8110001 2.677 -1.806 0.050000001
3.8099999 2.6849999 -1.807 0.17
3.8080001 2.701 -1.8099999 0.19
3.8080001 2.72 -1.8150001 0.1
3.8050001 2.7360001 -1.818 0.16
3.7980001 2.7490001 -1.819 0.20999999
3.7809999 2.7550001 -1.814 0.1
3.7709999 2.7650001 -1.814 0.2
3.7720001 2.776 -1.817 0.11
3.756 2.7820001 -1.813 0.19
3.756 2.8 -1.817 0.2
3.756 2.819 -1.822 0.1
3.7409999 2.826 -1.819 0.18000001
3.7409999 2.845 -1.823 0.20999999
3.7290001 2.8540001 -1.822 0.090000004
3.7379999 2.8699999 -1.829 0.19
3.7160001 2.872 -1.822 0.18000001
3.71 2.8859999 -1.823 0.1
3.7079999 2.9030001 -1.827 0.18000001
3.697 2.914 -1.826 0.22
3.6930001 2.9289999 -1.829 0.090000004
3.688 2.944 -1.831 0.2
3.6819999 2.948 -1.83 0.19
3.681 2.967 -1.835 0.1
3.6719999 2.9779999 -1.835 0.16
3.651 2.9809999 -1.829 0.050000001
3.648 2.9979999 -1.8329999 0.17
3.648 3.016 -1.837 0.20999999
3.6270001 3.0179999 -1.831 0.17
3.635 3.0350001 -1.8380001 0.1
3.628 3.049 -1.839 0.2
3.609 3.052 -1.834 0.050000001
3.598 3.062 -1.8329999 0.17
3.595 3.079 -1.837 0.19
3.589 3.0940001 -1.839 0.1
3.585 3.1099999 -1.8430001 0.2
3.5829999 3.118 -1.844 0.2
3.573 3.1289999 -1.844 0.18000001
3.5610001 3.138 -1.8430001 0.1
3.559 3.1570001 -1.847 0.19
3.5450001 3.164 -1.845 0.2
3.543 3.1830001 -1.849 0.090000004
3.526 3.188 -1.846 0.2
3.527 3.198 -1.849 0.11
3.507 3.2 -1.8430001 0.19
3.52 3.233 -1.8559999 0.2
3.5050001 3.2390001 -1.853 0.1
3.4879999 3.244 -1.849 0.2
3.4920001 3.2679999 -1.858 0.2
3.4779999 3.276 -1.855 0.090000004
3.47 3.2780001 -1.854 0.090000004
3.4649999 3.2939999 -1.857 0.19
3.4519999 3.303 -1.855 0.2
3.444 3.316 -1.857 0.090000004
3.441 3.3329999 -1.8609999 0.090000004
3.4430001 3.3570001 -1.868 0.15000001
3.4159999 3.3510001 -1.859 0.20999999
3.4159999 3.362 -1.862 0.1
3.402 3.3699999 -1.86 0.18000001
3.3970001 3.3859999 -1.863 0.1
3.388 3.398 -1.864 0.090000004
3.3759999 3.4070001 -1.863 0.2
3.365 3.418 -1.863 0.2
3.362 3.4360001 -1.868 0.090000004
3.3599999 3.4449999 -1.87 0.18000001
3.3429999 3.4489999 -1.8660001 0.11
3.336 3.464 -1.868 0.16
3.3340001 3.484 -1.874 0.22
3.3169999 3.487 -1.87 0.1
3.316 3.5090001 -1.876 0.18000001
3.2969999 3.5109999 -1.872 0.22
3.2980001 3.533 -1.878 0.16
3.283 3.529 -1.873 0.050000001
3.276 3.543 -1.875 0.17
3.2620001 3.5510001 -1.874 0.19
3.2650001 3.576 -1.882 0.090000004
3.2460001 3.5780001 -1.878 0.18000001
3.2390001 3.5929999 -1.88 0.050000001
3.2249999 3.589 -1.875 0.17
3.223 3.609 -1.881 0.11
3.207 3.6140001 -1.878 0.2
3.2 3.6289999 -1.881 0.11
3.1919999 3.6440001 -1.883 0.18000001
3.184 3.658 -1.885 0.11
3.174 3.6689999 -1.886 0.2
3.1730001 3.6800001 -1.8890001 0.2
3.1630001 3.691 -1.89 0.18000001
3.1500001 3.7 -1.8890001 0.1
3.138 3.71 -1.8890001 0.090000004
3.1359999 3.7309999 -1.895 0.17
3.1170001 3.7320001 -1.891 0.23
3.1070001 3.743 -1.891 0.090000004
3.098 3.7449999 -1.89 0.18000001
3.0940001 3.7639999 -1.8940001 0.2
3.0840001 3.776 -1.896 0.1
3.082 3.7969999 -1.902 0.2
3.066 3.803 -1.9 0.050000001
3.052 3.809 -1.898 0.16
3.043 3.823 -1.901 0.11
3.026 3.826 -1.897 0.18000001
3.029 3.842 -1.903 0.1
3.016 3.8499999 -1.902 0.19
3.0079999 3.865 -1.905 0.1
3.0039999 3.885 -1.91 0.17
2.984 3.8840001 -1.905 0.050000001
2.9719999 3.895 -1.906 0.17
2.964 3.9089999 -1.908 0.19
2.954 3.9089999 -1.906 0.23
2.948 3.927 -1.91 0.2
2.9400001 3.9419999 -1.914 0.1
2.9349999 3.96 -1.918 0.17
2.918 3.964 -1.915 0.23
2.9070001 3.9760001 -1.9170001 0.090000004
2.898 3.9890001 -1.919 0.20999999
2.892 3.994 -1.919 0.19
2.8840001 4.0089998 -1.9220001 0.1
2.8710001 4.0180001 -1.9220001 0.18000001
2.8640001 4.0349998 -1.926 0.22
2.8499999 4.0419998 -1.925 0.17
2.8429999 4.059 -1.929 0.090000004
2.832 4.0710001 -1.9299999 0.17
2.8269999 4.0770001 -1.931 0.050000001
2.8099999 4.079 -1.928 0.15000001
2.809 4.1069999 -1.937 0.1
2.789 4.105 -1.932 0.18000001
2.7809999 4.1209998 -1.936 0.1
2.7650001 4.125 -1.933 0.18000001
2.76 4.1459999 -1.939 0.11
2.747 4.1399999 -1.934 0.2
2.7460001 4.1669998 -1.943 0.19
2.7320001 4.1739998 -1.943 0.1
2.7190001 4.1820002 -1.943 0.090000004
2.7049999 4.191 -1.943 0.18000001
2.6960001 4.2059999 -1.946 0.2
2.674 4.1999998 -1.939 0.18000001
2.678 4.2350001 -1.952 0.25
2.6659999 4.2309999 -1.948 0.23999999
2.654 4.2410002 -1.949 0.2
2.6459999 4.2589998 -1.9529999 0.27000001
2.632 4.2659998 -1.952 0.25
2.6170001 4.2729998 -1.952 0.25999999
2.6140001 4.2969999 -1.959 0.27000001
2.5940001 4.2950001 -1.955 0.27000001
2.595 4.3119998 -1.961 0.25
2.5840001 4.3249998 -1.9630001 0.30000001
2.572 4.335 -1.964 0.31
2.5480001 4.3249998 -1.955 0.28999999
2.5380001 4.3400002 -1.959 0.25
2.523 4.3460002 -1.9579999 0.38999999
2.5120001 4.3590002 -1.96 0.31
2.5079999 4.3670001 -1.962 0.28999999
2.493 4.3720002 -1.961 0.28999999
2.47 4.3639998 -1.9529999 0.30000001
2.4549999 4.3699999 -1.952 0.31999999
2.441 4.3759999 -1.952 0.27000001
2.418 4.3670001 -1.944 0.25
2.402 4.3699999 -1.942 0.38
2.392 4.369 -1.939 0.31
2.3759999 4.3709998 -1.937 0.23999999
2.368 4.3899999 -1.943 0.44999999
2.3469999 4.3829999 -1.936 0.13
2.3299999 4.3850002 -1.933 0.31999999
2.312 4.3850002 -1.9299999 0.2
2.2909999 4.3769999 -1.923 0.20999999
2.28 4.3720002 -1.919 0.22
2.27 4.388 -1.923 0.11
2.2490001 4.3800001 -1.916 0.2
2.2379999 4.3940001 -1.919 0.11
2.214 4.3790002 -1.909 0.19
2.2060001 4.3979998 -1.914 0.1
2.1889999 4.3979998 -1.911 0.2
2.1860001 4.4099998 -1.915 0.11
2.1589999 4.3899999 -1.903 0.2
2.1459999 4.3979998 -1.904 0.2
2.128 4.395 -1.899 0.090000004
2.115 4.4050002 -1.901 0.18000001
