# .PCD v0.7 - Point Cloud Data file format
VERSION 0.7
FIELDS x y z intensity
SIZE 4 4 4 4
TYPE F F F F
COUNT 1 1 1 1
WIDTH 1384
HEIGHT 1
VIEWPOINT 0 0 0 1 0 0 0
POINTS 1384
DATA ascii
28.882 -28.948999 -0.65200001 0.2
28.929001 -28.813999 -0.65100002 0.16
29.132 -28.834 -0.65399998 0
29.561001 -29.077 -0.66399997 0.07
29.763 -29.091 -0.66799998 0
29.785 -28.931 -0.66600001 0
28.452 -27.548 -0.625 0
28.493 -27.414 -0.62400001 0
28.580999 -27.327 -0.62400001 0
28.681999 -27.250999 -0.62400001 0
28.792999 -27.184999 -0.625 0
28.889999 -27.106001 -0.62599999 0
28.982 -27.021999 -0.62599999 0
29.059 -27.007 -0.62699997 0
29.146 -26.919001 -0.62699997 0
29.254 -26.849001 -0.62699997 0
29.358999 -26.775999 -0.62800002 0
29.458 -26.697001 -0.62900001 0
29.561001 -26.621 -0.62900001 0
29.65 -26.534 -0.62900001 0
29.714001 -26.507 -0.63 0
29.823999 -26.437 -0.63099998 0
29.916 -26.351999 -0.63099998 0
29.933001 -26.198999 -0.62900001 0.11
29.917 -26.02 -0.62599999 0.11
30.041 -25.879999 -0.62599999 0.51999998
30.063 -25.735001 -0.625 0
30.469 -25.917999 -0.634 0
30.582001 -25.849001 -0.63499999 0
30.700001 -25.784 -0.63599998 0.090000004
30.726999 -25.642 -0.634 0.11
30.76 -25.506001 -0.63300002 0.41
30.805 -25.461 -0.63300002 0.22
37.096001 -30.473 -0.80199999 0.33000001
37.096001 -30.278 -0.79900002 0.2
37.097 -30.084999 -0.796 0.34999999
37.094002 -29.889 -0.79400003 0.18000001
37.109001 -29.709999 -0.792 0.34999999
37.043999 -29.562 -0.78899997 0.18000001
37.063999 -29.388 -0.787 0.34999999
37.112 -29.237 -0.78600001 0.2
37.173 -29.096001 -0.78500003 0
37.698002 -29.316999 -0.796 0
38.104 -29.441 -0.80500001 0
37.165001 -28.436001 -0.77600002 0
38.738998 -29.448999 -0.815 0
37.007999 -27.766001 -0.76499999 0.19
37.022999 -27.596001 -0.76300001 0.38
37.008999 -27.406 -0.76099998 0.22
37.021 -27.235001 -0.759 0.2
36.983002 -27.117001 -0.75700003 0.38
36.963001 -26.924 -0.75400001 0.22
36.974998 -26.754999 -0.75199997 0.2
36.980999 -26.583 -0.75 0.38
36.974998 -26.403 -0.74800003 0.22
36.984001 -26.233999 -0.74599999 0.20999999
36.98 -26.056999 -0.74299997 0.38
37.015999 -25.995001 -0.74299997 0.19
37.074001 -25.863001 -0.74299997 0
37.043999 -25.156 -0.73400003 0
36.876999 -24.620001 -0.72500002 0.13
36.919998 -24.482 -0.72399998 0.38
36.91 -24.309 -0.722 0.23
36.903 -24.138 -0.72000003 0.18000001
36.922001 -23.985001 -0.71799999 0.38999999
36.876999 -23.874001 -0.71600002 0.22
36.870998 -23.705999 -0.71399999 0.19
36.884998 -23.551001 -0.713 0.38999999
36.877998 -23.384001 -0.71100003 0.23
36.865002 -23.212999 -0.708 0.2
36.886002 -23.065001 -0.70700002 0.38999999
36.889 -22.906 -0.70499998 0.22
36.827999 -22.788 -0.70300001 0.18000001
37.019001 -22.746 -0.70599997 0.17
37.125999 -22.650999 -0.70700002 0
37.292 -22.194 -0.70499998 0
36.757 -21.408001 -0.68699998 0.090000004
36.807999 -21.283001 -0.68599999 0.23999999
36.787998 -21.118 -0.68400002 0.19
36.825001 -20.985001 -0.68400002 0.41999999
36.773998 -20.879999 -0.68199998 0.25
36.777 -20.729 -0.68000001 0.27000001
36.771999 -20.573999 -0.67799997 0.27000001
36.785999 -20.43 -0.67699999 0.27000001
36.789001 -20.281 -0.676 0.27000001
22.221001 -12.147 -0.32600001 0
22.247 -12.116 -0.32600001 0.12
13.41 -7.1830001 -0.114 0.36000001
13.445 -7.1469998 -0.114 0.52999997
36.895 -19.516001 -0.67000002 0.23
36.894001 -19.367001 -0.66900003 0
37.847 -19.716 -0.69 0
38.082001 -19.763 -0.69499999 0
36.919998 -18.865999 -0.66399997 0.34
37.001999 -18.761 -0.66500002 0
39.133999 -19.690001 -0.713 0
39.400002 -19.669001 -0.71799999 0
36.688 -18.169001 -0.653 0.11
36.672001 -18.089001 -0.65200001 0.28
36.668999 -17.945 -0.65100002 0.28999999
36.681999 -17.809 -0.64999998 0.28999999
36.660999 -17.656 -0.648 0.28
36.681999 -17.524 -0.64700001 0.27000001
36.682999 -17.382999 -0.64600003 0.28
36.639 -17.292 -0.64399999 0.28
36.646 -17.155001 -0.64300001 0.27000001
36.658001 -17.021 -0.64200002 0.28999999
36.647999 -16.875999 -0.64099997 0.28
36.639 -16.733 -0.639 0.28
36.630001 -16.589001 -0.63800001 0.2
26.003 -11.67 -0.39300001 0.34999999
26.023001 -11.63 -0.39300001 0.34
26.076 -11.555 -0.39300001 0.30000001
36.911999 -16.231001 -0.63999999 0.28999999
36.972 -16.118999 -0.64099997 0.23
36.931 -15.963 -0.639 0.27000001
36.883999 -15.805 -0.63599998 0.19
36.813 -15.638 -0.634 0.23999999
36.845001 -15.583 -0.634 0.41
36.806999 -15.431 -0.63200003 0.20999999
36.826 -15.303 -0.63099998 0.31
13.506 -5.4949999 -0.101 0.38
36.583 -14.799 -0.62199998 0
21.983999 -8.802 -0.29100001 0
33.933998 -13.54 -0.56099999 0.13
33.893002 -13.4 -0.55900002 0.2
18.908001 -7.3260002 -0.22 0.47999999
18.934 -7.2680001 -0.22 0.23
19.028 -7.2350001 -0.222 0.34
19.051001 -7.21 -0.222 0.17
34.271 -12.869 -0.56300002 0.20999999
36.521 -13.585 -0.61199999 0.23
36.530998 -13.458 -0.611 0.31
36.516998 -13.323 -0.61000001 0.28999999
36.514999 -13.192 -0.60900003 0.25999999
36.514999 -13.063 -0.60799998 0.19
36.716 -13.07 -0.61199999 0.50999999
36.984001 -13.034 -0.61699998 0
39.515999 -13.65 -0.67199999 0.090000004
20.115 -6.7940001 -0.23999999 0.20999999
20.129 -6.7280002 -0.23999999 0.56999999
20.372 -6.7740002 -0.245 0
20.190001 -6.6430001 -0.241 0
39.487 -12.881 -0.66600001 0
36.465 -11.64 -0.59799999 0.28999999
36.466999 -11.514 -0.597 0.30000001
36.456001 -11.448 -0.59600002 0.30000001
36.437 -11.316 -0.59500003 0.30000001
36.438 -11.191 -0.59399998 0.31
36.438 -11.066 -0.59299999 0.30000001
36.442001 -10.942 -0.59299999 0.31
36.460999 -10.823 -0.59200001 0.33000001
36.455002 -10.697 -0.59200001 0.31
36.271999 -10.581 -0.58700001 0.33000001
36.428001 -10.503 -0.58999997 0.25
33.167 -9.4469995 -0.51800001 0.14
36.443001 -10.26 -0.58899999 0.38999999
29.299999 -8.1440001 -0.433 0.25
29.044001 -7.9749999 -0.426 0.25999999
29.018 -7.9180002 -0.426 0.23
29.039 -7.8260002 -0.426 0.34999999
29.110001 -7.7470002 -0.42699999 0.25
29.246 -7.6849999 -0.42899999 0.34999999
29.222 -7.5809999 -0.428 0.19
29.238001 -7.487 -0.428 0.31
29.391001 -7.428 -0.43099999 0.25
29.354 -7.3699999 -0.43000001 0.13
29.385 -7.2789998 -0.43000001 0.49000001
29.535999 -7.2179999 -0.43200001 0.25
29.485001 -7.1079998 -0.43099999 0.2
29.534 -7.0209999 -0.43099999 0.38
29.681999 -6.9580002 -0.43399999 0.25999999
29.624001 -6.8470001 -0.43200001 0.15000001
29.677999 -6.8099999 -0.433 0.31999999
29.709 -6.7189999 -0.43399999 0.1
33.224998 -7.408 -0.509 0.16
33.304001 -7.316 -0.50999999 0.12
32.592999 -7.0510001 -0.49399999 0.15000001
32.287998 -6.8790002 -0.48699999 0.13
32.283001 -6.8249998 -0.48699999 0.44
32.125999 -6.6859999 -0.48300001 0.23999999
32.162998 -6.5890002 -0.48300001 0.14
32.115002 -6.474 -0.48199999 0.17
32.667999 -6.4790001 -0.493 0.14
32.506001 -6.3410001 -0.48899999 0.17
32.541 -6.2410002 -0.49000001 0.44999999
32.507999 -6.1820002 -0.48899999 0.23
32.884998 -6.1469998 -0.49599999 0.22
32.521 -5.973 -0.48800001 0.17
32.191002 -5.8080001 -0.48100001 0.17
37.810001 -6.7030001 -0.60000002 0
38.242001 -6.6560001 -0.60900003 0.079999998
38.283001 -6.54 -0.60900003 0.14
37.950001 -6.421 -0.602 0.18000001
38.617001 -6.4099998 -0.616 0
38.702 -6.2989998 -0.61699998 0.11
38.491001 -6.1409998 -0.61199999 0.16
38.610001 -6.0349998 -0.61400002 0.12
38.414001 -5.881 -0.61000001 0.36000001
38.432999 -5.822 -0.61000001 0.2
38.366001 -5.6890001 -0.60799998 0.1
42.032001 -6.0999999 -0.685 0.14
42.044998 -5.967 -0.685 0.14
42.097 -5.8400002 -0.68599999 0.25999999
42.068001 -5.7010002 -0.685 0.20999999
42.098 -5.5700002 -0.685 0.20999999
42.164001 -5.5120001 -0.68699998 0.15000001
42.307999 -5.395 -0.68900001 0.13
42.056999 -5.2290001 -0.68400002 0
44.091999 -5.3429999 -0.72600001 0
44.480999 -5.2480001 -0.73400003 0
49.306999 -5.6630001 -0.83600003 0
48.668999 -5.4349999 -0.82200003 0.059999999
49.150002 -5.4109998 -0.83200002 0
50.131001 -5.3600001 -0.852 0.07
49.834999 -5.1700001 -0.84500003 0
49.879002 -5.0159998 -0.84600002 0
49.879002 -4.8579998 -0.84600002 0
49.424 -4.6570001 -0.83600003 0.12
49.462002 -4.5040002 -0.83600003 0
49.639 -4.441 -0.83999997 0
50.692001 -4.375 -0.86199999 0.13
50.805 -4.224 -0.86400002 0.28
50.804001 -4.0640001 -0.86400002 0.11
50.806999 -3.9030001 -0.86299998 0.15000001
50.792999 -3.7420001 -0.86299998 0.1
50.797001 -3.6619999 -0.86299998 0
55.783001 -3.848 -0.96700001 0
58.433998 -3.6630001 -1.023 0
58.442001 -3.4790001 -1.022 0
63.577 -3.5869999 -1.13 0
63.861 -3.402 -1.136 0
64.269997 -3.322 -1.1440001 0
65.632004 -3.187 -1.173 0
33.347 -1.396 -0.495 0.14
33.212002 -1.286 -0.49200001 0
35.707001 -0.87900001 -0.54400003 0
35.736 -0.54299998 -0.54400003 0
35.737 -0.48699999 -0.54400003 0.029999999
36.063 -0.26499999 -0.551 0
35.854 -0.15099999 -0.54699999 0
36.801998 -0.039999999 -0.56699997 0
40.775002 0.029999999 -0.85900003 0
54.699001 0.39300001 -1.222 0
55.064999 0.56900001 -1.2309999 0
55.534 0.662 -1.244 0
55.507 0.83600003 -1.243 0
55.196999 1.0039999 -1.235 0
52.648998 4.5240002 -1.173 0
52.308998 4.6599998 -1.165 0
52.201 4.7329998 -1.1619999 0
52.102001 4.8889999 -1.16 0
52.025002 5.0469999 -1.158 0
51.959 5.2049999 -1.1569999 0
51.889999 5.3629999 -1.156 0
51.813999 5.52 -1.154 0
51.778 5.6799998 -1.154 0
51.564999 6.0669999 -1.149 0
51.451 6.2179999 -1.147 0
51.387001 6.3740001 -1.146 0
51.351002 6.533 -1.145 0
51.313 6.6100001 -1.1440001 0.1
51.105999 6.7470002 -1.14 0
50.006001 6.7610002 -1.1109999 0
49.077999 6.7919998 -1.087 0
48.313999 6.8410001 -1.068 0
47.828999 6.9250002 -1.056 0
47.422001 7.0180001 -1.045 0.059999999
47.09 7.0440001 -1.0369999 0.15000001
46.785 7.1490002 -1.03 0
46.164001 7.2020001 -1.0140001 0
45.352001 7.2210002 -0.99299997 0.1
46.551998 7.5630002 -1.025 0.16
46.451 7.6960001 -1.023 0.16
46.34 7.7529998 -1.021 0.090000004
44.612999 7.6069999 -0.97500002 0
44.216999 7.6820002 -0.96600002 0
45.854 8.1160002 -1.01 0.12
45.777 8.2510004 -1.008 0.12
37.437 6.8639998 -0.78799999 0.34
37.422001 6.9829998 -0.78799999 0.20999999
37.678001 7.092 -0.79500002 0
44.672001 8.559 -0.98100001 0
35.347 6.882 -0.73400003 0
45.922001 9.099 -1.016 0
45.898998 9.2440004 -1.016 0
33.658001 6.882 -0.69099998 0
45.679001 9.4989996 -1.012 0
45.556999 9.5480003 -1.0089999 0
45.450001 9.6750002 -1.007 0
45.368999 9.8070002 -1.006 0.079999998
30.615 6.71 -0.61299998 0
45.169998 10.061 -1.002 0.1
32.764 7.507 -0.67199999 0.33000001
32.779999 7.5650001 -0.67299998 0.11
15.279 3.562 -0.204 0.20999999
15.297 3.6170001 -0.205 0.51999998
15.231 3.652 -0.204 0.16
15.492 3.767 -0.211 0.22
15.383 3.7909999 -0.208 0.43000001
15.313 3.799 -0.207 0.36000001
15.252 3.835 -0.205 0.44999999
15.229 3.8800001 -0.205 0.63
15.222 3.9300001 -0.205 0.44
15.119 3.9530001 -0.20299999 0.46000001
15.124 4.006 -0.20299999 0.31999999
15.264 4.0939999 -0.207 0.46000001
15.29 4.1269999 -0.208 0.68000001
15.381 4.204 -0.211 0
42.794998 11.889 -0.954 0
42.638 11.99 -0.94999999 0
42.528999 12.103 -0.94800001 0
42.417999 12.216 -0.94599998 0
42.301998 12.254 -0.94400001 0
42.203999 12.37 -0.94199997 0
24.003 7.1880002 -0.449 0.18000001
24.231001 7.3390002 -0.45500001 0
41.662998 12.782 -0.93199998 0
41.507999 12.877 -0.92900002 0
41.360001 12.902 -0.92500001 0
41.252998 13.011 -0.92299998 0
41.103001 13.106 -0.92000002 0
41.026001 13.223 -0.91900003 0
40.905998 13.326 -0.917 0
40.712002 13.405 -0.91299999 0.11
19.499001 6.474 -0.331 0.15000001
19.743 6.5900002 -0.338 0
40.202 13.588 -0.90200001 0
40.102001 13.694 -0.89999998 0
39.984001 13.794 -0.898 0
39.861 13.892 -0.89600003 0
39.734001 13.988 -0.89399999 0
39.611 14.084 -0.89200002 0
39.462002 14.101 -0.88800001 0
39.362999 14.206 -0.88700002 0
39.27 14.311 -0.88499999 0
39.162998 14.412 -0.884 0
39.055 14.512 -0.88200003 0
38.942001 14.609 -0.88 0
38.842999 14.641 -0.87800002 0
38.724998 14.736 -0.87599999 0
38.574001 14.818 -0.87300003 0
38.429001 14.9 -0.87 0
38.285 14.983 -0.86699998 0
38.139 15.064 -0.86500001 0
38.002998 15.148 -0.86199999 0
37.880001 15.169 -0.85900003 0
37.757 15.257 -0.85699999 0
37.639999 15.347 -0.85500002 0
37.556999 15.451 -0.85399997 0
37.453999 15.547 -0.85299999 0
37.314999 15.626 -0.85000002 0
37.209999 15.72 -0.84899998 0
37.091999 15.739 -0.84600002 0
36.966999 15.823 -0.84399998 0
36.828999 15.901 -0.84100002 0
36.740002 16 -0.83999997 0
36.589001 16.070999 -0.83700001 0
36.451 16.146999 -0.83499998 0
36.345001 16.167999 -0.833 0
36.207001 16.243 -0.82999998 0
35.924 16.252001 -0.824 0
35.886002 16.370001 -0.824 0
35.717999 16.429001 -0.82099998 0
35.541 16.483 -0.81699997 0
35.393002 16.549999 -0.81400001 0
35.256001 16.554001 -0.81099999 0
35.096001 16.613001 -0.80800003 0
34.952999 16.68 -0.80500001 0
34.623001 16.656 -0.79699999 0
34.613998 16.785999 -0.79799998 0
34.452 16.841 -0.79500002 0
34.313 16.906 -0.79299998 0
34.247002 16.941 -0.792 0
34.034 16.969 -0.787 0
33.900002 17.035 -0.78500003 0
33.698002 17.066999 -0.77999997 0
33.589001 17.143999 -0.77899998 0
33.422001 17.191 -0.77499998 0
33.363998 17.228001 -0.77399999 0
33.220001 17.285 -0.77200001 0
33.051998 17.33 -0.76800001 0.11
32.874001 17.368 -0.76499999 0.090000004
32.786999 17.455 -0.764 0
32.693001 17.537001 -0.76300001 0
32.534 17.583 -0.75999999 0
32.331001 17.539 -0.75400001 0
31.899 17.434 -0.74299997 0
31.825001 17.524 -0.74299997 0
31.726 17.599001 -0.741 0
31.591999 17.655001 -0.73900002 0
31.577999 17.777 -0.74000001 0
31.091 17.632 -0.727 0.1
30.874001 17.573 -0.722 0.2
30.579 17.532 -0.71399999 0.20999999
30.517 17.624001 -0.71399999 0.2
30.5 17.742001 -0.71499997 0.41
30.440001 17.836 -0.71499997 0.23
30.448 17.969 -0.71700001 0.25999999
30.455999 18.103001 -0.71899998 0.22
30.472 18.177999 -0.72100002 0.15000001
30.271 18.187 -0.71600002 0.079999998
29.667 17.950001 -0.69999999 0.15000001
29.532 17.995001 -0.69700003 0.30000001
29.537001 18.125999 -0.699 0.23
29.532 18.250999 -0.70099998 0.34
29.379 18.219999 -0.69700003 0.25
29.249001 18.267 -0.69499999 0.28999999
29.038 18.261999 -0.69 0.23
28.837999 18.263 -0.685 0.2
28.653999 18.273001 -0.68199998 0.16
28.466 18.278 -0.67699999 0.43000001
28.277 18.283001 -0.67299998 0.23
28.108999 18.237 -0.66900003 0.18000001
27.923 18.240999 -0.66500002 0.41999999
27.726 18.236 -0.66100001 0.25
27.546 18.242001 -0.65700001 0.2
27.365999 18.247 -0.653 0.28999999
26.950001 18.091999 -0.64200002 0.11
27.003 18.188999 -0.64399999 0
26.655001 18.076 -0.63499999 0
26.355 17.993 -0.62699997 0.13
26.481001 18.202 -0.63300002 0.23999999
26.312 18.208 -0.63 0.30000001
26.115 18.193001 -0.625 0.19
25.966999 18.211 -0.62199998 0.25
25.797001 18.152 -0.61799997 0.20999999
25.641001 18.163 -0.61500001 0.18000001
25.476 18.166 -0.611 0.16
25.221001 18.104 -0.60500002 0.13
25.135 18.162001 -0.60399997 0.18000001
24.993999 18.18 -0.60100001 0.41999999
24.836 18.125 -0.597 0.25
24.669001 18.122 -0.59399998 0.25999999
24.517 18.129 -0.58999997 0.28999999
24.367001 18.136999 -0.58700001 0.28999999
24.202999 18.132999 -0.58399999 0.28999999
24.077999 18.157 -0.58200002 0.28
21.021999 15.952 -0.48300001 0.27000001
21.030001 16.011 -0.48500001 0.14
21.716999 16.643 -0.509 0.15000001
21.882 16.879 -0.51599997 0.38999999
21.073 16.358999 -0.491 0
23.156 18.097 -0.56199998 0.1
22.007 17.309999 -0.52499998 0.14
20.823 16.535 -0.48899999 0.56999999
20.754999 16.587999 -0.48800001 0.20999999
18.002001 14.476 -0.398 0.18000001
17.902 14.489 -0.396 0.28999999
17.785 14.487 -0.39300001 0.18000001
17.679001 14.493 -0.391 0.16
17.556999 14.485 -0.389 0.13
17.471001 14.46 -0.38699999 0.16
17.368999 14.468 -0.38499999 0.28
17.274 14.481 -0.38299999 0.19
17.198999 14.511 -0.382 0.14
17.023001 14.453 -0.37799999 0.27000001
16.851 14.399 -0.373 0.20999999
16.753 14.36 -0.37099999 0.47999999
16.643 14.356 -0.368 0.34
16.591 14.403 -0.368 0.34
16.396 14.415 -0.36500001 0.55000001
16.370001 14.483 -0.36500001 0.34
16.323 14.533 -0.36500001 0.63999999
16.337 14.592 -0.366 0.38999999
16.316 14.666 -0.36700001 0.36000001
16.295 14.74 -0.368 0.38
16.292 14.83 -0.37 0.34
16.267 14.902 -0.37099999 0.31999999
16.239 14.971 -0.37099999 0.44
16.264 15.041 -0.373 0.30000001
16.216999 15.092 -0.373 0.5
16.209999 15.181 -0.37400001 0.30000001
16.190001 15.258 -0.375 0.55000001
16.190001 15.354 -0.377 0.31999999
16.146999 15.411 -0.377 0.63
16.122 15.483 -0.37799999 0.25
17.716999 17.073 -0.43700001 0.34
17.705 17.169001 -0.43799999 0.38
17.698 17.27 -0.44 0.37
17.691999 17.372999 -0.442 0.37
17.686001 17.476999 -0.44400001 0.36000001
17.679001 17.58 -0.44499999 0.36000001
17.67 17.681999 -0.447 0.38999999
17.688999 17.757 -0.449 0.27000001
15.173 15.322 -0.35800001 0.34
15.136 15.381 -0.35800001 0.62
14.994 15.332 -0.35499999 0.23
14.905 15.338 -0.35299999 0.44
14.822 15.349 -0.352 0.20999999
14.716 15.334 -0.34900001 0.1
14.663 15.327 -0.34799999 0
14.56 15.315 -0.34599999 0.1
14.433 15.278 -0.34299999 0.16
14.027 14.941 -0.33000001 0.40000001
13.934 14.935 -0.32800001 0.27000001
13.843 14.932 -0.32600001 0.38999999
13.752 14.927 -0.32499999 0.25
13.711 14.929 -0.324 0.18000001
13.588 14.889 -0.32100001 0.5
13.515 14.902 -0.31999999 0.30000001
13.433 14.906 -0.31900001 0.47999999
13.345 14.902 -0.317 0.34
13.265 14.906 -0.31600001 0.38
13.203 14.884 -0.31400001 0.30000001
13.117 14.88 -0.31299999 0.37
13.041 14.888 -0.31099999 0.25
5.243 6 -0.003 0.34999999
5.198 5.9860001 -0.0020000001 0.36000001
5.1620002 5.9829998 -0.001 0.36000001
5.1389999 5.994 -0.001 0.37
5.1069999 5.9749999 -0 0.33000001
5.079 5.98 0 0.36000001
5.0560002 5.9920001 0 0.36000001
5.0170002 5.9829998 0.001 0.38
5.0009999 6.0019999 0.001 0.38
4.973 6.006 0.001 0.43000001
5.0139999 6.0760002 -0.001 0.33000001
4.9790001 6.072 -0 0.49000001
12.211 15.049 -0.301 0.2
12.19 15.12 -0.30199999 0.30000001
12.17 15.192 -0.303 0.43000001
12.186 15.31 -0.30599999 0.34999999
12.167 15.386 -0.30700001 0.31999999
12.191 15.467 -0.30899999 0.37
12.192 15.568 -0.31099999 0.34
12.177 15.65 -0.31200001 0.31
12.172 15.746 -0.31400001 0.37
12.176 15.854 -0.317 0.31
12.165 15.943 -0.31799999 0.38
12.16 16.041 -0.31999999 0.34999999
12.185 16.125999 -0.322 0.31
12.166 16.207001 -0.324 0.31999999
12.162 16.308001 -0.32600001 0.33000001
12.171 16.427999 -0.32800001 0.38
12.15 16.507999 -0.33000001 0.30000001
12.15 16.617001 -0.33199999 0.36000001
12.144 16.719 -0.33399999 0.34
12.165 16.804001 -0.336 0.33000001
12.163 16.912001 -0.338 0.27000001
12.124 16.971001 -0.33899999 0.36000001
12.048 16.976999 -0.338 0.31999999
11.974 16.985001 -0.33700001 0.34
11.958 17.077 -0.33899999 0.36000001
11.949 17.177999 -0.34099999 0.34999999
11.981 17.283001 -0.34400001 0.33000001
11.975 17.391001 -0.34599999 0.23999999
11.933 17.447001 -0.34599999 0.31999999
11.845 17.434 -0.345 0.46000001
11.772 17.445 -0.34400001 0.31999999
11.689 17.440001 -0.34299999 0.41999999
11.612 17.444 -0.34200001 0.44999999
11.627 17.525 -0.34400001 0.34
11.616 17.629 -0.34599999 0.44
11.622 17.76 -0.34900001 0.20999999
11.562 17.790001 -0.34900001 0.69999999
11.681 18.097 -0.35699999 0.19
11.921 18.599001 -0.37099999 0
11.946 18.702999 -0.37400001 0
9.3620005 14.748 -0.25099999 0.16
9.283 14.727 -0.249 0.16
11.052 17.790001 -0.34099999 0.37
10.995 17.823 -0.34099999 0.63999999
10.857 17.722 -0.33700001 0
12.183 19.962999 -0.405 0
12.185 20.108999 -0.40799999 0
9.2790003 15.41 -0.264 0.059999999
10.466 17.766001 -0.333 0.54000002
10.418 17.747999 -0.33199999 0.47999999
10.493 18.004999 -0.33899999 0
10.22 17.792999 -0.33000001 0
8.2069998 14.382 -0.227 0
9.8179998 17.341999 -0.315 0
9.441 16.860001 -0.29899999 0.12
8.1199999 14.601 -0.23100001 0.30000001
8.0539999 14.589 -0.23 0.41
8.007 14.613 -0.23 0.46000001
7.9829998 14.678 -0.23100001 0.37
9.1110001 16.886999 -0.296 0.31999999
9.0410004 16.884001 -0.29499999 0.31
8.9960003 16.863001 -0.294 0.55000001
8.0860004 15.268 -0.24600001 0.2
9.0249996 17.177 -0.301 0.19
9.0229998 17.305 -0.30399999 0.2
8.9770002 17.351 -0.30500001 0.50999999
8.9180002 17.370001 -0.30399999 0.28
8.8459997 17.363001 -0.303 0.50999999
8.7969999 17.334999 -0.30199999 0.52999997
8.7419996 17.361 -0.30199999 0.27000001
7.3740001 14.75 -0.22499999 0.23999999
7.2719998 14.661 -0.222 0.15000001
8.6709995 17.632999 -0.308 0.2
8.6400003 17.711 -0.30899999 0.63999999
7.6020002 15.701 -0.25 0.38999999
7.434 15.414 -0.242 0
7.3930001 15.453 -0.242 0
8.9770002 18.929001 -0.34200001 0
8.9770002 19.084999 -0.345 0
6.875 14.723 -0.219 0.029999999
8.1210003 17.766001 -0.30500001 0.66000003
8.099 17.865999 -0.30700001 0
7.9780002 17.745001 -0.303 0
6.849 15.355 -0.234 0
7.4809999 17.746 -0.29699999 0.67000002
7.5019999 17.954 -0.303 0
6.2639999 15.32 -0.227 0.20999999
6.2329998 15.38 -0.228 0.13
6.8829999 17.305 -0.28099999 0.47999999
6.8309999 17.333 -0.28099999 0.33000001
6.743 17.266001 -0.27900001 0.62
6.5089998 16.823 -0.266 0.31
6.4689999 16.798 -0.26499999 0.30000001
6.414 16.809999 -0.264 0.31
6.3569999 16.819 -0.264 0.34
6.2930002 16.811001 -0.26300001 0.55000001
5.6690001 15.283 -0.22 0.18000001
6.1700001 16.801001 -0.26199999 0.38
6.1360002 16.792 -0.26100001 0.33000001
6.086 16.819 -0.26199999 0.30000001
6.0809999 16.969999 -0.26499999 0.40000001
6.0609999 17.084999 -0.26800001 0.27000001
6.0669999 17.275999 -0.273 0.19
6.0079999 17.280001 -0.27200001 0.60000002
5.954 17.299999 -0.27200001 0.31999999
5.9109998 17.261999 -0.271 0.56
5.8610001 17.292 -0.271 0.31
5.7940001 17.273001 -0.27000001 0.52999997
5.8080001 17.497999 -0.27599999 0.57999998
5.0560002 15.385 -0.21799999 0.22
5.6989999 17.539 -0.27599999 0.18000001
5.6259999 17.5 -0.27500001 0
4.915 15.36 -0.21600001 0
4.8600001 15.354 -0.215 0.07
5.506 17.601 -0.27599999 0.15000001
5.3990002 17.646999 -0.27700001 0.28999999
5.3330002 17.629 -0.27599999 0.47
5.3080001 17.646999 -0.27599999 0.28
5.2399998 17.622 -0.27500001 0.56999999
5.1869998 17.643999 -0.27500001 0.27000001
5.1069999 17.575001 -0.273 0.60000002
5.0619998 17.628 -0.27399999 0.2
5 17.621 -0.273 0.31999999
4.9499998 17.653999 -0.273 0.31
4.9099998 17.617001 -0.27200001 0.62
4.855 17.634001 -0.27200001 0.30000001
4.7940001 17.628 -0.27200001 0.38999999
4.7399998 17.649 -0.27200001 0.34
4.6680002 17.604 -0.27000001 0.58999997
4.619 17.642 -0.271 0.23
4.559 17.639 -0.27000001 0.52999997
4.5289998 17.636 -0.27000001 0.64999998
4.4679999 17.629 -0.27000001 0.30000001
4.4060001 17.615999 -0.26899999 0.23
4.3470001 17.615999 -0.26800001 0.23999999
4.3590002 17.907 -0.27599999 0.57999998
3.6719999 15.276 -0.205 0.2
4.1739998 17.625 -0.26800001 0.30000001
3.592 15.26 -0.204 0.19
4.0840001 17.617001 -0.26699999 0.17
3.9389999 17.232 -0.25600001 0.37
3.8800001 17.223 -0.25600001 0.51999998
3.8299999 17.254999 -0.25600001 0.38999999
3.7620001 17.202 -0.25400001 0.67000002
3.6700001 17.040001 -0.25 0.40000001
3.5780001 16.736 -0.242 0.40000001
3.5190001 16.718 -0.241 0.37
3.4679999 16.735001 -0.241 0.38
3.414 16.738001 -0.241 0.38
3.3570001 16.729 -0.23999999 0.38999999
3.3010001 16.719999 -0.23999999 0.41
3.2479999 16.73 -0.23999999 0.34
3.2179999 16.714001 -0.23899999 0.34999999
3.165 16.724001 -0.23899999 0.46000001
3.125 16.799 -0.241 0.31999999
3.1170001 17.054001 -0.24699999 0.16
3.085 17.188 -0.25099999 0.63999999
2.698 15.293 -0.2 0.23999999
2.654 15.177 -0.197 0.49000001
2.8940001 17.211 -0.25 0.41
2.8399999 17.218 -0.25 0.34
2.7780001 17.179001 -0.249 0.63
2.7539999 17.375999 -0.25400001 0.20999999
2.7390001 17.643 -0.26100001 0.68000001
2.724 17.732 -0.26300001 0
2.6459999 17.593 -0.259 0
2.589 17.587 -0.259 0
2.533 17.591 -0.259 0
2.4809999 17.618999 -0.259 0
2.0869999 15.14 -0.19400001 0
2.365 17.594 -0.25799999 0.039999999
2.221 17.570999 -0.257 0.47
2.1700001 17.613001 -0.25799999 0.66000003
1.864 15.506 -0.20299999 0
2.0539999 17.577 -0.257 0
1.998 17.575001 -0.257 0
1.726 15.375 -0.199 0
1.913 17.569 -0.25600001 0
1.858 17.570999 -0.25600001 0
1.8 17.552 -0.255 0.14
1.488 15.44 -0.2 0.34
1.635 17.570999 -0.255 0.19
1.603 17.527 -0.25400001 0.56
1.551 17.563999 -0.255 0.68000001
1.495 17.565001 -0.255 0
1.438 17.552 -0.25400001 0.11
1.383 17.549999 -0.25400001 0.2
1.326 17.535999 -0.25400001 0.18000001
1.299 17.544001 -0.25400001 0.36000001
1.245 17.562 -0.25400001 0.2
1.188 17.532 -0.25400001 0.20999999
1.132 17.534 -0.25299999 0.18000001
1.02 17.500999 -0.252 0.66000003
0.94700003 17.169001 -0.244 0.36000001
0.91900003 17.156 -0.243 0.47
0.86500001 17.155001 -0.243 0.34
0.81099999 17.158001 -0.243 0.47999999
0.75700003 17.16 -0.243 0.34
0.70200002 17.132 -0.242 0.63
0.63200003 16.671 -0.23 0.37
0.579 16.653 -0.23 0.31999999
0.55199999 16.646 -0.23 0.38
0.5 16.635 -0.229 0.44999999
0.447 16.635 -0.229 0.38999999
0.39500001 16.643999 -0.229 0.33000001
0.34299999 16.629 -0.229 0.47999999
0.28999999 16.629999 -0.229 0.38
0.23800001 16.650999 -0.23 0.25999999
0.212 16.624001 -0.229 0.51999998
0.162 16.940001 -0.237 0.23999999
0.11 17.096001 -0.241 0.51999998
0.056000002 17.097 -0.241 0.15000001
0.0020000001 17.118999 -0.242 0.22
-0.052000001 17.129 -0.242 0.41999999
-0.105 17.138 -0.242 0.41
-0.132 17.115999 -0.242 0.55000001
-0.18799999 17.254 -0.245 0.34999999
-0.245 17.471001 -0.25099999 0.75
-0.301 17.525999 -0.252 0.23
-0.35499999 17.483 -0.25099999 0.55000001
-0.41100001 17.514 -0.252 0.28
-0.46599999 17.504 -0.252 0.47999999
-0.493 17.488001 -0.25099999 0.41
-0.54799998 17.49 -0.252 0.44999999
-0.60399997 17.514 -0.252 0.27000001
-0.65700001 17.472 -0.25099999 0.63
-0.71399999 17.511999 -0.252 0.25
-0.76800001 17.49 -0.252 0.62
-0.82200003 17.469 -0.25099999 0.56999999
-0.85100001 17.504 -0.252 0.81999999
-0.90600002 17.493 -0.252 0.81999999
-0.96200001 17.504 -0.252 0.75
-1.017 17.503 -0.252 0.49000001
-1.071 17.493999 -0.252 0.73000002
-1.127 17.506001 -0.25299999 0.34
-1.1799999 17.465 -0.252 0.75999999
-1.21 17.503 -0.25299999 0.31999999
-1.266 17.514999 -0.25299999 0.66000003
-1.319 17.483 -0.252 0.70999998
-1.3710001 17.445 -0.252 0.52999997
-1.425 17.43 -0.25099999 0.72000003
-1.482 17.454 -0.252 0.41999999
-1.511 17.462999 -0.252 0.34
-1.5650001 17.452999 -0.252 0.28999999
-1.6210001 17.459 -0.25299999 0.47
-1.675 17.445999 -0.252 0.28999999
-1.733 17.471001 -0.25299999 0.44
-1.7869999 17.461 -0.25299999 0.28
-1.841 17.445999 -0.25299999 0.25
-1.92 17.410999 -0.252 0.70999998
-1.95 17.181999 -0.24600001 0.25
-1.993 17.087 -0.244 0.43000001
-2.0469999 17.086 -0.244 0.43000001
-2.1010001 17.08 -0.244 0.43000001
-2.155 17.073 -0.244 0.43000001
-2.181 17.07 -0.244 0.43000001
-2.2309999 17.033001 -0.243 0.64999998
-2.016 15.049 -0.191 0.34
-2.289 16.662001 -0.234 0.2
-2.3280001 16.563999 -0.23100001 0.41
-2.381 16.561001 -0.23199999 0.38
-2.438 16.587 -0.23199999 0.34999999
-2.4619999 16.570999 -0.23199999 0.46000001
-2.5150001 16.569 -0.23199999 0.28999999
-2.5680001 16.566999 -0.23199999 0.41999999
-2.6199999 16.561001 -0.23199999 0.37
-2.6730001 16.558001 -0.233 0.34999999
-2.7279999 16.57 -0.233 0.47
-2.7880001 16.604 -0.234 0.20999999
-2.8900001 17.045 -0.24600001 0.44999999
-2.9489999 17.066 -0.24699999 0.34
-3.0020001 17.054001 -0.24699999 0.46000001
-3.0569999 17.052999 -0.24699999 0.38999999
-3.108 17.028999 -0.24699999 0.63999999
-3.2279999 17.375 -0.25600001 0
-3.2969999 17.440001 -0.25799999 0
-3.326 17.444 -0.25799999 0
-3.3800001 17.43 -0.25799999 0
-3.437 17.429001 -0.259 0
-3.494 17.427999 -0.259 0
-3.694 17.429001 -0.25999999 0.56999999
-3.7539999 17.443001 -0.26100001 0.67000002
-3.842 17.583 -0.26499999 0
-3.8640001 17.421 -0.26100001 0
-3.9260001 17.440001 -0.26100001 0
-3.9790001 17.42 -0.26100001 0
-4.0370002 17.423 -0.26199999 0
-4.0710001 17.445999 -0.26199999 0
-3.655 15.243 -0.204 0.23999999
-4.2950001 17.413 -0.26300001 0.54000002
-4.3559999 17.422001 -0.264 0.66000003
-4.4169998 17.551001 -0.26699999 0
-4.875 17.393999 -0.266 0.54000002
-4.9109998 17.311001 -0.26499999 0.56
-4.9229999 17.152 -0.26100001 0.20999999
-4.9349999 16.99 -0.257 0.54000002
-4.9990001 17.013 -0.25799999 0.33000001
-5.0250001 17.003 -0.25799999 0.54000002
-5.085 17.009001 -0.25799999 0.30000001
-5.1339998 16.976999 -0.25799999 0.54000002
-5.204 17.016001 -0.259 0.33000001
-5.243 16.952 -0.25799999 0.58999997
-5.257 16.812 -0.255 0.34999999
-5.263 16.646999 -0.25099999 0.25
-5.2459998 16.503 -0.24699999 0.40000001
-5.3010001 16.497999 -0.24699999 0.38
-5.3629999 16.513 -0.248 0.33000001
-5.415 16.497 -0.248 0.36000001
-5.4679999 16.483 -0.248 0.44999999
-5.5310001 16.497999 -0.249 0.37
-5.5830002 16.481001 -0.249 0.38999999
-5.6160002 16.495001 -0.25 0.34999999
-5.6739998 16.493999 -0.25 0.46000001
-5.8660002 16.875999 -0.26100001 0.25999999
-5.961 16.976 -0.264 0.34
-6.0149999 16.959 -0.26499999 0.63
-6.1269999 17.106001 -0.26899999 0
-6.1939998 17.122 -0.27000001 0
-6.316 17.374001 -0.27700001 0
-6.369 17.348 -0.27700001 0
-6.4359999 17.362 -0.278 0
-6.6789999 17.347 -0.28 0.55000001
-6.717 17.364 -0.28099999 0.66000003
-6.8520002 17.546 -0.28600001 0
-6.8439999 17.365999 -0.28200001 0
-6.895 17.334999 -0.28200001 0
-6.961 17.341 -0.28299999 0
-7.0250001 17.344 -0.28299999 0
-7.2350001 17.313 -0.285 0.49000001
-7.3070002 17.333 -0.28600001 0.66000003
-7.4450002 17.504999 -0.29100001 0
-4.5799999 10.473 -0.093000002 0.27000001
-4.5539999 10.327 -0.090000004 0.34
-4.5840001 10.307 -0.089000002 0.38
-4.612 10.282 -0.089000002 0.38999999
-4.6360002 10.251 -0.089000002 0.51999998
-4.6290002 10.193 -0.086999997 0.47
-4.6589999 10.173 -0.086999997 0.36000001
-7.8410001 16.938999 -0.28200001 0.31999999
-7.8990002 16.924 -0.28200001 0.31999999
-7.9530001 16.900999 -0.28200001 0.51999998
-8.0310001 16.927999 -0.28400001 0.30000001
-8.0819998 16.899 -0.28400001 0.5
-8.1239996 16.919001 -0.285 0.31
-8.1689997 16.877001 -0.28400001 0.58999997
-8.1929998 16.790001 -0.28200001 0.31
-8.1969995 16.667 -0.28 0.43000001
-8.1949997 16.532 -0.27599999 0.28999999
-8.21 16.431 -0.27399999 0.28999999
-8.2580004 16.398001 -0.27399999 0.34999999
-8.2980003 16.414 -0.27500001 0.31999999
-8.3590002 16.407 -0.27500001 0.47
-8.4209995 16.400999 -0.27599999 0.41
-7.9809999 15.427 -0.248 0.31999999
-8.5419998 16.382999 -0.27700001 0.2
-8.6059999 16.379 -0.278 0.36000001
-8.6820002 16.398001 -0.27900001 0.31999999
-4.9720001 9.3789997 -0.071999997 0.28999999
-4.987 9.3360004 -0.071000002 0.34
-5.013 9.316 -0.071000002 0.41
-5.0479999 9.3100004 -0.071000002 0.41
-5.0809999 9.3000002 -0.071999997 0.46000001
-5.1360002 9.3310003 -0.072999999 0.36000001
-9.6079998 17.280001 -0.31099999 0.20999999
-9.6490002 17.290001 -0.31200001 0.66000003
-9.7779999 17.392 -0.31600001 0
-8.5810003 15.048 -0.24699999 0
-8.6400003 15.042 -0.248 0
-8.7399998 15.104 -0.25 0
-10.174 17.261999 -0.31799999 0.28999999
-10.248 17.263 -0.31900001 0.67000002
-10.391 17.378 -0.32300001 0
-11.246 18.672001 -0.36399999 0
-11.249 18.544001 -0.361 0
-11.235 18.391001 -0.35699999 0
-11.216 18.295 -0.35499999 0.12
-11.211 18.159 -0.352 0.12
-10.792 17.24 -0.32600001 0.38999999
-10.821 17.166 -0.324 0.56999999
-10.825 17.054001 -0.322 0.36000001
-10.827 16.938999 -0.31999999 0.43000001
-10.807 16.85 -0.317 0.31999999
-10.868 16.827999 -0.31799999 0.47
-10.948 16.834999 -0.31900001 0.36000001
-11.008 16.812 -0.31900001 0.44999999
-11.101 16.837999 -0.32100001 0.36000001
-11.155 16.805 -0.32100001 0.52999997
-11.14 16.725 -0.31900001 0.34999999
-11.144 16.618999 -0.317 0.38
-11.154 16.521 -0.315 0.31999999
-11.146 16.398001 -0.31200001 0.28
-11.184 16.343 -0.31200001 0.40000001
-11.251 16.330999 -0.31200001 0.31999999
-11.323 16.325001 -0.31299999 0.34
-11.37 16.339001 -0.31400001 0.34
-11.453 16.347 -0.31600001 0.38
-11.517 16.329 -0.31600001 0.28999999
-11.605 16.344999 -0.31799999 0.44999999
-12.108 16.938999 -0.338 0
-12.538 17.138 -0.34900001 0.63999999
-12.716 17.266001 -0.354 0
-12.69 17.118999 -0.35100001 0
-14.521 19.454 -0.428 0
-14.474 19.264999 -0.42399999 0
-14.226 18.813 -0.41 0.039999999
-13.161 17.127001 -0.359 0.64999998
-13.324 17.226 -0.36300001 0
-14.181 18.212999 -0.39700001 0.059999999
-14.196 18.115 -0.39500001 0.14
-14.191 17.992001 -0.39300001 0.090000004
-14.167 17.903999 -0.391 0.14
-13.739 17.143 -0.368 0.31999999
-13.773 17.073999 -0.36700001 0.55000001
-13.793 16.989 -0.366 0.38999999
-13.788 16.875 -0.36399999 0.38999999
-13.792 16.773001 -0.36199999 0.34999999
-13.819 16.750999 -0.36199999 0.40000001
-13.889 16.729 -0.36199999 0.38
-13.977 16.728001 -0.36399999 0.38
-14.063 16.724001 -0.36500001 0.44999999
-14.119 16.683001 -0.36500001 0.46000001
-14.128 16.587999 -0.36300001 0.31
-14.132 16.487 -0.36199999 0.31
-14.107 16.406 -0.36000001 0.38999999
-14.107 16.302999 -0.35699999 0.28
-14.154 16.254 -0.35699999 0.34999999
-14.228 16.235001 -0.35800001 0.31999999
-14.291 16.204 -0.359 0.31
-14.296 16.108 -0.35699999 0.28999999
-14.286 15.994 -0.35499999 0.36000001
-14.271 15.927 -0.35299999 0.31999999
-14.275 15.832 -0.35100001 0.36000001
-14.267 15.723 -0.34900001 0.31
-14.269 15.627 -0.347 0.34
-14.276 15.536 -0.345 0.30000001
-14.265 15.427 -0.34299999 0.43000001
-14.27 15.335 -0.34200001 0.30000001
-14.249 15.265 -0.34 0.31999999
-14.253 15.173 -0.338 0.34999999
-14.247 15.072 -0.336 0.31999999
-14.247 14.978 -0.33399999 0.33000001
-14.255 14.893 -0.333 0.38
-14.257 14.802 -0.331 0.30000001
-14.242 14.739 -0.33000001 0.38999999
-14.232 14.637 -0.32800001 0.28
-14.23 14.544 -0.32600001 0.30000001
-14.234 14.456 -0.324 0.43000001
-14.238 14.37 -0.32300001 0.34
-14.244 14.286 -0.32100001 0.31999999
-14.248 14.2 -0.31999999 0.34
-14.243 14.151 -0.31900001 0.34
-14.337 14.155 -0.32100001 0.36000001
-14.422 14.149 -0.322 0.36000001
-14.496 14.133 -0.32300001 0.34
-14.589 14.135 -0.32499999 0.37
-14.675 14.129 -0.32699999 0.31999999
-14.765 14.126 -0.32800001 0.34999999
-14.824 14.138 -0.329 0.33000001
-14.918 14.139 -0.331 0.38
-14.995 14.122 -0.33199999 0.31
-15.084 14.117 -0.33399999 0.34
-15.184 14.121 -0.336 0.36000001
-15.277 14.118 -0.338 0.34999999
-15.362 14.108 -0.33899999 0.28
-15.432 14.127 -0.34099999 0.41
-15.521 14.118 -0.34200001 0.28
-15.614 14.114 -0.34400001 0.34
-15.703 14.105 -0.34599999 0.37
-15.79 14.094 -0.347 0.28
-15.894 14.097 -0.34900001 0.38
-15.988 14.091 -0.35100001 0.36000001
-16.212 14.242 -0.35800001 0.27000001
-16.528999 14.429 -0.36700001 0.41
-6.6199999 5.763 -0.024 0.16
-6.6279998 5.7329998 -0.024 0.2
-6.6110001 5.6830001 -0.023 0.51999998
-6.6810002 5.7059999 -0.024 0.2
-17.142 14.449 -0.38 0.28
-17.224001 14.425 -0.38100001 0.58999997
-17.337999 14.429 -0.38299999 0.25999999
-17.431999 14.414 -0.38499999 0.57999998
-17.523001 14.397 -0.38699999 0.34999999
-17.625999 14.388 -0.389 0.34999999
-17.728001 14.38 -0.391 0.38999999
-17.808001 14.398 -0.39199999 0.38
-17.917 14.393 -0.39500001 0.28999999
-18.035 14.394 -0.39700001 0.38999999
-18.169001 14.408 -0.40000001 0.34999999
-18.268 14.393 -0.40200001 0.47999999
-18.292 14.32 -0.40099999 0.38
-18.346001 14.316 -0.40200001 0.44999999
-18.440001 14.296 -0.40400001 0.40000001
-18.459999 14.218 -0.403 0.31
-18.459999 14.126 -0.40099999 0.28999999
-18.479 14.049 -0.40099999 0.36000001
-18.566999 14.024 -0.40200001 0.30000001
-18.681999 14.019 -0.40400001 0.34
-18.766001 14.036 -0.40599999 0.27000001
-18.891001 14.036 -0.40900001 0.31999999
-19.007 14.03 -0.41100001 0.34
-19.106001 14.011 -0.41299999 0.28999999
-19.226999 14.007 -0.41600001 0.30000001
-19.346001 14 -0.41800001 0.38999999
-19.339001 13.903 -0.41600001 0.2
-18.826 13.491 -0.39899999 0.23999999
-18.922001 13.47 -0.40099999 0.38
-19.056 13.475 -0.40400001 0.41999999
-19.198 13.485 -0.40700001 0.2
-19.316999 13.478 -0.41 0.31
-19.422001 13.46 -0.41100001 0.44999999
-19.549999 13.458 -0.414 0.37
-19.665001 13.492 -0.417 0.2
-19.771999 13.474 -0.419 0.38
-19.864 13.445 -0.421 0.43000001
-24.975 16.783001 -0.57999998 0.27000001
-25.106001 16.756001 -0.58200002 0.30000001
-25.275 16.754999 -0.58600003 0.28
-25.43 16.742001 -0.58899999 0.27000001
-25.570999 16.778 -0.59299999 0.27000001
-25.721001 16.761 -0.59600002 0.28
-25.895 16.757999 -0.60000002 0.27000001
-26.033001 16.731001 -0.602 0.31
-26.202999 16.725 -0.60600001 0.27000001
-26.368999 16.714001 -0.60900003 0.28999999
-26.530001 16.698999 -0.61299998 0.28999999
-26.681 16.736 -0.61699998 0.28
-26.858 16.729 -0.62 0.25999999
-27.016001 16.709999 -0.62400001 0.2
-27.146 16.673 -0.62599999 0.31
-27.27 16.631001 -0.62800002 0.34
-27.362 16.569 -0.62900001 0.36000001
-27.426001 16.49 -0.63 0.23999999
-27.398001 16.415001 -0.62800002 0.33000001
-28.021 16.667999 -0.64499998 0.23999999
-28.221001 16.667 -0.64999998 0.25999999
-28.423 16.666 -0.65499997 0.28999999
-28.597 16.646999 -0.65799999 0.2
-28.792 16.639999 -0.662 0.41
-28.948999 16.67 -0.66600001 0.23
-29.143 16.66 -0.671 0.19
-29.348 16.655001 -0.67500001 0.40000001
-29.545 16.643999 -0.68000001 0.23999999
-29.721001 16.621 -0.68300003 0.18000001
-29.927 16.612 -0.68800002 0.38999999
-30.136999 16.605 -0.69300002 0.22
-30.309 16.636999 -0.69700003 0.18000001
-30.535 16.636999 -0.70200002 0.40000001
-30.733 16.618999 -0.70599997 0.20999999
-30.921 16.594999 -0.70999998 0.2
-31.146 16.59 -0.71600002 0.36000001
-31.358 16.577 -0.72000003 0.18000001
-31.556 16.555 -0.72500002 0.34999999
-31.757 16.597 -0.73000002 0.2
-31.979 16.584999 -0.73500001 0.23
-32.186001 16.563999 -0.73900002 0.19
-32.424999 16.558001 -0.745 0.22
-32.659 16.548 -0.75 0.18000001
-32.869999 16.525 -0.755 0.31
-33.105999 16.514 -0.75999999 0.19
-33.327 16.559 -0.76599997 0.33000001
-33.556 16.541 -0.77100003 0.19
-33.792999 16.525999 -0.77600002 0.31999999
-34.034 16.511 -0.78200001 0.20999999
-34.282001 16.499001 -0.787 0.19
-34.528999 16.483999 -0.79299998 0.20999999
-34.783001 16.471001 -0.79900002 0.17
-34.994999 16.504 -0.80400002 0.13
-35.265999 16.496 -0.81099999 0.17
-35.516998 16.478001 -0.81599998 0.28999999
-35.793999 16.469999 -0.82300001 0.27000001
-36.075001 16.462 -0.829 0.2
-36.323002 16.437 -0.83499998 0.18000001
-36.577 16.483 -0.84100002 0.30000001
-36.844002 16.464001 -0.84799999 0.19
-37.122002 16.448 -0.85399997 0.18000001
-37.389999 16.426001 -0.86000001 0.16
-37.665001 16.406 -0.86699998 0.16
-37.966 16.395 -0.87400001 0.23
-38.234001 16.368 -0.88 0.11
-39.063999 16.650999 -0.903 0
-39.23 16.576 -0.90600002 0
-39.355999 16.483 -0.90799999 0
-39.703999 16.483 -0.91600001 0.039999999
-52.451 21.188 -1.271 0.74000001
-52.290001 20.837999 -1.263 0.72000003
-52.056 20.555 -1.255 0
-47.895 18.740999 -1.137 0.07
-52.393002 19.931 -1.257 0.76999998
-57.216999 21.66 -1.391 0
-67.32 25.239 -1.67 0
-67.125 24.447001 -1.658 0.56
-66.927002 24.136999 -1.651 0.11
-56.167999 19.764 -1.348 0.74000001
-56.255001 19.596001 -1.349 0
-52.412998 17.708 -1.238 0
-52.387001 17.516001 -1.2359999 0
-52.243999 17.377001 -1.2309999 0
-52.175999 17.173 -1.228 0
-52.265999 17.02 -1.229 0.07
-61.237 19.301001 -1.47 0.67000002
-57.752998 18.104 -1.374 0.99000001
-56.620998 17.555 -1.341 0.74000001
-62.801998 19.037001 -1.507 0.74000001
-64.746002 19.181999 -1.556 0.67000002
-64.917 19.011 -1.559 0
-65.278999 19.006001 -1.568 0
-62.547001 17.785999 -1.4910001 0
-63.326 17.792 -1.511 0.029999999
-62.852001 17.021999 -1.493 0.74000001
-58.034 15.621 -1.363 0
-58.127998 15.451 -1.364 0
-20.992001 5.4559999 -0.361 0.23
-21.261 5.454 -0.368 0
-21.028999 5.3249998 -0.361 0
-58.167999 14.003 -1.3559999 0.15000001
-57.743 13.709 -1.3430001 0.81999999
-58.426998 13.677 -1.36 0
-25.65 5.8920002 -0.48199999 0.30000001
-25.527 5.7800002 -0.47799999 0
-25.737 5.7420001 -0.48300001 0
-57.112 12.522 -1.3200001 0
-52.922001 11.431 -1.207 0
-62.900002 13.065 -1.471 0.19
-62.786999 12.425 -1.464 0.70999998
-63.113998 12.284 -1.472 0
-76.101997 14.311 -1.8150001 0
-74.079002 13.81 -1.76 0.11
-67.585999 12.383 -1.587 0.27000001
-67.504997 12.149 -1.584 0.17
-67.541 11.936 -1.584 0.36000001
-67.644997 11.736 -1.586 0
-67.850998 11.552 -1.59 0
-33.756001 5.5970001 -0.68800002 0.12
-33.754002 5.4879999 -0.68699998 0
-76.712997 11.697 -1.819 0
-76.950996 11.486 -1.824 0
-75.515999 11.151 -1.786 0
-75.601997 10.922 -1.7869999 0
-75.830002 10.711 -1.7920001 0
-75.885002 10.476 -1.793 0
-63.832001 8.2040005 -1.474 0.20999999
-63.858002 8.1049995 -1.474 0
-63.979 7.9169998 -1.476 0
-41.886002 4.9250002 -0.89499998 0
-64.331001 7.3449998 -1.484 0
-43.144001 4.7969999 -0.92699999 0
-61.977001 5.7979999 -1.419 0
-71.092003 -1.0779999 -1.649 0
-65.722 -2.131 -1.51 0
-58.231998 -3.076 -1.316 0
-49.84 -3.336 -1.098 0
-41.810001 -3.257 -0.889 0
-25.216 -2.1129999 -0.45500001 0.31
-25.169001 -2.1889999 -0.454 0.28
-33.948002 -3.069 -0.68400002 0
-33.618 -3.145 -0.676 0
-72.650002 -7.1729999 -1.699 0
-70.644997 -7.1989999 -1.647 0.090000004
-25.517 -2.7460001 -0.465 0.47
-25.468 -2.7809999 -0.463 0.12
-25.414 -2.8559999 -0.46200001 0
-63.294998 -7.3530002 -1.457 0
-63.287998 -7.553 -1.457 0.13
-26.41 -3.221 -0.48899999 0.18000001
-26.216999 -3.2809999 -0.484 0.22
-25.879 -3.3210001 -0.47600001 0.2
-25.714001 -3.3399999 -0.47099999 0.18000001
-63.396999 -8.4770002 -1.4630001 0.19
-25.177 -3.431 -0.458 0.12
-25.434 -3.5480001 -0.465 0
-58.821999 -8.4280005 -1.345 0
-58.749001 -8.6059999 -1.344 0
-58.355999 -8.7360001 -1.334 0
-54.213001 -8.2010002 -1.225 0.050000001
-54.004002 -8.5170002 -1.221 0.2
-53.139 -8.5509996 -1.199 0.19
-49.577999 -8.1359997 -1.105 0.17
-49.541 -8.29 -1.105 0.12
-49.397999 -8.4259996 -1.102 0.17
-49.335999 -8.4949999 -1.101 0.36000001
-47.933998 -8.408 -1.064 0.57999998
-44.953999 -8.0290003 -0.986 0.25999999
-44.779999 -8.2889996 -0.98299998 0.16
-44.691002 -8.4180002 -0.98100001 0.67000002
-43.325001 -8.2299995 -0.94499999 0
-42.622002 -8.2349997 -0.92699999 0.1
-40.318001 -7.9200001 -0.86699998 0.18000001
-40.292999 -8.0459995 -0.86699998 0.13
-40.167999 -8.1529999 -0.86400002 0.19
-40.112 -8.2729998 -0.86299998 0.50999999
-39.081001 -8.1870003 -0.83700001 0.69999999
-38.381001 -8.1029997 -0.81800002 0.23999999
-37.798 -8.1040001 -0.80299997 0.46000001
-35.695999 -7.7690001 -0.74800003 0.23
-35.669998 -7.881 -0.74800003 0.19
-35.456001 -8.0670004 -0.74400002 0.63999999
-34.393002 -7.9949999 -0.71600002 0.58999997
-33.782001 -7.9650002 -0.69999999 0.36000001
-33.221001 -7.9419999 -0.68599999 0.27000001
-33.122002 -8.0290003 -0.68400002 0.50999999
-31.087 -7.6370001 -0.63 0.27000001
-31.061001 -7.7350001 -0.63 0.25999999
-31.054001 -7.836 -0.63 0.18000001
-30.941 -7.8600001 -0.62800002 0.22
-31.058001 -7.993 -0.63200003 0.57999998
-29.812 -7.8720002 -0.59899998 0.19
-29.76 -7.9580002 -0.59899998 0.58999997
-29.101999 -7.8800001 -0.58200002 0.41
-28.599001 -7.8400002 -0.56900001 0.31
-28.666 -7.9060001 -0.57099998 0.19
-26.67 -7.4439998 -0.51700002 0.11
-26.471001 -7.4780002 -0.51300001 0.25999999
-26.452999 -7.5630002 -0.51300001 0.2
-26.372 -7.6290002 -0.51099998 0.40000001
-26.353001 -7.7140002 -0.51099998 0.36000001
-26.357 -7.7600002 -0.51200002 0.37
-26.372 -7.855 -0.51300001 0.38999999
-26.358999 -7.941 -0.51300001 0.38
-26.344 -8.0270004 -0.51300001 0.38
-26.360001 -8.1219997 -0.51499999 0.38999999
-26.333 -8.2040005 -0.51499999 0.38999999
-26.337 -8.2969999 -0.51499999 0.38
-26.358 -8.349 -0.51599997 0.38
-26.336 -8.4329996 -0.51599997 0.38
-26.33 -8.5220003 -0.51700002 0.38999999
-26.336 -8.6160002 -0.51800001 0.37
-26.322001 -8.7030001 -0.51800001 0.38
-26.325001 -8.7959995 -0.51899999 0.38
-26.330999 -8.8900003 -0.51999998 0.38
-26.326 -8.934 -0.51999998 0.37
-26.319 -9.0240002 -0.52100003 0.37
-26.326 -9.1190004 -0.52200001 0.37
-26.315001 -9.2080002 -0.52200001 0.37
-26.318001 -9.302 -0.523 0.37
-26.309 -9.3920002 -0.52399999 0.37
-26.298 -9.4809999 -0.52399999 0.37
-26.316999 -9.5349998 -0.52499998 0.37
-26.311001 -9.6269999 -0.52600002 0.37
-26.296 -9.7150002 -0.52600002 0.38
-26.290001 -9.8059998 -0.52700001 0.37
-26.302 -9.9049997 -0.528 0.41999999
-26.289 -9.9949999 -0.52899998 0.34999999
-26.280001 -10.086 -0.52899998 0.41
-26.299 -10.141 -0.52999997 0.36000001
-26.288 -10.232 -0.53100002 0.41
-26.278 -10.323 -0.53200001 0.34999999
-26.290001 -10.423 -0.53299999 0.41999999
-26.278999 -10.515 -0.53299999 0.36000001
-26.259001 -10.602 -0.53399998 0.43000001
-26.302 -10.668 -0.53500003 0.34999999
-26.264999 -10.749 -0.53500003 0.41
-26.278999 -10.851 -0.537 0.36000001
-26.274 -10.946 -0.53799999 0.37
-26.26 -11.037 -0.53799999 0.40000001
-26.252001 -11.131 -0.53899997 0.40000001
-26.267 -11.235 -0.54000002 0.34
-26.257 -11.279 -0.54000002 0.41
-26.271999 -11.384 -0.542 0.34999999
-26.257 -11.475 -0.54299998 0.41
-26.253 -11.572 -0.54299998 0.34999999
-26.240999 -11.665 -0.54400003 0.41
-26.239 -11.763 -0.54500002 0.43000001
-13.52 -6.098 -0.182 0.22
-13.361 -6.052 -0.178 0.46000001
-13.298 -6.0739999 -0.176 0.37
-13.208 -6.0830002 -0.17399999 0.38999999
-13.169 -6.1149998 -0.17399999 0.28999999
-13.119 -6.1420002 -0.17299999 0.5
-13.098 -6.1820002 -0.17299999 0.25999999
-13.041 -6.2049999 -0.17200001 0.56
-13.071 -6.2449999 -0.17299999 0.28
-13.006 -6.2639999 -0.17200001 0.5
-12.99 -6.3060002 -0.17200001 0.38
-12.979 -6.3520002 -0.17200001 0.47999999
-12.971 -6.3990002 -0.17200001 0.25
-12.939 -6.4330001 -0.17200001 0.57999998
-12.924 -6.4759998 -0.17200001 0.37
-12.938 -6.5089998 -0.17299999 0.37
-12.945 -6.5630002 -0.17399999 0.46000001
-12.976 -6.631 -0.175 0.43000001
-13.068 -6.73 -0.17900001 0.28
-13.299 -6.902 -0.186 0.58999997
-26.386 -13.829 -0.57200003 0.31
-26.371 -13.927 -0.57300001 0.31999999
-26.381001 -13.985 -0.574 0.31
-26.377001 -14.09 -0.57499999 0.31
-26.361 -14.188 -0.57599998 0.31999999
-26.355 -14.291 -0.57700002 0.31
-26.357 -14.4 -0.57800001 0.30000001
-26.330999 -14.493 -0.579 0.23
-26.355 -14.561 -0.57999998 0.2
-26.299 -14.638 -0.57999998 0.44
-26.267 -14.728 -0.58099997 0.44999999
-26.158001 -14.775 -0.579 0.36000001
-26.15 -14.879 -0.57999998 0.38
-26.132 -14.978 -0.58099997 0.38
-26.132 -15.087 -0.58200002 0.36000001
-26.150999 -15.153 -0.583 0.36000001
-26.136 -15.255 -0.58399999 0.37
-26.131001 -15.362 -0.58600003 0.34999999
-26.131001 -15.472 -0.58700001 0.36000001
-26.117001 -15.575 -0.588 0.37
-26.108999 -15.682 -0.58899999 0.36000001
-26.105 -15.792 -0.59100002 0.36000001
-26.111 -15.851 -0.59200001 0.36000001
-26.111 -15.964 -0.59299999 0.36000001
-26.107 -16.073999 -0.59500003 0.36000001
-26.094999 -16.18 -0.59600002 0.41
-26.08 -16.284 -0.597 0.38
-26.080999 -16.399 -0.59899998 0.34
-26.068001 -16.506001 -0.60000002 0.38999999
-26.091 -16.577999 -0.60100001 0.34
-26.086 -16.690001 -0.60299999 0.36000001
-26.072001 -16.797001 -0.60399997 0.40000001
-26.066 -16.909 -0.60600001 0.34999999
-26.065001 -17.025 -0.60699999 0.38999999
-26.049 -17.132 -0.60799998 0.38
-26.044001 -17.246 -0.61000001 0.38
-26.066 -17.32 -0.611 0.38
-26.058001 -17.433001 -0.61299998 0.34
-26.052 -17.547001 -0.61400002 0.38999999
-26.051001 -17.666 -0.616 0.38
-26.032 -17.771999 -0.61699998 0.36000001
-26.032 -17.893 -0.61900002 0.38
-26.023001 -18.007 -0.62099999 0.37
-26.042 -18.080999 -0.62199998 0.36000001
-26.038 -18.200001 -0.62400001 0.34999999
-26.028999 -18.316 -0.625 0.34999999
-26.016001 -18.429001 -0.62699997 0.36000001
-26.023001 -18.556999 -0.62900001 0.34
-26.01 -18.671 -0.63 0.36000001
-26.028 -18.746 -0.63200003 0.36000001
-26.011999 -18.858999 -0.63300002 0.36000001
-26.004 -18.979 -0.63499999 0.36000001
-26.004 -19.104 -0.63700002 0.34999999
-25.996 -19.224001 -0.63800001 0.37
-25.99 -19.346001 -0.63999999 0.34
-25.986 -19.471001 -0.64200002 0.31999999
-26.003 -19.548 -0.64399999 0.5
-39.605 -29.985001 -1.091 0.22
-39.362999 -29.997 -1.086 0.30000001
-39.108002 -29.997 -1.081 0.30000001
-38.875 -30.011999 -1.076 0.31
-38.618999 -30.009001 -1.071 0.30000001
-38.377998 -30.016001 -1.066 0.31
-38.181999 -29.958 -1.061 0.31999999
-37.937 -29.959 -1.056 0.31999999
-37.694 -29.959999 -1.051 0.31
-37.456001 -29.962999 -1.046 0.31
-37.216999 -29.964001 -1.041 0.31999999
-36.974998 -29.961 -1.036 0.28999999
-36.792999 -29.909 -1.0319999 0.33000001
-36.563999 -29.915001 -1.027 0.31999999
-36.327999 -29.912001 -1.022 0.30000001
-36.103001 -29.917999 -1.018 0.34
-35.862 -29.908001 -1.013 0.30000001
-35.641998 -29.915001 -1.0089999 0.34
-35.415001 -29.915001 -1.0039999 0.28999999
-35.240002 -29.862 -1 0.30000001
-35.018002 -29.863001 -0.995 0.30000001
-34.805 -29.870001 -0.991 0.30000001
-34.575001 -29.862 -0.98699999 0.30000001
-34.362999 -29.868 -0.98299998 0.31
-34.152 -29.872999 -0.97899997 0.31
-33.932999 -29.870001 -0.97399998 0.31999999
