# .PCD v0.7 - Point Cloud Data file format
VERSION 0.7
FIELDS x y z intensity
SIZE 4 4 4 4
TYPE F F F F
COUNT 1 1 1 1
WIDTH 1394
HEIGHT 1
VIEWPOINT 0 0 0 1 0 0 0
POINTS 1394
DATA ascii
8.1960001 6.1430001 -1.602 0.28
8.1800003 6.171 -1.603 0.28999999
8.1680002 6.2030001 -1.604 0.27000001
8.1409998 6.223 -1.603 0.28
8.1099997 6.2399998 -1.6 0.30000001
8.1029997 6.2750001 -1.603 0.28
8.0830002 6.3000002 -1.603 0.28999999
8.0719995 6.3119998 -1.603 0.28999999
8.052 6.3369999 -1.603 0.28
8.0310001 6.3610001 -1.602 0.28
8.0139999 6.3889999 -1.603 0.28999999
8.0039997 6.4219999 -1.605 0.28
7.9699998 6.4359999 -1.602 0.28999999
7.9530001 6.4640002 -1.603 0.27000001
7.948 6.48 -1.604 0.28999999
7.9099998 6.4910002 -1.6 0.28999999
7.9050002 6.5289998 -1.604 0.28999999
7.8969998 6.5640001 -1.6059999 0.27000001
7.8670001 6.5809999 -1.604 0.27000001
7.8460002 6.605 -1.604 0.28
7.8260002 6.6300001 -1.604 0.30000001
7.8169999 6.6440001 -1.605 0.25999999
7.7969999 6.6690001 -1.605 0.27000001
7.7820001 6.6989999 -1.6059999 0.28
7.7550001 6.7179999 -1.605 0.27000001
7.7270002 6.7360001 -1.603 0.30000001
7.7140002 6.7680001 -1.605 0.27000001
7.691 6.7909999 -1.605 0.28
7.6820002 6.8039999 -1.605 0.28
7.671 6.8379998 -1.608 0.28999999
7.6350002 6.849 -1.604 0.28999999
7.612 6.8709998 -1.604 0.28999999
7.6030002 6.9070001 -1.607 0.30000001
7.5760002 6.9260001 -1.6059999 0.28999999
7.5560002 6.9510002 -1.6059999 0.28999999
7.5500002 6.9679999 -1.607 0.28999999
7.52 6.9840002 -1.605 0.28999999
7.4990001 7.0079999 -1.6059999 0.28999999
7.493 7.0469999 -1.609 0.28
7.4590001 7.059 -1.607 0.28
7.4390001 7.0840001 -1.607 0.28999999
7.4289999 7.0970001 -1.607 0.28999999
7.4050002 7.119 -1.607 0.28
7.3790002 7.138 -1.6059999 0.28999999
7.3720002 7.177 -1.61 0.28
7.3390002 7.1900001 -1.607 0.28
7.3179998 7.2140002 -1.608 0.28999999
7.302 7.244 -1.609 0.28999999
7.2870002 7.2519999 -1.608 0.28
7.2709999 7.2810001 -1.61 0.28
7.2529998 7.3099999 -1.6109999 0.31
7.2140002 7.316 -1.607 0.28999999
7.0799999 7.2259998 -1.581 0.25999999
6.9720001 7.1609998 -1.5599999 0.27000001
6.9229999 7.1560001 -1.554 0.25
6.8829999 7.1589999 -1.55 0.25
6.8720002 7.1700001 -1.55 0.31999999
6.8379998 7.1799998 -1.5470001 0.28999999
6.802 7.1869998 -1.544 0.27000001
6.783 7.2129998 -1.545 0.31
6.7399998 7.2129998 -1.54 0.30000001
6.7309999 7.2480001 -1.543 0.30000001
6.7119999 7.25 -1.541 0.28
6.6890001 7.2709999 -1.541 0.38
6.6630001 7.289 -1.54 0.28999999
6.6459999 7.316 -1.5420001 0.33000001
6.6079998 7.3210001 -1.538 0.28
3.2880001 3.7079999 -0.70999998 0.66000003
3.267 3.697 -0.70700002 0.16
6.5430002 7.4109998 -1.5420001 0.13
6.5300002 7.4429998 -1.545 0.31
6.513 7.4710002 -1.546 0.31999999
6.4809999 7.4809999 -1.544 0.28999999
6.4559999 7.5 -1.544 0.30000001
6.4359999 7.5240002 -1.545 0.31999999
6.4200001 7.5300002 -1.544 0.33000001
6.395 7.5489998 -1.543 0.28999999
6.3699999 7.5669999 -1.543 0.33000001
6.3379998 7.5770001 -1.541 0.33000001
6.3060002 7.5869999 -1.539 0.25
6.2789998 7.6030002 -1.538 0.38
6.2620001 7.631 -1.54 0.34
6.2360001 7.6479998 -1.539 0.31
6.2150002 7.6469998 -1.5369999 0.30000001
6.184 7.6570001 -1.535 0.30000001
6.1560001 7.6719999 -1.534 0.28999999
6.1230001 7.6810002 -1.531 0.30000001
6.0960002 7.697 -1.531 0.30000001
6.066 7.7080002 -1.529 0.30000001
6.0500002 7.7129998 -1.528 0.30000001
6.0079999 7.7090001 -1.523 0.27000001
5.9809999 7.7249999 -1.522 0.30000001
5.96 7.7480001 -1.523 0.30000001
5.9229999 7.7490001 -1.52 0.28999999
5.8940001 7.7620001 -1.518 0.30000001
5.8610001 7.7690001 -1.516 0.31
5.8379998 7.7639999 -1.513 0.30000001
5.8049998 7.7719998 -1.511 0.28999999
5.783 7.7930002 -1.511 0.31999999
5.7350001 7.7789998 -1.505 0.30000001
2.7379999 3.7609999 -0.65899998 0.25
2.744 3.7950001 -0.66399997 0.28
2.7019999 3.7620001 -0.65600002 0.18000001
2.628 3.6719999 -0.63599998 0.07
2.675 3.7620001 -0.653 0.12
2.631 3.7249999 -0.64399999 0.22
2.6159999 3.7290001 -0.64300001 0.14
2.648 3.7980001 -0.65499997 0.19
4.2579999 6.1209998 -1.132 0.23
4.2259998 6.1160002 -1.128 0.58999997
4.2160001 6.1230001 -1.128 0.30000001
4.1989999 6.1389999 -1.1289999 0.40000001
4.1859999 6.1609998 -1.131 0.38
4.1630001 6.1690001 -1.13 0.50999999
4.151 6.1929998 -1.132 0.37
4.131 6.2049999 -1.132 0.58999997
4.125 6.2389998 -1.136 0.34
4.1149998 6.244 -1.136 0.51999998
4.119 6.2930002 -1.143 0.30000001
4.1059999 6.316 -1.145 0.56
4.1149998 6.3730001 -1.154 0.38
5.0900002 7.927 -1.4630001 0.28999999
5.0560002 7.9299998 -1.461 0.30000001
5.0300002 7.9439998 -1.46 0.30000001
5.013 7.9429998 -1.459 0.30000001
4.9899998 7.9619999 -1.459 0.28999999
4.9530001 7.96 -1.456 0.28999999
2.277 3.711 -0.60900003 0.17
2.283 3.747 -0.61500001 0.41
2.2850001 3.777 -0.61900002 0.34999999
2.2909999 3.813 -0.625 0.38
2.296 3.835 -0.62900001 0.30000001
2.3 3.868 -0.634 0.41
2.404 4.0700002 -0.67199999 0
4.7470002 8.0450001 -1.45 0.1
4.723 8.0620003 -1.45 0.28
4.6929998 8.0679998 -1.449 0.28999999
4.664 8.0780001 -1.448 0.28999999
4.6389999 8.092 -1.448 0.28999999
4.625 8.0979996 -1.447 0.27000001
4.5970001 8.1070004 -1.446 0.28999999
4.566 8.1129999 -1.4450001 0.25999999
4.5380001 8.1219997 -1.444 0.28999999
4.5050001 8.1230001 -1.441 0.31
4.4879999 8.1520004 -1.444 0.33000001
4.4710002 8.1520004 -1.443 0.30000001
4.4359999 8.1490002 -1.439 0.28
4.401 8.1459999 -1.436 0.28999999
4.3779998 8.165 -1.437 0.28
4.348 8.1700001 -1.4349999 0.25999999
4.3189998 8.1780005 -1.434 0.27000001
4.2930002 8.1899996 -1.434 0.27000001
4.2639999 8.198 -1.433 0.27000001
4.2490001 8.1999998 -1.432 0.23
4.2199998 8.2080002 -1.431 0.31999999
4.1999998 8.2309999 -1.433 0.28999999
4.1659999 8.2290001 -1.4299999 0.2
4.1409998 8.243 -1.431 0.16
4.099 8.2250004 -1.425 0.16
3.346 6.7509999 -1.145 0.28999999
3.3169999 6.7459998 -1.142 0.28999999
3.27 6.7030001 -1.132 0.050000001
3.27 6.7579999 -1.141 0.029999999
3.1619999 6.6960001 -1.123 0.87
3.0510001 6.4879999 -1.084 0.86000001
3.043 6.5229998 -1.089 0.19
2.957 6.4450002 -1.071 0.16
2.651 5.8330002 -0.95499998 0.14
2.6240001 5.823 -0.95200002 0.16
2.609 5.8390002 -0.95300001 0.13
2.619 5.934 -0.96799999 0.91000003
2.5739999 5.8839998 -0.958 0.99000001
2.5910001 5.9720001 -0.972 0.67000002
2.5880001 6.0159998 -0.97899997 0.23
2.5969999 6.0890002 -0.991 0
2.5239999 6.0240002 -0.97600001 0.14
2.4779999 5.9400001 -0.95999998 0.18000001
2.5550001 6.177 -1.002 0
2.5539999 6.2859998 -1.0190001 0.28999999
2.5409999 6.309 -1.022 0.050000001
2.5439999 6.3740001 -1.0319999 0.07
2.997 7.566 -1.247 0.17
2.9690001 7.5310001 -1.24 0.2
2.9159999 7.4650002 -1.226 0.07
2.8340001 7.3249998 -1.199 0.18000001
2.691 7.0229998 -1.143 0.25
2.6630001 7.0170002 -1.14 0.33000001
2.619 6.9660001 -1.13 0.25999999
2.589 6.921 -1.1210001 0.20999999
2.5039999 6.7610002 -1.091 0.25999999
2.4530001 6.6869998 -1.076 0.14
2.418 6.658 -1.069 0.25999999
2.4200001 6.7280002 -1.081 0.44
2.4719999 6.9380002 -1.117 0.1
2.27 6.441 -1.026 0.36000001
2.2609999 6.4790001 -1.0319999 0.54000002
2.395 6.8920002 -1.105 0.23999999
2.3699999 6.8899999 -1.104 0.23999999
2.3399999 6.8740001 -1.099 0.20999999
2.234 6.6339998 -1.0549999 0.16
2.1800001 6.5440001 -1.038 0.38
2.256 6.8390002 -1.089 0.31999999
2.2219999 6.8070002 -1.082 0.28999999
2.1860001 6.7340002 -1.069 0.19
2.1459999 6.684 -1.059 0.28999999
1.979 6.237 -0.97799999 0.039999999
1.9529999 6.2220001 -0.97399998 0.16
2.0450001 6.5819998 -1.0369999 0.23
2.027 6.599 -1.039 0.30000001
1.988 6.546 -1.028 0.25999999
1.974 6.5349998 -1.026 0.37
1.943 6.5079999 -1.02 0.30000001
1.906 6.4590001 -1.01 0.27000001
1.876 6.4310002 -1.0039999 0.30000001
1.846 6.4029999 -0.99800003 0.30000001
1.809 6.3520002 -0.98799998 0.28
1.781 6.329 -0.98299998 0.34
1.7640001 6.309 -0.97899997 0.23
1.728 6.2550001 -0.96899998 0.2
1.701 6.2340002 -0.96399999 0.38
1.673 6.2090001 -0.95899999 0.38
1.6390001 6.1609998 -0.94999999 0.44999999
1.615 6.1469998 -0.94700003 0.30000001
1.589 6.1269999 -0.94199997 0.38
1.576 6.1160002 -0.94 0.34999999
1.556 6.119 -0.94 0.47
1.538 6.1279998 -0.94 0.34999999
1.515 6.118 -0.93800002 0.49000001
1.4960001 6.1259999 -0.93800002 0.36000001
1.476 6.125 -0.93699998 0.47
1.454 6.118 -0.935 0.34999999
1.444 6.1199999 -0.935 0.47
1.426 6.1290002 -0.93599999 0.36000001
1.402 6.112 -0.93199998 0.47999999
1.382 6.1170001 -0.93199998 0.34999999
1.362 6.1170001 -0.93199998 0.47999999
1.3430001 6.1209998 -0.93199998 0.34999999
1.323 6.1199999 -0.93099999 0.47
1.314 6.1259999 -0.93099999 0.36000001
1.291 6.112 -0.92799997 0.47
1.273 6.1220002 -0.92900002 0.34999999
1.252 6.118 -0.92799997 0.49000001
1.234 6.1279998 -0.92900002 0.44999999
1.2130001 6.1220002 -0.92699999 0.34999999
1.192 6.1199999 -0.926 0.43000001
1.183 6.1220002 -0.926 0.31999999
1.164 6.1300001 -0.92699999 0.36000001
1.142 6.1199999 -0.92500001 0.36000001
1.122 6.119 -0.92400002 0.44
1.101 6.1129999 -0.92199999 0.28999999
1.081 6.1129999 -0.92199999 0.41
1.062 6.1139998 -0.921 0.31999999
1.0549999 6.131 -0.92400002 0.47999999
1.034 6.1230001 -0.92199999 0.31
1.015 6.1300001 -0.92299998 0.30000001
0.995 6.1259999 -0.921 0.38
0.97399998 6.1209998 -0.92000002 0.34
0.95300001 6.1100001 -0.91799998 0.37
0.935 6.1209998 -0.91900003 0.36000001
0.92400002 6.1170001 -0.91799998 0.37
0.90399998 6.1160002 -0.917 0.36000001
0.88499999 6.1160002 -0.917 0.31999999
0.866 6.125 -0.91799998 0.34999999
0.84600002 6.1220002 -0.917 0.43000001
0.82599998 6.1170001 -0.91600001 0.28999999
0.80699998 6.1170001 -0.91500002 0.33000001
0.79699999 6.1170001 -0.91500002 0.40000001
0.778 6.1230001 -0.91600001 0.37
0.75700003 6.1139998 -0.91399997 0.36000001
0.73900002 6.1240001 -0.91500002 0.30000001
0.71899998 6.1220002 -0.91399997 0.40000001
0.699 6.119 -0.91299999 0.33000001
0.68000001 6.1230001 -0.91399997 0.43000001
0.67000002 6.1160002 -0.912 0.38999999
0.64999998 6.1160002 -0.912 0.28999999
0.63200003 6.1279998 -0.91399997 0.40000001
0.61199999 6.1240001 -0.91299999 0.34
0.59299999 6.1220002 -0.912 0.34999999
0.57499999 6.1339998 -0.91399997 0.41
0.55400002 6.1269999 -0.912 0.34
0.54500002 6.1300001 -0.91299999 0.41
0.52499998 6.1259999 -0.912 0.25
0.50599998 6.1279998 -0.912 0.49000001
0.48699999 6.1269999 -0.91100001 0.34
0.46700001 6.1290002 -0.91100001 0.33000001
0.447 6.1220002 -0.91000003 0.31999999
0.428 6.1240001 -0.91000003 0.36000001
0.419 6.1240001 -0.91000003 0.36000001
0.39899999 6.1240001 -0.91000003 0.41999999
0.38100001 6.1389999 -0.912 0.44
0.148 2.7579999 -0.34 0.22
0.138 2.737 -0.33700001 0.31999999
0.12899999 2.7260001 -0.33500001 0.31999999
0.12 2.7179999 -0.33399999 0.31999999
0.115 2.7049999 -0.331 0.33000001
0.106 2.701 -0.331 0.34999999
0.097000003 2.6919999 -0.329 0.31999999
0.088 2.6800001 -0.32699999 0.34999999
0.079999998 2.6860001 -0.32800001 0.36000001
0.071999997 2.684 -0.32800001 0.34999999
0.063000001 2.681 -0.32699999 0.34999999
0.059 2.687 -0.32800001 0.31999999
0.050999999 2.687 -0.32800001 0.34999999
0.041999999 2.6789999 -0.32699999 0.38999999
0.034000002 2.687 -0.32800001 0.38
0.025 2.6789999 -0.32699999 0.37
0.017000001 2.6789999 -0.32699999 0.37
0.0080000004 2.687 -0.32800001 0.36000001
0.0040000002 2.6849999 -0.32800001 0.34
-0.0040000002 2.6989999 -0.33000001 0.34999999
-0.013 2.697 -0.33000001 0.34
-0.021 2.707 -0.331 0.36000001
-0.029999999 2.7090001 -0.33199999 0.37
-0.037999999 2.721 -0.33399999 0.33000001
-0.046999998 2.74 -0.33700001 0.23999999
-0.121 6.1339998 -0.90899998 0.31999999
-0.054000001 2.641 -0.31999999 0.18000001
-0.14 6.1269999 -0.90799999 0.34
-0.16 6.1350002 -0.91000003 0.40000001
-0.17900001 6.1300001 -0.90899998 0.27000001
-0.198 6.1300001 -0.90899998 0.43000001
-0.21699999 6.131 -0.90899998 0.28
-0.227 6.1459999 -0.912 0.36000001
-0.24600001 6.138 -0.91100001 0.40000001
-0.266 6.131 -0.91000003 0.37
-0.285 6.1420002 -0.912 0.30000001
-0.30399999 6.1389999 -0.91100001 0.34999999
-0.324 6.1339998 -0.91100001 0.40000001
-0.333 6.132 -0.91000003 0.34
-0.35299999 6.138 -0.912 0.41
-0.37200001 6.1350002 -0.91100001 0.31
-0.39199999 6.1479998 -0.91399997 0.34
-0.41100001 6.145 -0.91299999 0.44999999
-0.43099999 6.1430001 -0.91299999 0.36000001
-0.44999999 6.138 -0.91299999 0.33000001
-0.47 6.1479998 -0.91500002 0.38
-0.479 6.1420002 -0.91399997 0.34999999
-0.49900001 6.1479998 -0.91500002 0.41
-0.51800001 6.1479998 -0.91500002 0.34
-0.537 6.145 -0.91500002 0.38999999
-0.55699998 6.1469998 -0.91600001 0.38
-0.57599998 6.145 -0.91600001 0.31999999
-0.59600002 6.1490002 -0.917 0.37
-0.60600001 6.1479998 -0.917 0.43000001
-0.625 6.1479998 -0.917 0.41
-0.64499998 6.152 -0.91799998 0.27000001
-0.66500002 6.152 -0.91799998 0.38999999
-0.68400002 6.152 -0.91900003 0.37
-0.70300001 6.1440001 -0.91799998 0.34999999
-0.72299999 6.1459999 -0.91799998 0.34
-0.73400003 6.1539998 -0.92000002 0.37
-0.75199997 6.1459999 -0.91900003 0.37
-0.77200001 6.1500001 -0.92000002 0.34
-0.792 6.1490002 -0.92000002 0.30000001
-0.81099999 6.1430001 -0.92000002 0.44
-0.82999998 6.1399999 -0.92000002 0.33000001
-0.84100002 6.152 -0.92199999 0.37
-0.86000001 6.1440001 -0.921 0.28999999
-0.88099998 6.151 -0.92299998 0.34999999
-0.90100002 6.1539998 -0.92400002 0.43000001
-0.92199999 6.165 -0.926 0.41
-0.94 6.1500001 -0.92400002 0.28
-0.95999998 6.151 -0.92500001 0.34
-0.98199999 6.171 -0.92900002 0.31
-0.98900002 6.1500001 -0.92500001 0.44999999
-1.01 6.1589999 -0.92699999 0.36000001
-1.031 6.165 -0.92900002 0.46000001
-1.05 6.1560001 -0.92799997 0.34999999
-1.068 6.1469998 -0.92699999 0.46000001
-1.0930001 6.1750002 -0.93199998 0.36000001
-1.108 6.1479998 -0.92799997 0.47
-1.12 6.158 -0.93000001 0.34999999
-1.141 6.164 -0.93199998 0.47
-1.161 6.164 -0.93300003 0.36000001
-1.179 6.1570001 -0.93199998 0.47
-1.204 6.1820002 -0.93699998 0.36000001
-1.219 6.1529999 -0.93300003 0.46000001
-1.24 6.1609998 -0.935 0.36000001
-1.252 6.171 -0.93699998 0.47
-1.273 6.1739998 -0.93800002 0.36000001
-1.291 6.1609998 -0.93599999 0.47999999
-1.314 6.1760001 -0.94 0.36000001
-1.329 6.151 -0.93599999 0.64999998
-1.35 6.1560001 -0.93800002 0.38
-1.377 6.1859999 -0.94400001 0.34
-1.385 6.1750002 -0.94199997 0.34999999
-1.406 6.1760001 -0.94300002 0.38
-1.429 6.1869998 -0.94599998 0.36000001
-1.447 6.1789999 -0.94499999 0.38999999
-1.467 6.1760001 -0.94499999 0.34999999
-1.4859999 6.171 -0.94499999 0.30000001
-1.506 6.1669998 -0.94499999 0.37
-1.518 6.1760001 -0.94700003 0.38999999
-1.5420001 6.1880002 -0.94999999 0.36000001
-1.559 6.1739998 -0.949 0.30000001
-1.579 6.1729999 -0.949 0.30000001
-1.603 6.1849999 -0.95200002 0.38
-1.619 6.1680002 -0.94999999 0.38
-1.64 6.1690001 -0.95099998 0.31999999
-1.6569999 6.191 -0.95599997 0.30000001
-1.676 6.1880002 -0.95599997 0.36000001
-1.6950001 6.1810002 -0.95599997 0.41999999
-1.721 6.1960001 -0.95899999 0.33000001
-1.738 6.1849999 -0.958 0.31999999
-1.761 6.191 -0.95999998 0.43000001
-1.783 6.1929998 -0.96200001 0.33000001
-1.793 6.1919999 -0.96200001 0.34
-1.812 6.1859999 -0.96200001 0.43000001
-1.835 6.1919999 -0.96399999 0.31
-1.853 6.1799998 -0.963 0.36000001
-1.876 6.1880002 -0.96499997 0.28999999
-1.898 6.1890001 -0.96600002 0.36000001
-1.916 6.178 -0.96499997 0.37
-1.928 6.184 -0.96700001 0.40000001
-1.9529999 6.197 -0.97000003 0.31999999
-1.971 6.1849999 -0.96899998 0.30000001
-1.992 6.1849999 -0.97000003 0.43000001
-2.0120001 6.178 -0.97000003 0.41
-2.0339999 6.1810002 -0.972 0.31999999
-2.056 6.1820002 -0.97299999 0.36000001
-2.069 6.1890001 -0.97500002 0.34
-2.0899999 6.1859999 -0.97600001 0.41
-2.1110001 6.1849999 -0.977 0.30000001
-2.135 6.191 -0.97899997 0.34
-2.155 6.1859999 -0.97899997 0.41999999
-2.1789999 6.1929998 -0.98199999 0.30000001
-2.2019999 6.1950002 -0.98299998 0.41
-2.2179999 6.1810002 -0.98199999 0.25999999
-2.233 6.1919999 -0.98500001 0.36000001
-2.2550001 6.1919999 -0.986 0.38
-2.2780001 6.1939998 -0.98799998 0.27000001
-2.3 6.1950002 -0.98900002 0.38999999
-2.322 6.1929998 -0.99000001 0.38
-2.3429999 6.191 -0.991 0.30000001
-2.3640001 6.1880002 -0.99199998 0.37
-2.3789999 6.197 -0.99400002 0.28999999
-2.401 6.197 -0.995 0.34
-2.4260001 6.2020001 -0.99800003 0.37
-2.4449999 6.1939998 -0.99800003 0.33000001
-2.4679999 6.1960001 -0.99900001 0.36000001
-2.49 6.1950002 -1.001 0.30000001
-2.517 6.204 -1.0039999 0.38
-2.527 6.2020001 -1.0039999 0.41
-2.549 6.1989999 -1.005 0.34
-2.5710001 6.198 -1.006 0.33000001
-2.5969999 6.2049999 -1.0089999 0.46000001
-2.619 6.204 -1.01 0.31999999
-2.6389999 6.198 -1.011 0.28999999
-2.6670001 6.2069998 -1.0140001 0.31
-2.6760001 6.2030001 -1.0140001 0.43000001
-2.7019999 6.2090001 -1.017 0.33000001
-2.7249999 6.2080002 -1.018 0.41
-2.7479999 6.2080002 -1.02 0.30000001
-2.7720001 6.2090001 -1.021 0.33000001
-2.7909999 6.1999998 -1.021 0.31
-2.8180001 6.2069998 -1.024 0.41999999
-2.8299999 6.2080002 -1.025 0.31999999
-2.8540001 6.21 -1.027 0.31
-2.8800001 6.2140002 -1.03 0.38
-2.9030001 6.2119999 -1.031 0.33000001
-2.9219999 6.2030001 -1.031 0.38999999
-2.95 6.211 -1.034 0.33000001
-2.9760001 6.2160001 -1.0369999 0.33000001
-2.9879999 6.2150002 -1.038 0.34999999
-3.01 6.211 -1.039 0.33000001
-3.0350001 6.2140002 -1.041 0.36000001
-3.0569999 6.21 -1.0420001 0.36000001
-3.0840001 6.2140002 -1.045 0.36000001
-3.1099999 6.2189999 -1.0470001 0.38999999
-3.1340001 6.2179999 -1.049 0.31
-3.148 6.2220001 -1.051 0.37
-3.171 6.217 -1.052 0.36000001
-3.1949999 6.2179999 -1.054 0.36000001
-3.2219999 6.2220001 -1.056 0.34
-3.25 6.2270002 -1.059 0.37
-3.267 6.2119999 -1.058 0.34999999
-3.2939999 6.217 -1.061 0.31999999
-3.3110001 6.224 -1.064 0.41
-3.3329999 6.2189999 -1.0650001 0.28999999
-3.362 6.2259998 -1.068 0.41
-3.388 6.2270002 -1.0700001 0.34
-3.4089999 6.2199998 -1.071 0.31999999
-3.4330001 6.2160001 -1.072 0.38999999
-3.467 6.2329998 -1.0779999 0.34999999
-3.4860001 6.2199998 -1.077 0.33000001
-3.5 6.2220001 -1.079 0.33000001
-3.529 6.2280002 -1.082 0.31
-3.552 6.224 -1.0829999 0.30000001
-3.5829999 6.2329998 -1.087 0.31
-3.599 6.2150002 -1.086 0.44999999
-3.622 6.2090001 -1.087 0.30000001
-3.6429999 6.2010002 -1.0880001 0.5
-3.6689999 6.2220001 -1.0930001 0.28999999
-3.684 6.204 -1.092 0.5
-3.721 6.2210002 -1.097 0.30000001
-3.7420001 6.2129998 -1.098 0.49000001
-3.7709999 6.2160001 -1.101 0.30000001
-3.779 6.1859999 -1.097 0.54000002
-3.7650001 6.1409998 -1.09 0.27000001
-3.766 6.099 -1.084 0.52999997
-3.8 6.1110001 -1.0880001 0.33000001
-3.8069999 6.0799999 -1.085 0.58999997
-3.855 6.1129999 -1.094 0.25
-3.937 6.2010002 -1.114 0.56999999
-3.983 6.2309999 -1.122 0.44999999
-4.0040002 6.243 -1.125 0.31999999
-4.0289998 6.2379999 -1.127 0.37
-4.0599999 6.2420001 -1.13 0.31999999
-4.085 6.2379999 -1.132 0.30000001
-4.1129999 6.2379999 -1.135 0.38
-4.1500001 6.2519999 -1.14 0.34999999
-4.1690001 6.2379999 -1.14 0.34999999
-4.1999998 6.2420001 -1.143 0.31999999
-4.2189999 6.25 -1.146 0.38
-4.2480001 6.25 -1.149 0.36000001
-4.2750001 6.2480001 -1.151 0.34
-4.3070002 6.2519999 -1.155 0.28999999
-4.3299999 6.243 -1.156 0.34999999
-4.362 6.2480001 -1.16 0.43000001
-4.3909998 6.2470002 -1.1619999 0.30000001
-4.4050002 6.2459998 -1.164 0.30000001
-4.4390001 6.2529998 -1.168 0.40000001
-4.4679999 6.2519999 -1.171 0.31
-4.4949999 6.2480001 -1.173 0.34999999
-4.5250001 6.2480001 -1.176 0.34
-4.559 6.2550001 -1.1799999 0.31
-4.5809999 6.244 -1.181 0.36000001
-4.6040001 6.2540002 -1.184 0.38
-4.6329999 6.2519999 -1.187 0.28
-4.664 6.2529998 -1.1900001 0.41
-4.6869998 6.243 -1.191 0.31
-4.7249999 6.2519999 -1.196 0.33000001
-4.7509999 6.2470002 -1.198 0.31999999
-4.7820001 6.2459998 -1.201 0.31
-4.8140001 6.2680001 -1.2079999 0.43000001
-4.8379998 6.2579999 -1.209 0.31
-4.869 6.2579999 -1.212 0.33000001
-4.9000001 6.257 -1.215 0.31999999
-4.9330001 6.2589998 -1.219 0.38
-4.961 6.2540002 -1.221 0.28999999
-5 6.263 -1.226 0.37
-5.0170002 6.2639999 -1.228 0.31
-5.0510001 6.2659998 -1.232 0.30000001
-4.9970002 6.1589999 -1.212 0.17
-4.9770002 6.0939999 -1.202 0.16
-5.0159998 6.1030002 -1.207 0.18000001
-5.1690001 6.25 -1.243 0.41
-5.2140002 6.2639999 -1.249 0.31
-5.2319999 6.2670002 -1.252 0.23999999
-5.2670002 6.2690001 -1.256 0.36000001
-5.302 6.27 -1.26 0.34
-5.3239999 6.256 -1.26 0.25999999
-5.3080001 6.198 -1.251 0.31
-5.2989998 6.1479998 -1.244 0.19
-5.1669998 5.9359999 -1.202 0.38
-5.3499999 6.1090002 -1.244 0.2
-5.447 6.1810002 -1.2640001 0.22
-5.559 6.2690001 -1.288 0.34999999
-5.579 6.2519999 -1.288 0.28999999
-5.6220002 6.2610002 -1.294 0.36000001
-5.6560001 6.2589998 -1.2970001 0.31999999
-5.6739998 6.2589998 -1.299 0.28999999
-5.711 6.2600002 -1.304 0.34999999
-5.6630001 6.1680002 -1.2869999 0.22
-5.5209999 5.974 -1.247 0.28999999
-5.6079998 6.0310001 -1.2640001 0.50999999
-5.6350002 6.0219998 -1.266 0.2
-5.6589999 6.0100002 -1.267 0.34
-5.6659999 5.9980001 -1.266 0.44
-5.6259999 5.9190001 -1.252 0
-5.7290001 5.9889998 -1.273 0.13
-6.0300002 6.2659998 -1.341 0.13
-6.0890002 6.289 -1.351 0.38
-5.9970002 6.1529999 -1.324 0
-6.1399999 6.2620001 -1.354 0
-3.309 3.3050001 -0.66299999 0
-3.3110001 3.2869999 -0.66100001 0
-3.3080001 3.2620001 -0.65799999 0
-3.3039999 3.2379999 -0.65499997 0
-3.303 3.2160001 -0.65200001 0
-3.3139999 3.217 -0.653 0
-3.425 3.3050001 -0.67699999 0
-3.487 3.3440001 -0.68900001 0
-3.5009999 3.3369999 -0.69 0
-3.2950001 3.079 -0.63499999 0
-3.2820001 3.0580001 -0.63099998 0
-3.4719999 3.155 -0.66600001 0
-3.546 3.2030001 -0.68000001 0
-3.5699999 3.2049999 -0.68400002 0
-3.585 3.2079999 -0.68599999 0
-3.661 2.9960001 -0.67199999 0
-3.678 2.9909999 -0.67400002 0
-3.684 2.977 -0.67299998 0
-3.6889999 2.961 -0.67199999 0
-3.697 2.9489999 -0.67199999 0
-3.7030001 2.9349999 -0.671 0
-3.7060001 2.918 -0.67000002 0
-3.7 2.904 -0.66799998 0
-3.7130001 2.8959999 -0.66900003 0
-3.724 2.885 -0.66900003 0
-3.744 2.882 -0.671 0
-3.7609999 2.8759999 -0.67299998 0
-3.799 2.8870001 -0.67900002 0
-3.823 2.8859999 -0.68199998 0
-3.8369999 2.8870001 -0.68400002 0
-3.7019999 2.5020001 -0.62800002 0
-3.688 2.4760001 -0.62400001 0
-3.6989999 2.467 -0.625 0
-3.704 2.4530001 -0.62400001 0
-3.701 2.4430001 -0.62300003 0
-3.6989999 2.425 -0.62099999 0
-3.677 2.3940001 -0.61500001 0
-3.724 2.408 -0.62300003 0
-3.697 2.3740001 -0.616 0
-3.414 2.175 -0.55699998 0
-3.4000001 2.1500001 -0.55299997 0
-3.3929999 2.138 -0.551 0
-3.398 2.1270001 -0.551 0
-3.595 2.0739999 -0.57499999 0
-4.336 2.329 -0.70499998 0
-4.3499999 2.319 -0.70599997 0
-4.3470001 2.3 -0.704 0
-4.3559999 2.296 -0.70499998 0
-4.3280001 2.2639999 -0.69800001 0
-4.3530002 2.2590001 -0.70200002 0
-4.3759999 2.2539999 -0.70499998 0
-4.4000001 2.2490001 -0.708 0
-4.3860002 2.224 -0.704 0
-4.3930001 2.21 -0.704 0
-4.3280001 2.1600001 -0.69 0
-4.342 2.1589999 -0.69199997 0
-4.3649998 2.1530001 -0.69499999 0
-4.4190001 2.1630001 -0.704 0
-4.3060002 2.0569999 -0.67900002 0.37
-4.5100002 2.138 -0.71600002 0
-4.3249998 2.0409999 -0.68099999 0
-5.4780002 2.0929999 -0.86400002 0.0099999998
-5.507 2.0940001 -0.86799997 0
-5.592 2.0869999 -0.88099998 0.050000001
-5.6160002 2.075 -0.884 0
-5.6370001 2.063 -0.88700002 0
-5.671 2.056 -0.89200002 0
-5.5869999 2.0050001 -0.87599999 0
-5.5450001 1.98 -0.86799997 0.11
-5.5630002 1.967 -0.87 0.19
-5.5710001 1.95 -0.87 0.039999999
-5.5619998 1.927 -0.86699998 0.12
-9.4659996 3.266 -1.564 0.13
-9.5740004 3.2690001 -1.581 0.30000001
-9.5649996 3.233 -1.5779999 0.27000001
-9.5179996 3.2 -1.568 0.34
-9.5369997 3.1730001 -1.5700001 0.30000001
-9.4540005 3.112 -1.553 0.43000001
-9.4709997 3.085 -1.5549999 0.38
-9.3959999 3.0280001 -1.54 0.36000001
-9.3920002 2.994 -1.5369999 0.27000001
-9.4560003 2.9820001 -1.5470001 0.38999999
-9.5970001 2.994 -1.5700001 0.38
-9.7410002 3.0220001 -1.595 0.34
-9.4940004 2.9119999 -1.55 0.33000001
-9.4469995 2.865 -1.54 0.38999999
-9.6389999 2.891 -1.572 0.34
-9.7159996 2.881 -1.584 0.40000001
-9.6420002 2.826 -1.569 0.31999999
-9.6389999 2.7920001 -1.567 0.36000001
-9.5489998 2.75 -1.551 0.36000001
-9.5389996 2.714 -1.5470001 0.38999999
-9.585 2.6949999 -1.554 0.15000001
-9.4510002 2.625 -1.529 0.58999997
-9.5489998 2.6199999 -1.545 0.25999999
-9.526 2.5810001 -1.539 0.50999999
-9.5209999 2.5639999 -1.538 0.16
-9.5749998 2.546 -1.546 0.33000001
-9.6700001 2.539 -1.561 0.38
-9.7159996 2.5190001 -1.568 0.36000001
-9.7720003 2.5009999 -1.576 0.31999999
-9.7589998 2.4649999 -1.572 0.31
-9.7629995 2.4330001 -1.572 0.30000001
-9.8009996 2.4260001 -1.5779999 0.28999999
-9.7530003 2.382 -1.568 0.23999999
-9.6929998 2.335 -1.556 0.36000001
-9.7659998 2.3199999 -1.568 0.5
-9.6709995 2.2650001 -1.55 0.18000001
-9.776 2.2579999 -1.567 0.18000001
-9.7989998 2.2309999 -1.5700001 0.40000001
-9.8360004 2.207 -1.575 0.40000001
-10.028 2.234 -1.607 0.27000001
-9.9239998 2.178 -1.5880001 0.44999999
-9.9499998 2.151 -1.591 0.38999999
-10.207 2.1730001 -1.635 0.28999999
-9.8199997 2.0580001 -1.567 0.50999999
-9.8669996 2.0350001 -1.574 0.13
-10.133 2.0580001 -1.618 0.41999999
-10.232 2.0610001 -1.635 0.33000001
-10.227 2.027 -1.633 0.34999999
-10.311 2.01 -1.646 0.47
-10.366 1.987 -1.655 0.31
-10.562 1.9910001 -1.687 0.28999999
-10.661 1.975 -1.7029999 0.41
-10.69 1.946 -1.707 0.31
-10.823 1.9529999 -1.73 0.38
-10.95 1.9400001 -1.75 0.31
-10.993 1.9119999 -1.756 0.31999999
-11.105 1.896 -1.775 0.47
-11.356 1.903 -1.817 0.34
-11.528 1.895 -1.845 0.38999999
-11.676 1.882 -1.869 0.2
-11.76 1.877 -1.883 0.34
-11.793 1.844 -1.888 0.41
-11.832 1.812 -1.8940001 0.34
-11.838 1.775 -1.8940001 0.28999999
-11.857 1.74 -1.896 0.28999999
-11.845 1.7 -1.893 0.31
-11.84 1.6619999 -1.891 0.28
-11.847 1.6440001 -1.892 0.28
-11.844 1.605 -1.891 0.27000001
-11.857 1.569 -1.892 0.28
-11.878 1.534 -1.895 0.28
-11.875 1.4960001 -1.893 0.25999999
-11.869 1.457 -1.892 0.25999999
-11.886 1.421 -1.8940001 0.25
-11.878 1.401 -1.892 0.25
-11.888 1.365 -1.893 0.25
-11.883 1.326 -1.891 0.16
-11.901 1.29 -1.8940001 0.28999999
-11.897 1.252 -1.892 0.25
-11.908 1.216 -1.8940001 0.2
-11.922 1.179 -1.895 0.27000001
-11.91 1.159 -1.893 0.25
-11.918 1.122 -1.8940001 0.18000001
-11.937 1.086 -1.896 0.27000001
-11.915 1.046 -1.892 0.23
-11.937 1.011 -1.895 0.19
-11.935 0.97299999 -1.8940001 0.25999999
-11.924 0.93400002 -1.892 0.23
-11.918 0.91500002 -1.891 0.18000001
-11.94 0.87900001 -1.8940001 0.25999999
-11.933 0.83999997 -1.892 0.23
-11.93 0.80199999 -1.891 0.18000001
-11.946 0.76599997 -1.8940001 0.27000001
-11.926 0.727 -1.89 0.23
-11.931 0.69 -1.89 0.18000001
-11.947 0.67199999 -1.893 0.25999999
-11.938 0.634 -1.891 0.23999999
-11.93 0.59600002 -1.8890001 0.17
-11.945 0.55900002 -1.892 0.28
-11.939 0.52100003 -1.89 0.23
-11.931 0.48300001 -1.8890001 0.18000001
-11.948 0.44600001 -1.891 0.28
-11.937 0.42699999 -1.8890001 0.23999999
-11.932 0.389 -1.888 0.18000001
-11.941 0.352 -1.89 0.27000001
-11.923 0.31400001 -1.886 0.23
-11.906 0.27599999 -1.883 0.16
-11.938 0.23899999 -1.8890001 0.28999999
-11.843 0.18099999 -1.872 0.25
-11.831 0.14399999 -1.87 0.2
-11.85 0.107 -1.873 0.28
-11.826 0.07 -1.869 0.25
-11.82 0.050999999 -1.868 0.17
-11.836 0.014 -1.8710001 0.30000001
-11.832 -0.023 -1.87 0.25
-11.82 -0.059999999 -1.868 0.25
-11.822 -0.097999997 -1.869 0.25
-11.812 -0.13500001 -1.867 0.17
-11.835 -0.17200001 -1.8710001 0.28
-11.817 -0.19 -1.868 0.23999999
-11.812 -0.227 -1.867 0.19
-11.831 -0.26499999 -1.8710001 0.28
-11.811 -0.30199999 -1.867 0.23999999
-11.808 -0.33899999 -1.867 0.19
-11.824 -0.37599999 -1.87 0.28
-11.817 -0.41299999 -1.869 0.23999999
-11.813 -0.43200001 -1.868 0.18000001
-11.823 -0.46900001 -1.87 0.27000001
-11.806 -0.50599998 -1.868 0.23
-11.794 -0.542 -1.8660001 0.18000001
-11.814 -0.58099997 -1.87 0.27000001
-11.8 -0.61699998 -1.868 0.22
-11.801 -0.63599998 -1.868 0.18000001
-11.813 -0.67299998 -1.87 0.25999999
-11.799 -0.70999998 -1.868 0.23
-11.793 -0.74699998 -1.868 0.18000001
-11.816 -0.78500003 -1.872 0.27000001
-11.81 -0.82200003 -1.8710001 0.23
-11.809 -0.86000001 -1.872 0.18000001
-11.833 -0.88 -1.876 0.27000001
-11.813 -0.91600001 -1.873 0.23
-11.808 -0.95300001 -1.873 0.18000001
-11.836 -0.99199998 -1.878 0.25999999
-11.835 -1.03 -1.878 0.23
-11.824 -1.066 -1.877 0.18000001
-11.85 -1.1059999 -1.882 0.28
-11.836 -1.124 -1.88 0.23
-11.835 -1.161 -1.88 0.19
-11.866 -1.202 -1.886 0.27000001
-11.858 -1.238 -1.886 0.23999999
-11.858 -1.276 -1.886 0.19
-11.88 -1.316 -1.891 0.27000001
-11.872 -1.353 -1.89 0.25
-11.86 -1.3890001 -1.8890001 0.19
-11.893 -1.4119999 -1.895 0.27000001
-11.88 -1.449 -1.893 0.23999999
-11.876 -1.4859999 -1.893 0.19
-11.902 -1.527 -1.899 0.28
-11.89 -1.563 -1.897 0.25
-11.896 -1.602 -1.899 0.19
-11.921 -1.6440001 -1.904 0.27000001
-11.914 -1.6619999 -1.903 0.23999999
-11.905 -1.699 -1.903 0.16
-11.941 -1.742 -1.91 0.28999999
-11.915 -1.777 -1.906 0.23999999
-11.912 -1.814 -1.9069999 0.18000001
-11.084 -1.761 -1.767 0.62
-11.221 -1.801 -1.791 0
-10.892 -1.784 -1.7359999 0
-10.815 -1.806 -1.724 0
-10.539 -1.795 -1.678 0
-10.197 -1.771 -1.62 0
-10.038 -1.776 -1.594 0
-9.8929996 -1.767 -1.5700001 0
-9.6949997 -1.763 -1.5369999 0
-9.5579996 -1.77 -1.5140001 0
-9.434 -1.778 -1.494 0
-9.3369999 -1.79 -1.478 0
-9.2130003 -1.7970001 -1.4579999 0
-9.1029997 -1.8049999 -1.4400001 0
-9.0010004 -1.8150001 -1.423 0
-8.8369999 -1.7970001 -1.396 0
-8.7700005 -1.812 -1.385 0
-8.5959997 -1.8049999 -1.3559999 0
-8.4919996 -1.811 -1.339 0
-8.3549995 -1.8099999 -1.316 0
-8.2950001 -1.824 -1.307 0
-8.158 -1.821 -1.284 0.11
-8.158 -1.835 -1.285 0.19
-8.1339998 -1.8559999 -1.2819999 0.1
-8.092 -1.874 -1.275 0.18000001
-8.0749998 -1.896 -1.274 0.11
-8.0530005 -1.918 -1.271 0.19
-8.0699997 -1.949 -1.275 0.2
-8.0970001 -1.982 -1.28 0.2
-8.1660004 -2.013 -1.293 0.28999999
-8.0369997 -2.0079999 -1.272 0.33000001
-8.0179996 -2.03 -1.27 0.18000001
-8.0439997 -2.063 -1.275 0.28999999
-7.9990001 -2.079 -1.2690001 0.14
-8.033 -2.141 -1.277 0.50999999
-8.0240002 -2.1530001 -1.276 0.46000001
-8.0159998 -2.177 -1.275 0.16
-8.0539999 -2.2149999 -1.283 0.16
-8.0019999 -2.2279999 -1.275 0.13
-7.875 -2.2190001 -1.255 0.34
-7.9380002 -2.2639999 -1.267 0.2
-7.8649998 -2.27 -1.255 0.14
-7.855 -2.2809999 -1.2539999 0.17
-7.8800001 -2.3150001 -1.26 0.75
-7.8639998 -2.3369999 -1.258 0.80000001
-7.9619999 -2.3929999 -1.277 0.07
-7.902 -2.402 -1.268 0.14
-8.0790005 -2.483 -1.3 0.27000001
-8.0830002 -2.5120001 -1.302 0.17
-8.1110001 -2.5339999 -1.308 0.28
-8.1049995 -2.5599999 -1.308 0.25
-8.0740004 -2.579 -1.304 0.22
-8.0979996 -2.6140001 -1.3099999 0.13
-8.0780001 -2.6359999 -1.308 0.2
-8.0699997 -2.661 -1.308 0
-7.987 -2.6619999 -1.294 0.02
-7.796 -2.6400001 -1.263 0.27000001
-7.7969999 -2.668 -1.265 0.2
-8.0740004 -2.79 -1.3150001 0.20999999
-8.0749998 -2.8180001 -1.317 0.039999999
-8.0880003 -2.852 -1.321 0.15000001
-8.092 -2.882 -1.323 0.19
-8.0780001 -2.891 -1.322 0.18000001
-8.0640001 -2.914 -1.321 0
-8.0299997 -2.931 -1.316 0
-7.8800001 -2.905 -1.291 0
-7.8439999 -2.9189999 -1.286 0.029999999
-7.8449998 -2.948 -1.288 0.17
-7.842 -2.9749999 -1.289 0.22
-7.8540001 -2.993 -1.2920001 0.090000004
-7.9029999 -3.0409999 -1.303 0.18000001
-8.0319996 -3.118 -1.3279999 0.050000001
-8.0489998 -3.154 -1.3329999 0.14
-8.0469999 -3.1830001 -1.334 0.30000001
-8.04 -3.2090001 -1.335 0.22
-8.0340004 -3.2360001 -1.335 0.059999999
-8.0579996 -3.26 -1.341 0.079999998
-8.0439997 -3.2839999 -1.34 0.16
-8.0319996 -3.309 -1.34 0
-8.0869999 -3.3610001 -1.352 0
-8.0670004 -3.3829999 -1.35 0
-9.5349998 -4.0630002 -1.623 0.17
-9.6090002 -4.112 -1.637 0
-4.691 -2.04 -0.73699999 0
-4.6209998 -2.027 -0.72600001 0
-4.5380001 -2.0250001 -0.713 0
-4.4720001 -2.013 -0.70200002 0
-4.415 -2.0039999 -0.69199997 0
-4.3130002 -1.999 -0.676 0
-4.2930002 -2.006 -0.67400002 0
-4.2719998 -2.013 -0.671 0
-4.2550001 -2.0220001 -0.66900003 0
-4.25 -2.036 -0.66900003 0
-4.118 -2.184 -0.66100001 0
-4.1479998 -2.2079999 -0.667 0
-4.1170001 -2.2079999 -0.662 0
-4.0939999 -2.2119999 -0.65899998 0
-4.1199999 -2.243 -0.66600001 0
-4.1129999 -2.256 -0.66600001 0
-4.1020002 -2.267 -0.66500002 0
-4.0180001 -2.237 -0.64999998 0
-4.0949998 -2.2880001 -0.66600001 0
-3.4690001 -2.029 -0.55199999 0
-3.4519999 -2.027 -0.55000001 0
-3.026 -2.066 -0.49200001 0
-3.0079999 -2.0680001 -0.49000001 0
-3.0079999 -2.0810001 -0.49200001 0
-2.977 -2.0739999 -0.48699999 0
-2.9070001 -2.0880001 -0.47799999 0
-2.9159999 -2.108 -0.48199999 0
-2.908 -2.1159999 -0.48100001 0
-2.9059999 -2.1289999 -0.48199999 0
-2.8829999 -2.1329999 -0.47999999 0
-2.872 -2.1389999 -0.479 0
-2.839 -2.1700001 -0.477 0
-2.8380001 -2.1900001 -0.479 0
-2.8369999 -2.204 -0.48100001 0
-2.832 -2.214 -0.48100001 0
-2.8139999 -2.2149999 -0.479 0
-2.8050001 -2.2219999 -0.47799999 0
-2.809 -2.2390001 -0.48100001 0
-2.8210001 -2.256 -0.484 0
-2.8139999 -2.2650001 -0.484 0
-2.7809999 -2.253 -0.47799999 0
-2.7980001 -2.2809999 -0.484 0
-2.786 -2.286 -0.48300001 0
-2.7920001 -2.3050001 -0.48500001 0
-2.7980001 -2.325 -0.48800001 0
-2.7780001 -2.316 -0.48500001 0
-2.7809999 -2.3329999 -0.48699999 0
-2.78 -2.3469999 -0.48800001 0
-2.7709999 -2.3540001 -0.48800001 0
-2.7739999 -2.372 -0.49000001 0
-2.7679999 -2.382 -0.491 0
-2.7449999 -2.378 -0.48699999 0
-2.7479999 -2.3870001 -0.48899999 0
-2.766 -2.418 -0.49399999 0
-2.74 -2.411 -0.49000001 0
-2.7520001 -2.437 -0.49399999 0
-2.753 -2.4530001 -0.49599999 0
-2.7390001 -2.4560001 -0.495 0
-2.72 -2.454 -0.49200001 0
-2.734 -2.4749999 -0.49599999 0
-2.7260001 -2.483 -0.49599999 0
-2.74 -2.5109999 -0.50099999 0
-2.7190001 -2.5079999 -0.498 0
-2.71 -2.5150001 -0.498 0
-2.734 -2.553 -0.505 0
-2.71 -2.5469999 -0.50199997 0
-2.7160001 -2.5610001 -0.50400001 0
-2.7060001 -2.5680001 -0.50400001 0
-2.7179999 -2.595 -0.50800002 0
-2.707 -2.6010001 -0.50800002 0
-2.6919999 -2.6029999 -0.50599998 0
-2.7190001 -2.645 -0.514 0
-2.697 -2.6400001 -0.51099998 0
-2.707 -2.658 -0.514 0
-2.704 -2.6719999 -0.51599997 0
-2.694 -2.6789999 -0.51499999 0
-2.6900001 -2.6919999 -0.51599997 0
-2.7079999 -2.727 -0.523 0
-2.7019999 -2.7379999 -0.523 0
-2.6949999 -2.7479999 -0.52399999 0
-2.701 -2.7620001 -0.52600002 0
-2.6960001 -2.7750001 -0.52700001 0
-2.7 -2.796 -0.52999997 0
-2.707 -2.8210001 -0.53399998 0
-2.701 -2.832 -0.53500003 0
-2.7019999 -2.8510001 -0.537 0
-2.707 -2.8740001 -0.54000002 0
-2.7160001 -2.892 -0.54400003 0
-2.7130001 -2.908 -0.54500002 0
-2.724 -2.938 -0.55000001 0
-2.777 -3.013 -0.56599998 0
-2.7809999 -3.036 -0.56900001 0
-2.7679999 -3.04 -0.56800002 0
-2.7409999 -3.03 -0.56400001 0
-2.727 -3.0239999 -0.56099999 0
-2.721 -3.0369999 -0.56199998 0
-2.727 -3.063 -0.56599998 0
-2.724 -3.079 -0.56800002 0
-2.7420001 -3.119 -0.57499999 0
-2.7650001 -3.164 -0.583 0
-6.9850001 -8.0089998 -1.6670001 0.12
-2.7539999 -3.171 -0.583 0
-7.0440001 -8.1280003 -1.689 0.18000001
-7.2950001 -8.4689999 -1.76 0.28
-7.2449999 -8.4650002 -1.7539999 0.31
-7.2220001 -8.4919996 -1.755 0.38999999
-7.2090001 -8.5310001 -1.758 0.33000001
-7.1690001 -8.5369997 -1.755 0.40000001
-7.1589999 -8.5530005 -1.756 0.38
-7.1259999 -8.5679998 -1.7539999 0.34
-7.0819998 -8.5710001 -1.75 0.38999999
-7.053 -8.5900002 -1.749 0.37
-7.0009999 -8.5810003 -1.743 0.31999999
-6.9629998 -8.5900002 -1.74 0.38999999
-6.9439998 -8.6219997 -1.742 0.33000001
-6.8990002 -8.5930004 -1.733 0.36000001
-6.869 -8.6120005 -1.733 0.37
-6.8330002 -8.6219997 -1.73 0.38
-6.8080001 -8.6450005 -1.7309999 0.36000001
-6.7789998 -8.665 -1.73 0.38999999
-6.7540002 -8.6899996 -1.7309999 0.30000001
-6.75 -8.7399998 -1.737 0.41999999
-6.7459998 -8.7629995 -1.74 0.34999999
-6.717 -8.783 -1.74 0.36000001
-6.6329999 -8.7299995 -1.724 0.33000001
-6.6110001 -8.7580004 -1.725 0.28999999
-6.6230001 -8.8319998 -1.737 0.41999999
-6.5890002 -8.8430004 -1.735 0.31999999
-6.5890002 -8.8719997 -1.739 0.37
-6.5819998 -8.9219999 -1.745 0.36000001
-6.5539999 -8.9420004 -1.745 0.34
-6.52 -8.9549999 -1.743 0.33000001
-6.4980001 -8.9829998 -1.745 0.34999999
-6.4660001 -8.9989996 -1.744 0.38999999
-6.4109998 -8.9820004 -1.7359999 0.31999999
-6.3779998 -8.9650002 -1.73 0.34
-6.342 -8.9750004 -1.728 0.33000001
-6.3189998 -9.0019999 -1.73 0.34999999
-6.2589998 -8.9759998 -1.72 0.31999999
-6.289 -9.0799999 -1.738 0.36000001
-6.23 -9.0559998 -1.729 0.30000001
-6.2189999 -9.1000004 -1.734 0.34999999
-6.2280002 -9.1440001 -1.7410001 0.31999999
-6.2080002 -9.1759996 -1.743 0.38999999
-6.151 -9.1549997 -1.735 0.38
-6.1300001 -9.1859999 -1.737 0.36000001
-6.1020002 -9.2069998 -1.738 0.38
-6.0300002 -9.1599998 -1.724 0.34
-5.9959998 -9.1709995 -1.723 0.38999999
-5.9759998 -9.1719999 -1.721 0.37
-5.9499998 -9.1949997 -1.722 0.34999999
-5.8940001 -9.1709995 -1.7130001 0.38
-5.855 -9.1739998 -1.71 0.36000001
-5.8520002 -9.2329998 -1.7180001 0.31999999
-5.835 -9.2709999 -1.722 0.38
-5.8210001 -9.3129997 -1.727 0.36000001
-5.8080001 -9.3249998 -1.728 0.36000001
-5.7550001 -9.3050003 -1.72 0.37
-5.71 -9.2980003 -1.715 0.33000001
-5.6830001 -9.3190002 -1.716 0.31
-5.6199999 -9.2810001 -1.705 0.41
-5.632 -9.3660002 -1.7180001 0.38
-5.5819998 -9.3500004 -1.711 0.36000001
-5.5560002 -9.3400002 -1.7079999 0.37
-5.5320001 -9.3660002 -1.709 0.37
-5.5349998 -9.4399996 -1.72 0.34999999
-5.4970002 -9.4420004 -1.717 0.34999999
-5.4759998 -9.474 -1.72 0.34
-5.4380002 -9.4779997 -1.7180001 0.34
-5.4369998 -9.5439997 -1.727 0.37
-5.4159999 -9.5430002 -1.725 0.37
-5.3660002 -9.5249996 -1.719 0.36000001
-5.3509998 -9.5679998 -1.724 0.34999999
-5.3439999 -9.6260004 -1.732 0.36000001
-5.2950001 -9.6079998 -1.725 0.37
-5.257 -9.6110001 -1.722 0.36000001
-5.211 -9.6000004 -1.717 0.33000001
-5.1989999 -9.6129999 -1.7180001 0.37
-5.1750002 -9.6400003 -1.72 0.40000001
-5.1630001 -9.691 -1.727 0.34
-5.1100001 -9.665 -1.719 0.41999999
-5.0840001 -9.6899996 -1.72 0.34999999
-5.079 -9.7530003 -1.729 0.34999999
-4.9990001 -9.6739998 -1.711 0.36000001
-4.9829998 -9.6800003 -1.711 0.36000001
-4.9559999 -9.7030001 -1.712 0.37
-4.8930001 -9.6549997 -1.7 0.36000001
-4.8439999 -9.6339998 -1.693 0.38
-4.8119998 -9.6450005 -1.693 0.33000001
-4.7880001 -9.6730003 -1.6950001 0.36000001
-4.7659998 -9.7049999 -1.698 0.37
-4.77 -9.7519999 -1.706 0.43000001
-4.724 -9.7349997 -1.7 0.34999999
-4.6919999 -9.7480001 -1.699 0.40000001
-4.665 -9.7700005 -1.701 0.38
-4.6440001 -9.8039999 -1.704 0.37
-4.6020002 -9.7950001 -1.7 0.34999999
-4.573 -9.8129997 -1.701 0.41
-4.546 -9.7950001 -1.696 0.34
-4.527 -9.8369999 -1.701 0.36000001
-4.4640002 -9.7810001 -1.688 0.34
-4.4219999 -9.7700005 -1.683 0.34999999
-4.3930001 -9.7869997 -1.684 0.36000001
-4.3829999 -9.8459997 -1.692 0.40000001
-4.3080001 -9.7620001 -1.674 0.31999999
-4.283 -9.7469997 -1.67 0.36000001
-4.2540002 -9.7639999 -1.671 0.34
-4.2350001 -9.8050003 -1.676 0.38999999
-4.2010002 -9.809 -1.674 0.31
-4.1599998 -9.7989998 -1.67 0.41999999
-4.1240001 -9.7989998 -1.668 0.36000001
-4.098 -9.8249998 -1.67 0.37
-4.059 -9.7749996 -1.66 0.33000001
-4.0219998 -9.7709999 -1.6569999 0.38999999
-3.9979999 -9.802 -1.66 0.31999999
-3.9560001 -9.7869997 -1.655 0.38999999
-3.957 -9.8780003 -1.669 0.36000001
-3.9260001 -9.8900003 -1.669 0.34999999
-3.908 -9.8889999 -1.668 0.36000001
-3.8759999 -9.8990002 -1.668 0.34999999
-3.826 -9.8640003 -1.659 0.34999999
-3.8039999 -9.8979998 -1.663 0.34
-3.7750001 -9.915 -1.664 0.31999999
-3.7290001 -9.8879995 -1.6569999 0.40000001
-3.7030001 -9.9130001 -1.659 0.37
-3.671 -9.8739996 -1.651 0.38
-3.6289999 -9.8579998 -1.646 0.36000001
-3.609 -9.8990002 -1.652 0.37
-3.5599999 -9.8599997 -1.643 0.38999999
-3.5320001 -9.8789997 -1.6440001 0.31999999
-3.513 -9.9250002 -1.65 0.34999999
-3.4920001 -9.9639997 -1.655 0.38
-3.4579999 -9.9680004 -1.654 0.37
-3.425 -9.9230003 -1.645 0.33000001
-3.3989999 -9.9499998 -1.648 0.38
-3.375 -9.9809999 -1.652 0.40000001
-3.345 -9.9960003 -1.652 0.34
-3.3299999 -10.055 -1.661 0.37
-3.296 -10.06 -1.66 0.38999999
-3.2609999 -10.059 -1.658 0.34
-3.244 -10.06 -1.6569999 0.36000001
-3.2 -10.031 -1.65 0.40000001
-3.1700001 -10.046 -1.651 0.41
-3.1429999 -10.071 -1.654 0.28999999
-3.112 -10.083 -1.654 0.44999999
-3.0739999 -10.072 -1.651 0.36000001
-3.072 -10.122 -1.659 0.36000001
-3.029 -10.094 -1.652 0.38
-3.003 -10.122 -1.655 0.37
-2.9719999 -10.135 -1.656 0.34
-2.918 -10.069 -1.643 0.34
-2.892 -10.099 -1.646 0.37
-2.8529999 -10.083 -1.642 0.36000001
-2.842 -10.103 -1.645 0.31999999
-2.8139999 -10.125 -1.647 0.36000001
-2.7939999 -10.176 -1.654 0.36000001
-2.7690001 -10.211 -1.659 0.41
-2.7360001 -10.216 -1.658 0.28999999
-2.681 -10.141 -1.6440001 0.44
-2.661 -10.193 -1.651 0.34
-2.6500001 -10.216 -1.655 0.40000001
-2.6129999 -10.207 -1.652 0.37
-2.5869999 -10.236 -1.655 0.36000001
-2.5510001 -10.231 -1.653 0.33000001
-2.527 -10.27 -1.658 0.38999999
-2.4879999 -10.251 -1.654 0.36000001
-2.444 -10.213 -1.646 0.34
-2.4360001 -10.247 -1.651 0.37
-2.4000001 -10.239 -1.648 0.34999999
-2.359 -10.208 -1.642 0.36000001
-2.335 -10.25 -1.648 0.36000001
-2.303 -10.262 -1.648 0.36000001
-2.2690001 -10.257 -1.646 0.38
-2.237 -10.268 -1.647 0.41999999
-2.21 -10.221 -1.638 0.34
-2.1889999 -10.28 -1.647 0.38999999
-2.155 -10.28 -1.646 0.37
-2.1270001 -10.306 -1.649 0.34
-2.0899999 -10.291 -1.646 0.36000001
-2.0569999 -10.296 -1.645 0.38999999
-2.023 -10.29 -1.643 0.34999999
-2.0139999 -10.332 -1.65 0.38
-1.977 -10.315 -1.646 0.38
-1.943 -10.314 -1.645 0.34
-1.913 -10.331 -1.647 0.41
-1.877 -10.316 -1.643 0.34
-1.85 -10.355 -1.649 0.34999999
-1.812 -10.326 -1.643 0.41
-1.799 -10.352 -1.647 0.34
-1.77 -10.377 -1.65 0.34999999
-1.738 -10.384 -1.65 0.41
-1.702 -10.37 -1.647 0.38
-1.671 -10.385 -1.649 0.33000001
-1.642 -10.412 -1.652 0.40000001
-1.6059999 -10.394 -1.648 0.31999999
-1.5880001 -10.39 -1.647 0.34999999
-1.5549999 -10.391 -1.647 0.38999999
-1.52 -10.379 -1.6440001 0.33000001
-1.488 -10.387 -1.6440001 0.38999999
-1.452 -10.368 -1.64 0.36000001
-1.4170001 -10.359 -1.638 0.38
-1.387 -10.381 -1.641 0.33000001
-1.374 -10.407 -1.645 0.36000001
-1.342 -10.413 -1.645 0.36000001
-1.311 -10.433 -1.648 0.40000001
-1.281 -10.464 -1.653 0.30000001
-1.244 -10.427 -1.646 0.38999999
-1.209 -10.413 -1.643 0.38
-1.176 -10.413 -1.642 0.38
-1.158 -10.401 -1.64 0.31999999
-1.12 -10.358 -1.632 0.41
-1.091 -10.393 -1.637 0.36000001
-1.061 -10.429 -1.643 0.38
-1.0319999 -10.466 -1.648 0.36000001
-1.001 -10.487 -1.651 0.38
-0.96499997 -10.459 -1.646 0.31
-0.94599998 -10.439 -1.642 0.34999999
-0.912 -10.428 -1.64 0.38999999
-0.88200003 -10.456 -1.6440001 0.34999999
-0.84899998 -10.453 -1.643 0.41999999
-0.81599998 -10.461 -1.6440001 0.34999999
-0.78100002 -10.434 -1.6390001 0.38999999
-0.76700002 -10.467 -1.645 0.41
-0.73500001 -10.485 -1.647 0.34999999
-0.70200002 -10.482 -1.646 0.36000001
-0.66900003 -10.49 -1.647 0.43000001
-0.63800001 -10.513 -1.651 0.38
-0.60399997 -10.507 -1.65 0.34
-0.57200003 -10.531 -1.653 0.38
-0.55500001 -10.506 -1.649 0.40000001
-0.51999998 -10.488 -1.646 0.37
-0.486 -10.464 -1.641 0.34
-0.45300001 -10.45 -1.6390001 0.40000001
-0.421 -10.475 -1.643 0.38
-0.38699999 -10.456 -1.6390001 0.37
-0.352 -10.385 -1.627 0.33000001
-0.33700001 -10.425 -1.6339999 0.46000001
-0.30399999 -10.435 -1.635 0.31
-0.27200001 -10.448 -1.637 0.25999999
-0.23999999 -10.496 -1.645 0.46000001
-0.168 -8.717 -1.345 0.18000001
-0.175 -10.513 -1.648 0.41999999
-0.113 -8.7019997 -1.342 0.37
-0.098999999 -8.6739998 -1.3380001 0.30000001
-0.071000002 -8.6450005 -1.3329999 0.36000001
-0.045000002 -8.7399998 -1.349 0.28999999
-0.017000001 -8.665 -1.336 0.43000001
0.011 -8.6140003 -1.327 0.31999999
0.037 -8.4989996 -1.308 0.38999999
0.064999998 -8.6020002 -1.325 0.37
0.078000002 -8.5959997 -1.324 0.38999999
0.106 -8.6700001 -1.337 0.44999999
0.156 -10.508 -1.647 0.31
0.16 -8.6850004 -1.34 0.25999999
0.18799999 -8.7139997 -1.345 0.20999999
0.215 -8.6800003 -1.339 0.49000001
0.241 -8.6400003 -1.332 0.47999999
0.25400001 -8.6219997 -1.329 0.33000001
0.28099999 -8.6049995 -1.327 0.31
0.30700001 -8.5869999 -1.324 0.41
0.33399999 -8.5839996 -1.323 0.38999999
0.361 -8.5860004 -1.324 0.41
0.389 -8.5909996 -1.325 0.40000001
0.41600001 -8.6079998 -1.3279999 0.34
0.43099999 -8.6190004 -1.33 0.47
0.45899999 -8.6549997 -1.336 0.31999999
0.579 -10.384 -1.6289999 0.37
0.61400002 -10.432 -1.637 0.31
0.64499998 -10.398 -1.632 0.44
0.67799997 -10.402 -1.633 0.30000001
0.708 -10.361 -1.626 0.44999999
0.727 -10.401 -1.633 0.34999999
0.759 -10.383 -1.63 0.43000001
0.79000002 -10.357 -1.626 0.23999999
0.67199999 -8.401 -1.296 0.51999998
0.69800001 -8.3879995 -1.294 0.25999999
0.884 -10.307 -1.619 0.25
0.91900003 -10.342 -1.626 0.31
0.93699998 -10.352 -1.628 0.46000001
0.96899998 -10.347 -1.627 0.37
1.001 -10.342 -1.627 0.33000001
1.03 -10.302 -1.6210001 0.38999999
1.069 -10.361 -1.631 0.38
1.098 -10.328 -1.626 0.34
1.112 -10.305 -1.623 0.36000001
1.142 -10.278 -1.619 0.41
1.178 -10.306 -1.624 0.34
1.21 -10.298 -1.623 0.38999999
1.242 -10.292 -1.623 0.38
1.274 -10.286 -1.623 0.38
1.306 -10.282 -1.623 0.31999999
1.3279999 -10.321 -1.63 0.36000001
1.3609999 -10.321 -1.63 0.36000001
1.397 -10.346 -1.635 0.36000001
1.423 -10.291 -1.627 0.36000001
1.45 -10.251 -1.6210001 0.38999999
1.4859999 -10.27 -1.625 0.34999999
1.517 -10.261 -1.624 0.36000001
1.554 -10.284 -1.6289999 0.38999999
1.568 -10.274 -1.627 0.34
1.603 -10.28 -1.6289999 0.38999999
1.6339999 -10.269 -1.628 0.36000001
1.663 -10.243 -1.625 0.36000001
1.698 -10.257 -1.628 0.36000001
1.735 -10.281 -1.633 0.37
1.768 -10.281 -1.6339999 0.37
1.785 -10.28 -1.6339999 0.37
1.812 -10.243 -1.6289999 0.30000001
1.8380001 -10.207 -1.624 0.44999999
1.867 -10.183 -1.6210001 0.38999999
1.903 -10.199 -1.624 0.41
1.928 -10.152 -1.617 0.37
1.944 -10.153 -1.618 0.38
1.98 -10.166 -1.6210001 0.33000001
2.0179999 -10.189 -1.626 0.34999999
2.0510001 -10.192 -1.628 0.38999999
2.0899999 -10.217 -1.633 0.33000001
2.112 -10.164 -1.625 0.36000001
2.142 -10.145 -1.623 0.34999999
2.158 -10.144 -1.624 0.41999999
2.181 -10.097 -1.617 0.41999999
2.2179999 -10.115 -1.6210001 0.34
2.25 -10.108 -1.6210001 0.41
2.27 -10.049 -1.612 0.37
2.302 -10.043 -1.612 0.30000001
2.339 -10.057 -1.6160001 0.44999999
2.352 -10.042 -1.614 0.34999999
2.381 -10.025 -1.612 0.37
2.4159999 -10.033 -1.615 0.41999999
2.4449999 -10.014 -1.613 0.33000001
2.4820001 -10.029 -1.617 0.36000001
2.5150001 -10.027 -1.618 0.37
2.5510001 -10.036 -1.6210001 0.41999999
2.5669999 -10.034 -1.6210001 0.34
2.598 -10.024 -1.6210001 0.40000001
2.6289999 -10.012 -1.62 0.34
2.661 -10.007 -1.6210001 0.33000001
2.694 -10.005 -1.622 0.40000001
2.717 -9.9659996 -1.617 0.33000001
2.75 -9.9610004 -1.617 0.38999999
2.7679999 -9.9659996 -1.619 0.36000001
2.7780001 -9.8830004 -1.6059999 0.31
2.8050001 -9.8570004 -1.603 0.38999999
2.8410001 -9.8669996 -1.6059999 0.34999999
2.8599999 -9.8170004 -1.599 0.31
2.8599999 -9.7040005 -1.581 0.36000001
2.895 -9.7080002 -1.5829999 0.41
2.9400001 -9.8039999 -1.601 0.36000001
2.9619999 -9.7639999 -1.595 0.34999999
2.9790001 -9.7110004 -1.5880001 0.34
3.0139999 -9.7150002 -1.59 0.34
3.046 -9.7110004 -1.591 0.40000001
3.0699999 -9.6829996 -1.5880001 0.36000001
3.1070001 -9.6920004 -1.591 0.36000001
3.1270001 -9.7019997 -1.594 0.34
3.175 -9.7480001 -1.604 0.34
3.1930001 -9.6990004 -1.597 0.36000001
3.2349999 -9.7229996 -1.603 0.34
3.2620001 -9.7010002 -1.601 0.34999999
3.2839999 -9.6669998 -1.596 0.34999999
3.312 -9.651 -1.595 0.38999999
3.3180001 -9.6190004 -1.591 0.23
3.3559999 -9.6309996 -1.595 0.5
3.3959999 -9.6470003 -1.599 0.31999999
3.431 -9.6490002 -1.602 0.36000001
3.45 -9.6079998 -1.596 0.41999999
3.4809999 -9.599 -1.597 0.33000001
3.5020001 -9.6090002 -1.599 0.38999999
3.539 -9.618 -1.603 0.38
3.563 -9.5880003 -1.6 0.34999999
3.586 -9.559 -1.596 0.31999999
3.619 -9.5570002 -1.598 0.34999999
3.648 -9.5419998 -1.597 0.41
3.6670001 -9.5019999 -1.592 0.31
3.6919999 -9.5220003 -1.597 0.41
3.7160001 -9.4940004 -1.594 0.34999999
3.747 -9.4860001 -1.595 0.37
3.7850001 -9.4960003 -1.599 0.40000001
3.8110001 -9.4729996 -1.597 0.41
3.848 -9.4799995 -1.6 0.34999999
3.8870001 -9.4910002 -1.604 0.40000001
3.892 -9.46 -1.6 0.34
3.9219999 -9.4490004 -1.6 0.38999999
3.9549999 -9.4440002 -1.601 0.34
4.0019999 -9.4729996 -1.609 0.36000001
4.0240002 -9.4429998 -1.6059999 0.37
4.0409999 -9.401 -1.6 0.41999999
4.0619998 -9.3660002 -1.596 0.31
4.053 -9.3059998 -1.587 0.43000001
4.0560002 -9.2329998 -1.576 0.36000001
4.079 -9.2080002 -1.573 0.31999999
4.118 -9.217 -1.577 0.34999999
4.1599998 -9.2329998 -1.5829999 0.37
4.191 -9.2250004 -1.584 0.36000001
4.197 -9.1610003 -1.574 0.31
4.217 -9.1669998 -1.577 0.41
4.2589998 -9.1809998 -1.582 0.34999999
4.2950001 -9.184 -1.585 0.37
