# .PCD v0.7 - Point Cloud Data file format
VERSION 0.7
FIELDS x y z intensity
SIZE 4 4 4 4
TYPE F F F F
COUNT 1 1 1 1
WIDTH 1433
HEIGHT 1
VIEWPOINT 0 0 0 1 0 0 0
POINTS 1433
DATA ascii
-2.628 4.0040002 -1.811 0.47999999
-2.641 3.9960001 -1.811 0.41
-2.655 3.99 -1.813 0.40000001
-2.6700001 3.9849999 -1.814 0.40000001
-2.678 3.971 -1.811 0.34
-2.6889999 3.9590001 -1.8099999 0.41999999
-2.7090001 3.9630001 -1.816 0.28999999
-2.7090001 3.9489999 -1.811 0.56999999
-2.7409999 3.9690001 -1.825 0.28
-2.7650001 3.977 -1.8329999 0.43000001
-2.7539999 3.934 -1.816 0
-2.777 3.941 -1.824 0
-3.286 3.4790001 -1.8099999 0
-3.3039999 3.477 -1.814 0.039999999
-3.309 3.46 -1.8099999 0.15000001
-3.3280001 3.4579999 -1.8150001 0.2
-3.3399999 3.4489999 -1.816 0.28999999
-3.346 3.4449999 -1.816 0.31
-3.3510001 3.428 -1.813 0.25
-3.368 3.424 -1.816 0.34
-3.368 3.402 -1.8099999 0.27000001
-3.391 3.404 -1.817 0.36000001
-3.4000001 3.392 -1.816 0.5
-3.4070001 3.3770001 -1.814 0.34
-3.421 3.3699999 -1.816 0.34
-3.4159999 3.3540001 -1.8099999 0.34
-3.421 3.3380001 -1.807 0.28999999
-3.4419999 3.3380001 -1.813 0.36000001
-3.448 3.322 -1.8099999 0.28999999
-3.4649999 3.3180001 -1.814 0.33000001
-3.4779999 3.309 -1.816 0.31999999
-3.484 3.2950001 -1.813 0.41999999
-3.4879999 3.2880001 -1.813 0.31
-3.5039999 3.2820001 -1.816 0.28
-3.513 3.27 -1.8150001 0.2
-3.513 3.25 -1.8099999 0.50999999
-3.5320001 3.2460001 -1.814 0.33000001
-3.5350001 3.2290001 -1.8099999 0.41
-3.552 3.224 -1.814 0.41
-3.552 3.2130001 -1.811 0.30000001
-3.5550001 3.1960001 -1.807 0.30000001
-3.569 3.1889999 -1.8099999 0.34
-3.5869999 3.1849999 -1.814 0.23999999
-3.5869999 3.165 -1.809 0.46000001
-3.6129999 3.1670001 -1.817 0.49000001
-3.6140001 3.148 -1.813 0.28
-3.619 3.132 -1.8099999 0.38
-3.625 3.128 -1.8099999 0.30000001
-3.6389999 3.1199999 -1.813 0.30000001
-3.6370001 3.099 -1.807 0.30000001
-3.658 3.0969999 -1.813 0.38
-3.661 3.079 -1.809 0.27000001
-3.6719999 3.069 -1.8099999 0.31999999
-3.6919999 3.066 -1.8150001 0.37
-3.694 3.0580001 -1.813 0.38999999
-3.7019999 3.0450001 -1.813 0.36000001
-3.711 3.033 -1.813 0.34999999
-3.7309999 3.03 -1.818 0.37
-3.7249999 3.0050001 -1.8099999 0.27000001
-3.7409999 2.9990001 -1.813 0.36000001
-3.743 2.9820001 -1.8099999 0.23
-3.76 2.9849999 -1.816 0.44999999
-3.766 2.971 -1.814 0.31999999
-3.773 2.957 -1.813 0.41999999
-3.777 2.9419999 -1.8099999 0.30000001
-3.7809999 2.925 -1.807 0.34999999
-3.7969999 2.9189999 -1.811 0.31999999
-3.8039999 2.905 -1.8099999 0.33000001
-3.816 2.895 -1.811 0.30000001
-3.825 2.892 -1.813 0.31
-3.835 2.881 -1.814 0.31999999
-3.8410001 2.8670001 -1.813 0.34
-3.846 2.852 -1.8099999 0.27000001
-3.846 2.8329999 -1.806 0.23999999
-3.872 2.8340001 -1.8150001 0.30000001
-3.8800001 2.8210001 -1.814 0.38
-3.8829999 2.8139999 -1.813 0.38999999
-3.8870001 2.7980001 -1.811 0.38
-3.905 2.7920001 -1.816 0.40000001
-3.911 2.7780001 -1.814 0.34
-3.9100001 2.7590001 -1.8099999 0.30000001
-3.931 2.756 -1.816 0.38
-3.937 2.7409999 -1.814 0.28999999
-3.9489999 2.74 -1.818 0.38
-3.9400001 2.7160001 -1.8099999 0.25
-3.9460001 2.7019999 -1.808 0.33000001
-3.9560001 2.6900001 -1.809 0.31999999
-3.9749999 2.6849999 -1.814 0.36000001
-3.9909999 2.678 -1.818 0.41
-3.9960001 2.6630001 -1.816 0.34
-3.9990001 2.6559999 -1.816 0.30000001
-4.0009999 2.6389999 -1.813 0.31
-3.9990001 2.619 -1.807 0.23999999
-4.0240002 2.618 -1.816 0.31
-4.0310001 2.6040001 -1.8150001 0.36000001
-4.04 2.5929999 -1.816 0.36000001
-4.053 2.5829999 -1.818 0.38999999
-4.0599999 2.569 -1.817 0.37
-4.0539999 2.5569999 -1.813 0.38
-4.073 2.5510001 -1.818 0.38
-4.0780001 2.536 -1.816 0.25999999
-4.0970001 2.53 -1.822 0.51999998
-4.099 2.5139999 -1.819 0.30000001
-4.1069999 2.5009999 -1.819 0.36000001
-4.1110001 2.4860001 -1.817 0.31999999
-4.1139998 2.4779999 -1.816 0.33000001
-4.118 2.464 -1.8150001 0.31999999
-4.1230001 2.4489999 -1.813 0.31999999
-4.1269999 2.434 -1.812 0.27000001
-4.1440001 2.427 -1.816 0.34999999
-4.1500001 2.4130001 -1.816 0.33000001
-4.158 2.4000001 -1.816 0.28
-4.1570001 2.3900001 -1.813 0.28999999
-4.1690001 2.3800001 -1.816 0.36000001
-4.1799998 2.369 -1.817 0.38999999
-4.1919999 2.358 -1.819 0.31
-4.2030001 2.3469999 -1.821 0.36000001
-4.217 2.3369999 -1.824 0.44
-4.2189999 2.3210001 -1.822 0.31999999
-4.2150002 2.3099999 -1.818 0.28999999
-4.2360001 2.3050001 -1.825 0.43000001
-4.2340002 2.286 -1.8200001 0.31999999
-4.2480001 2.277 -1.823 0.36000001
-4.2470002 2.2590001 -1.819 0.27000001
-4.2470002 2.2420001 -1.816 0.28999999
-4.2620001 2.233 -1.8200001 0.36000001
-4.2719998 2.23 -1.823 0.33000001
-4.2709999 2.2119999 -1.819 0.33000001
-4.2859998 2.2030001 -1.823 0.34
-4.296 2.191 -1.825 0.30000001
-4.302 2.177 -1.824 0.34
-4.3200002 2.1689999 -1.829 0.25
-4.3169999 2.151 -1.825 0.050000001
-4.3340001 2.142 -1.829 0
-4.3369999 2.135 -1.829 0
-4.3449998 2.122 -1.83 0
-4.4320002 -1.999 -1.84 0
-4.448 -2.023 -1.85 0.1
-4.4429998 -2.029 -1.849 0.17
-4.4450002 -2.0469999 -1.853 0.20999999
-4.4400001 -2.0610001 -1.854 0.25
-4.4289999 -2.073 -1.852 0.28999999
-4.4099998 -2.0810001 -1.846 0.27000001
-4.4099998 -2.098 -1.849 0.36000001
-4.3969998 -2.109 -1.846 0.31
-4.395 -2.1170001 -1.847 0.31999999
-4.4000001 -2.1359999 -1.852 0.34999999
-4.3800001 -2.1440001 -1.846 0.31999999
-4.3740001 -2.1570001 -1.846 0.31999999
-4.3720002 -2.174 -1.849 0.34999999
-4.3670001 -2.188 -1.849 0.36000001
-4.355 -2.1989999 -1.847 0.36000001
-4.3530002 -2.2149999 -1.849 0.37
-4.3429999 -2.2190001 -1.846 0.36000001
-4.3410001 -2.2349999 -1.849 0.37
-4.3340001 -2.2490001 -1.849 0.34999999
-4.3280001 -2.263 -1.849 0.38
-4.3179998 -2.2750001 -1.848 0.37
-4.3060002 -2.286 -1.846 0.37
-4.303 -2.302 -1.848 0.37
-4.3010001 -2.3099999 -1.849 0.36000001
-4.289 -2.3210001 -1.846 0.34999999
-4.2880001 -2.3380001 -1.849 0.34999999
-4.2810001 -2.3510001 -1.849 0.34999999
-4.2740002 -2.365 -1.849 0.34999999
-4.2680001 -2.3789999 -1.85 0.36000001
-4.2600002 -2.392 -1.85 0.36000001
-4.2550001 -2.398 -1.849 0.37
-4.2459998 -2.4100001 -1.849 0.38
-4.237 -2.4230001 -1.848 0.36000001
-4.2340002 -2.4389999 -1.85 0.37
-4.2280002 -2.4530001 -1.851 0.38
-4.217 -2.4649999 -1.849 0.36000001
-4.2059999 -2.4760001 -1.848 0.34999999
-4.211 -2.4879999 -1.852 0.36000001
-4.197 -2.4979999 -1.849 0.36000001
-4.1880002 -2.51 -1.849 0.36000001
-4.1830001 -2.5250001 -1.85 0.38999999
-4.178 -2.54 -1.852 0.31999999
-4.1690001 -2.552 -1.851 0.34999999
-4.1560001 -2.562 -1.849 0.34
-4.145 -2.573 -1.847 0.34
-4.1409998 -2.5799999 -1.847 0.34999999
-4.1360002 -2.595 -1.849 0.34999999
-4.132 -2.6110001 -1.851 0.34
-4.119 -2.6210001 -1.849 0.36000001
-4.1160002 -2.6370001 -1.851 0.36000001
-4.1069999 -2.6500001 -1.851 0.36000001
-4.0939999 -2.6589999 -1.849 0.34999999
-4.0869999 -2.664 -1.847 0.36000001
-4.0879998 -2.6830001 -1.852 0.37
-4.0749998 -2.6930001 -1.849 0.34999999
-4.066 -2.7049999 -1.849 0.36000001
-4.0580001 -2.7179999 -1.849 0.34999999
-4.0510001 -2.7320001 -1.85 0.36000001
-4.0419998 -2.7449999 -1.85 0.36000001
-4.046 -2.756 -1.854 0.37
-4.0279999 -2.763 -1.849 0.36000001
-4.0190001 -2.7750001 -1.849 0.36000001
-4.0229998 -2.796 -1.855 0.37
-4.0029998 -2.8010001 -1.85 0.36000001
-3.9960001 -2.8150001 -1.851 0.37
-3.984 -2.825 -1.849 0.37
-3.9790001 -2.832 -1.849 0.36000001
-3.977 -2.849 -1.852 0.37
-3.9679999 -2.8610001 -1.852 0.37
-3.957 -2.872 -1.852 0.36000001
-3.947 -2.8840001 -1.851 0.36000001
-3.937 -2.8959999 -1.851 0.36000001
-3.934 -2.9130001 -1.854 0.36000001
-3.931 -2.9200001 -1.855 0.37
-3.9189999 -2.9300001 -1.853 0.36000001
-3.9070001 -2.9400001 -1.852 0.36000001
-3.898 -2.9530001 -1.852 0.34
-3.888 -2.9649999 -1.852 0.34999999
-3.8789999 -2.977 -1.852 0.36000001
-3.8699999 -2.9890001 -1.852 0.37
-3.868 -2.997 -1.853 0.37
-3.8599999 -3.0109999 -1.854 0.36000001
-3.8499999 -3.023 -1.854 0.36000001
-3.8410001 -3.0350001 -1.854 0.38
-3.8369999 -3.052 -1.857 0.38
-3.8199999 -3.0580001 -1.853 0.36000001
-3.809 -3.069 -1.852 0.38
-3.8099999 -3.089 -1.858 0.38
-3.7920001 -3.0840001 -1.851 0.37
-3.7850001 -3.099 -1.852 0.34
-3.7839999 -3.1170001 -1.857 0.38999999
-3.767 -3.1229999 -1.853 0.34
-3.7609999 -3.1389999 -1.855 0.38999999
-3.753 -3.152 -1.8559999 0.38
-3.7360001 -3.158 -1.852 0.33000001
-3.73 -3.1619999 -1.852 0.38999999
-3.7290001 -3.1819999 -1.857 0.33000001
-3.717 -3.1919999 -1.855 0.38999999
-3.704 -3.201 -1.854 0.34
-3.6989999 -3.217 -1.857 0.38999999
-3.6819999 -3.223 -1.853 0.34
-3.6789999 -3.2409999 -1.857 0.38999999
-3.671 -3.244 -1.855 0.37
-3.6570001 -3.2520001 -1.853 0.38
-3.6489999 -3.266 -1.855 0.38
-3.6389999 -3.277 -1.855 0.38
-3.622 -3.2820001 -1.851 0.38
-3.618 -3.3 -1.855 0.37
-3.618 -3.3199999 -1.86 0.38
-3.595 -3.3199999 -1.853 0.34
-3.5899999 -3.326 -1.853 0.36000001
-3.5869999 -3.345 -1.858 0.41999999
-3.5710001 -3.3510001 -1.855 0.38999999
-3.5580001 -3.359 -1.853 0.31999999
-3.5599999 -3.382 -1.86 0.34
-3.5420001 -3.3870001 -1.8559999 0.30000001
-3.536 -3.402 -1.858 0.38999999
-3.5280001 -3.405 -1.857 0.37
-3.5139999 -3.4130001 -1.855 0.40000001
-3.5020001 -3.4230001 -1.855 0.31999999
-3.5150001 -3.457 -1.868 0.41999999
-3.4990001 -3.4630001 -1.865 0.28999999
-3.503 -3.4879999 -1.873 0.13
-3.4849999 -3.493 -1.869 0
-3.4719999 -3.49 -1.865 0
-2.934 -3.9560001 -1.8660001 0.0099999998
-2.9300001 -3.9630001 -1.867 0.13
-2.9189999 -3.974 -1.868 0.19
-2.9030001 -3.9779999 -1.8660001 0.23999999
-2.8829999 -3.977 -1.86 0.27000001
-2.8699999 -3.9860001 -1.86 0.28999999
-2.859 -3.997 -1.8609999 0.31
-2.8469999 -4.007 -1.862 0.36000001
-2.8369999 -4.0050001 -1.859 0.37
-2.822 -4.0110002 -1.858 0.33000001
-2.8139999 -4.026 -1.86 0.34999999
-2.799 -4.0320001 -1.859 0.38999999
-2.7880001 -4.0440001 -1.86 0.34
-2.773 -4.0500002 -1.859 0.34999999
-2.7609999 -4.0580001 -1.859 0.36000001
-2.7479999 -4.0669999 -1.859 0.34999999
-2.7449999 -4.0760002 -1.8609999 0.36000001
-2.7309999 -4.0830002 -1.86 0.36000001
-2.7149999 -4.0869999 -1.858 0.44
-2.704 -4.098 -1.86 0.34
-2.688 -4.1020002 -1.858 0.43000001
-2.674 -4.1090002 -1.857 0.40000001
-2.661 -4.118 -1.857 0.38
-2.651 -4.1149998 -1.854 0.38
-2.6370001 -4.1220002 -1.853 0.38999999
-2.625 -4.132 -1.854 0.34
-2.609 -4.1360002 -1.852 0.31999999
-2.5940001 -4.1409998 -1.85 0.41999999
-2.5769999 -4.1420002 -1.847 0.38999999
-2.562 -4.1469998 -1.846 0.27000001
-2.5510001 -4.145 -1.8430001 0.46000001
-2.5439999 -4.1630001 -1.847 0.34999999
-2.5220001 -4.1560001 -1.84 0.41999999
-2.506 -4.1589999 -1.8380001 0.36000001
-2.4960001 -4.1719999 -1.84 0.34
-2.4779999 -4.1719999 -1.837 0.37
-2.464 -4.178 -1.836 0.38
-2.461 -4.1869998 -1.8380001 0.38
-2.444 -4.1880002 -1.835 0.40000001
-2.424 -4.1849999 -1.83 0.41999999
-2.424 -4.2150002 -1.84 0.28999999
-2.3940001 -4.1929998 -1.827 0.50999999
-2.391 -4.2179999 -1.835 0.25999999
-2.372 -4.2160001 -1.831 0.51999998
-2.3510001 -4.2090001 -1.824 0.36000001
-2.3469999 -4.2179999 -1.826 0.33000001
-2.335 -4.2280002 -1.8279999 0.44
-2.3139999 -4.2210002 -1.821 0.34999999
-2.3 -4.2270002 -1.8200001 0.43000001
-2.293 -4.2449999 -1.825 0.34
-2.27 -4.2350001 -1.817 0.44
-2.257 -4.243 -1.818 0.36000001
-2.253 -4.2519999 -1.8200001 0.43000001
-2.2360001 -4.2519999 -1.817 0.36000001
-2.2190001 -4.2509999 -1.813 0.44999999
-2.2149999 -4.276 -1.822 0.28
-2.1889999 -4.2600002 -1.811 0.5
-2.1789999 -4.2729998 -1.814 0.30000001
-2.1619999 -4.2740002 -1.811 0.56999999
-2.1570001 -4.2789998 -1.812 0.28
-2.1370001 -4.2740002 -1.807 0.47999999
-2.1300001 -4.2919998 -1.812 0.28999999
-2.1040001 -4.276 -1.801 0.51999998
-2.089 -4.277 -1.799 0.34
-2.0780001 -4.29 -1.802 0.41999999
-2.0639999 -4.2950001 -1.801 0.34999999
-2.059 -4.302 -1.803 0.38
-2.0439999 -4.3049998 -1.801 0.44999999
-2.027 -4.3049998 -1.798 0.31999999
-2.0079999 -4.2989998 -1.793 0.44999999
-2.006 -4.329 -1.804 0.31
-1.9809999 -4.3119998 -1.793 0.56999999
-1.977 -4.3379998 -1.802 0.25999999
-1.955 -4.3270001 -1.795 0.51999998
-1.9450001 -4.3239999 -1.7920001 0.34
-1.929 -4.323 -1.789 0.37
-1.918 -4.3340001 -1.791 0.37
-1.901 -4.3330002 -1.788 0.38
-1.887 -4.3379998 -1.7869999 0.41
-1.875 -4.349 -1.79 0.37
-1.864 -4.3410001 -1.785 0.40000001
-1.853 -4.3540001 -1.788 0.38999999
-1.84 -4.362 -1.789 0.37
-1.824 -4.3600001 -1.786 0.41999999
-1.806 -4.3579998 -1.7819999 0.44999999
-1.793 -4.3649998 -1.783 0.31
-1.781 -4.3740001 -1.784 0.41
-1.772 -4.3720002 -1.7819999 0.43000001
-1.758 -4.3769999 -1.7819999 0.36000001
-1.7410001 -4.3740001 -1.778 0.37
-1.727 -4.3800001 -1.778 0.43000001
-1.7130001 -4.3850002 -1.778 0.34999999
-1.699 -4.3889999 -1.778 0.38999999
-1.6799999 -4.382 -1.772 0.34
-1.67 -4.3959999 -1.776 0.37
-1.66 -4.3909998 -1.773 0.36000001
-1.646 -4.395 -1.772 0.34
-1.6339999 -4.4039998 -1.774 0.37
-1.618 -4.4050002 -1.772 0.37
-1.603 -4.4050002 -1.77 0.44
-1.589 -4.4120002 -1.771 0.34
-1.574 -4.4120002 -1.7690001 0.44
-1.5650001 -4.4099998 -1.767 0.38999999
-1.5549999 -4.4260001 -1.772 0.38
-1.536 -4.4169998 -1.766 0.38999999
-1.523 -4.4229999 -1.766 0.36000001
-1.512 -4.4349999 -1.7690001 0.38
-1.494 -4.4289999 -1.765 0.38
-1.48 -4.4320002 -1.7640001 0.43000001
-1.473 -4.4349999 -1.7640001 0.34
-1.4579999 -4.4359999 -1.763 0.41
-1.443 -4.4380002 -1.762 0.37
-1.431 -4.448 -1.7640001 0.38999999
-1.413 -4.4419999 -1.76 0.34
-1.399 -4.4460001 -1.76 0.41999999
-1.3839999 -4.447 -1.758 0.31
-1.374 -4.4390001 -1.7539999 0.41999999
-1.363 -4.454 -1.758 0.34
-1.349 -4.4559999 -1.757 0.43000001
-1.334 -4.4590001 -1.757 0.36000001
-1.319 -4.4580002 -1.7539999 0.43000001
-1.306 -4.467 -1.757 0.36000001
-1.289 -4.46 -1.752 0.47
-1.281 -4.4590001 -1.751 0.30000001
-1.267 -4.4650002 -1.751 0.43000001
-1.252 -4.4629998 -1.749 0.38999999
-1.238 -4.467 -1.749 0.38999999
-1.226 -4.4780002 -1.752 0.36000001
-1.209 -4.4710002 -1.748 0.41
-1.1950001 -4.4770002 -1.748 0.38999999
-1.181 -4.4809999 -1.748 0.38
-1.174 -4.4809999 -1.748 0.40000001
-1.159 -4.4829998 -1.747 0.36000001
-1.146 -4.4920001 -1.749 0.40000001
-1.1289999 -4.4829998 -1.744 0.38
-1.115 -4.4860001 -1.744 0.38999999
-1.102 -4.493 -1.745 0.34
-1.086 -4.4889998 -1.742 0.44999999
-1.079 -4.493 -1.743 0.34
-1.066 -4.5019999 -1.745 0.37
-1.052 -4.5029998 -1.745 0.37
-1.038 -4.5079999 -1.745 0.37
-1.024 -4.5120001 -1.745 0.44
-1.006 -4.5 -1.739 0.38999999
-0.99299997 -4.5050001 -1.74 0.38999999
-0.98900002 -4.5190001 -1.745 0.28999999
-0.97100002 -4.5079999 -1.739 0.44999999
-0.95599997 -4.507 -1.738 0.41
-0.94199997 -4.5120001 -1.739 0.36000001
-0.92699999 -4.5079999 -1.7359999 0.37
-0.912 -4.5110002 -1.7359999 0.41
-0.898 -4.5139999 -1.7359999 0.41
-0.889 -4.506 -1.732 0.38
-0.87699997 -4.5159998 -1.735 0.31999999
-0.86400002 -4.5240002 -1.737 0.38
-0.84799999 -4.52 -1.734 0.38
-0.833 -4.5190001 -1.733 0.43000001
-0.81900001 -4.5229998 -1.733 0.40000001
-0.80299997 -4.5159998 -1.73 0.34
-0.79000002 -4.5229998 -1.7309999 0.41
-0.78500003 -4.5349998 -1.7359999 0.41
-0.76700002 -4.5170002 -1.728 0.37
-0.75300002 -4.5229998 -1.729 0.41999999
-0.74000001 -4.5289998 -1.73 0.38
-0.72399998 -4.52 -1.726 0.41999999
-0.70899999 -4.5229998 -1.726 0.34
-0.69700003 -4.5359998 -1.73 0.34
-0.68800002 -4.5279999 -1.727 0.44999999
-0.67400002 -4.5300002 -1.727 0.25
-0.66000003 -4.5359998 -1.728 0.49000001
-0.64300001 -4.5190001 -1.721 0.34
-0.63099998 -4.5310001 -1.725 0.40000001
-0.61699998 -4.5359998 -1.726 0.38
-0.60100001 -4.527 -1.722 0.40000001
-0.59299999 -4.5209999 -1.719 0.37
-0.58099997 -4.5370002 -1.725 0.38
-0.56599998 -4.5370002 -1.724 0.36000001
-0.546 -4.4949999 -1.706 0.47
-0.495 -4.198 -1.585 0.34
-0.505 -4.3930001 -1.663 0.38999999
-0.48800001 -4.3629999 -1.651 0.23999999
-0.414 -3.7839999 -1.415 0.43000001
-0.389 -3.6689999 -1.368 0.34
-0.384 -3.7349999 -1.3940001 0.27000001
-0.36899999 -3.704 -1.382 0.46000001
-0.34999999 -3.6370001 -1.354 0.33000001
-0.34999999 -3.7509999 -1.4 0.41
-0.329 -3.658 -1.3609999 0.34
-0.31600001 -3.575 -1.3279999 0.28
-0.29499999 -3.473 -1.286 0.50999999
-0.287 -3.5090001 -1.3 0.38
-0.27599999 -3.5150001 -1.302 0.31999999
-0.264 -3.4990001 -1.296 0.44
-0.25299999 -3.5020001 -1.296 0.25999999
-0.242 -3.503 -1.296 0.5
-0.241 -3.5569999 -1.318 0.31
-0.226 -3.5079999 -1.298 0.41
-0.214 -3.49 -1.29 0.43000001
-0.20100001 -3.4660001 -1.281 0.34999999
-0.18799999 -3.437 -1.2690001 0.37
-0.178 -3.4419999 -1.27 0.44
-0.16599999 -3.4289999 -1.265 0.34999999
-0.15899999 -3.402 -1.2539999 0.38999999
-0.148 -3.3989999 -1.252 0.38999999
-0.138 -3.3970001 -1.252 0.38999999
-0.127 -3.405 -1.255 0.28
-0.117 -3.4130001 -1.258 0.51999998
-0.106 -3.408 -1.255 0.30000001
-0.094999999 -3.3840001 -1.2460001 0.47999999
-0.090000004 -3.3929999 -1.249 0.34999999
-0.079000004 -3.3989999 -1.252 0.41
-0.068999998 -3.4089999 -1.255 0.36000001
-0.057 -3.375 -1.242 0.41
-0.046 -3.359 -1.235 0.40000001
-0.035 -3.3399999 -1.228 0.41
-0.024 -3.326 -1.222 0.38
-0.014 -3.2980001 -1.21 0.44
-0.0089999996 -3.296 -1.21 0.36000001
0.0020000001 -3.3280001 -1.222 0.25
0.012 -3.3110001 -1.216 0.47999999
0.023 -3.313 -1.216 0.41
0.033 -3.3110001 -1.216 0.40000001
0.043000001 -3.3069999 -1.214 0.43000001
0.054000001 -3.2920001 -1.2079999 0.38999999
0.059 -3.29 -1.2079999 0.31999999
0.068999998 -3.2920001 -1.2079999 0.38
0.079000004 -3.2709999 -1.2 0.44999999
0.090000004 -3.3 -1.212 0.34
0.1 -3.276 -1.202 0.37
0.11 -3.2720001 -1.201 0.36000001
0.12 -3.2750001 -1.202 0.41999999
0.125 -3.273 -1.202 0.41
0.13699999 -3.319 -1.22 0.44999999
0.148 -3.3150001 -1.219 0.28999999
0.156 -3.266 -1.199 0.38999999
0.169 -3.336 -1.228 0.44
0.18099999 -3.365 -1.24 0.28999999
0.18799999 -3.2809999 -1.206 0.33000001
0.193 -3.279 -1.205 0.36000001
0.20200001 -3.2679999 -1.201 0.23999999
0.212 -3.2539999 -1.196 0.28
0.223 -3.2590001 -1.198 0.31
0.235 -3.286 -1.209 0.25
0.24600001 -3.309 -1.219 0.38
0.25600001 -3.303 -1.216 0.31
0.266 -3.289 -1.211 0.30000001
0.273 -3.313 -1.221 0.34999999
0.28200001 -3.2969999 -1.215 0.37
0.29100001 -3.283 -1.21 0.25999999
0.30199999 -3.2820001 -1.21 0.33000001
0.31200001 -3.279 -1.209 0.38999999
0.32699999 -3.332 -1.2309999 0.31999999
0.33399999 -3.352 -1.239 0.34
0.34400001 -3.342 -1.235 0.34
0.35499999 -3.352 -1.24 0.22
0.361 -3.3039999 -1.221 0.27000001
0.37 -3.2880001 -1.215 0.33000001
0.37900001 -3.2780001 -1.211 0.31
0.38999999 -3.2820001 -1.2130001 0.38
0.39500001 -3.28 -1.2130001 0.33000001
0.40700001 -3.2880001 -1.216 0.2
0.41499999 -3.2720001 -1.21 0.31999999
0.43399999 -3.342 -1.24 0.22
0.44 -3.302 -1.224 0
0.45300001 -3.325 -1.234 0
0.463 -3.3180001 -1.2309999 0
0.47 -3.289 -1.22 0
2.1270001 -4.0489998 -1.725 0
2.158 -4.0770001 -1.74 0
2.141 -4.013 -1.714 0
2.125 -3.9519999 -1.689 0
2.154 -3.993 -1.71 0.1
2.1730001 -3.9979999 -1.715 0.16
2.2030001 -4.0240002 -1.73 0.19
2.214 -4.013 -1.728 0.22
2.207 -3.971 -1.712 0.28999999
2.243 -4.006 -1.7309999 0.34
2.286 -4.0539999 -1.757 0.44
2.3050001 -4.073 -1.767 0.23999999
2.2980001 -4.0300002 -1.751 0.50999999
2.3210001 -4.0409999 -1.7589999 0.47
2.348 -4.059 -1.771 0.30000001
1.035 -1.747 -0.69999999 0.12
1.056 -1.771 -0.713 0.28999999
1.063 -1.77 -0.71399999 0.16
1.069 -1.774 -0.71700001 0.28
1.087 -1.7920001 -0.72600001 0.19
1.085 -1.775 -0.72000003 0.25
1.08 -1.755 -0.71200001 0
1.085 -1.75 -0.71100003 0
2.474 -3.983 -1.771 0.33000001
2.493 -3.9849999 -1.775 0.30000001
2.5009999 -3.971 -1.772 0.41999999
2.52 -3.9719999 -1.777 0.38999999
2.5190001 -3.944 -1.767 0.44
2.5209999 -3.9189999 -1.7589999 0.38999999
2.5599999 -3.9530001 -1.779 0.25
2.5050001 -3.8410001 -1.729 0.62
2.447 -3.737 -1.681 0.28
2.51 -3.809 -1.719 0.34999999
2.585 -3.8970001 -1.766 0.31999999
2.563 -3.836 -1.74 0.44
2.5810001 -3.8369999 -1.745 0.25
2.5799999 -3.8110001 -1.7359999 0.47
2.6210001 -3.846 -1.757 0.38999999
2.6589999 -3.888 -1.779 0.25999999
2.6600001 -3.8640001 -1.772 0.55000001
2.6800001 -3.8659999 -1.777 0.25999999
2.6900001 -3.855 -1.775 0.49000001
2.697 -3.839 -1.772 0.40000001
2.707 -3.8269999 -1.77 0.44999999
2.723 -3.825 -1.773 0.28999999
2.7130001 -3.7980001 -1.762 0.41999999
2.7290001 -3.7950001 -1.765 0.40000001
2.7409999 -3.7869999 -1.765 0.40000001
2.743 -3.7639999 -1.758 0.41
2.756 -3.757 -1.7589999 0.37
2.76 -3.7379999 -1.7539999 0.41
2.7579999 -3.71 -1.744 0.34
2.763 -3.7060001 -1.744 0.43000001
2.779 -3.7030001 -1.747 0.38
2.783 -3.684 -1.742 0.36000001
2.793 -3.6719999 -1.74 0.38
2.8010001 -3.6589999 -1.738 0.38
2.8069999 -3.6429999 -1.734 0.38
2.809 -3.622 -1.728 0.41
2.816 -3.619 -1.729 0.38999999
2.8199999 -3.6010001 -1.725 0.44999999
2.825 -3.5840001 -1.72 0.38
2.836 -3.575 -1.72 0.33000001
2.839 -3.556 -1.715 0.43000001
2.8570001 -3.5550001 -1.719 0.36000001
2.8740001 -3.5539999 -1.723 0.41
2.8729999 -3.5409999 -1.719 0.36000001
2.881 -3.527 -1.716 0.40000001
2.895 -3.5220001 -1.719 0.38
2.9030001 -3.5090001 -1.716 0.38
2.914 -3.5 -1.716 0.38999999
2.9319999 -3.4990001 -1.721 0.34
2.9489999 -3.497 -1.725 0.36000001
2.967 -3.4960001 -1.729 0.33000001
2.977 -3.497 -1.732 0.41999999
3.072 -3.5869999 -1.784 0.07
2.7579999 -3.1960001 -1.5829999 0.11
2.9649999 -3.4170001 -1.704 0.19
3.0179999 -3.457 -1.73 0.38999999
3.0350001 -3.454 -1.734 0.36000001
3.05 -3.461 -1.74 0.38
3.0610001 -3.451 -1.74 0.38
3.0699999 -3.4389999 -1.739 0.38999999
3.0869999 -3.4360001 -1.742 0.41
3.096 -3.425 -1.742 0.33000001
3.1070001 -3.415 -1.742 0.38999999
3.108 -3.3940001 -1.7359999 0.38999999
3.128 -3.3959999 -1.742 0.44
3.1400001 -3.398 -1.745 0.46000001
3.1470001 -3.3840001 -1.743 0.34999999
3.1600001 -3.3759999 -1.745 0.43000001
3.1719999 -3.368 -1.745 0.41
3.1889999 -3.365 -1.749 0.38999999
3.1849999 -3.3399999 -1.7410001 0.34
3.1819999 -3.3150001 -1.733 0.44999999
3.1960001 -3.319 -1.738 0.43000001
3.204 -3.3069999 -1.7359999 0.44999999
3.2320001 -3.3150001 -1.747 0.44
3.2850001 -3.349 -1.772 0.27000001
1.151 -1.142 -0.53500003 0.28
1.159 -1.143 -0.53799999 0.19
1.215 -1.192 -0.56800002 0.41
1.226 -1.2 -0.57300001 0.31
1.187 -1.152 -0.54900002 0
1.179 -1.137 -0.542 0
1.175 -1.127 -0.53799999 0
1.1670001 -1.1109999 -0.53100002 0
1.1720001 -1.109 -0.53200001 0
1.181 -1.11 -0.53500003 0
1.189 -1.115 -0.53899997 0
1.198 -1.1160001 -0.542 0
1.192 -1.104 -0.537 0
1.205 -1.109 -0.542 0
1.207 -1.104 -0.54100001 0
1.219 -1.108 -0.546 0
3.3740001 -3.0610001 -1.717 0.11
1.2180001 -1.1 -0.54299998 0
3.392 -3.0580001 -1.722 0.19
1.217 -1.096 -0.542 0
3.3840001 -3.0309999 -1.712 0.25999999
1.23 -1.1 -0.54699999 0
3.3989999 -3.0250001 -1.715 0.28999999
3.4059999 -3.0120001 -1.7130001 0.31999999
3.4100001 -3.007 -1.7130001 0.37
3.4159999 -2.9920001 -1.711 0.37
3.4360001 -2.9909999 -1.717 0.33000001
3.4360001 -2.9719999 -1.712 0.38999999
3.448 -2.964 -1.7130001 0.34
3.457 -2.9530001 -1.7130001 0.36000001
3.4549999 -2.9319999 -1.707 0.43000001
3.4649999 -2.9319999 -1.71 0.33000001
3.493 -2.9360001 -1.72 0.38999999
3.4909999 -2.9159999 -1.714 0.38
3.4909999 -2.898 -1.71 0.36000001
3.5079999 -2.8929999 -1.7130001 0.28999999
3.4909999 -2.8599999 -1.7 0.46000001
3.5239999 -2.869 -1.7130001 0.38
3.5350001 -2.859 -1.7130001 0.37
3.539 -2.8540001 -1.7130001 0.37
3.5469999 -2.842 -1.7130001 0.37
3.5569999 -2.832 -1.7130001 0.36000001
3.5539999 -2.8110001 -1.707 0.36000001
3.572 -2.8069999 -1.712 0.36000001
3.585 -2.799 -1.714 0.36000001
3.586 -2.7820001 -1.71 0.34999999
3.592 -2.7780001 -1.711 0.33000001
3.6040001 -2.7690001 -1.7130001 0.34
3.6110001 -2.756 -1.712 0.33000001
3.6170001 -2.743 -1.71 0.46000001
3.6389999 -2.7409999 -1.717 0.38
3.6329999 -2.7190001 -1.71 0.41
3.641 -2.707 -1.71 0.38
3.6470001 -2.7030001 -1.71 0.36000001
3.6489999 -2.687 -1.707 0.36000001
3.664 -2.6800001 -1.71 0.36000001
3.678 -2.6719999 -1.7130001 0.34999999
3.674 -2.652 -1.707 0.34
3.6860001 -2.6429999 -1.709 0.34999999
3.7060001 -2.6400001 -1.715 0.38
3.701 -2.628 -1.71 0.38
3.7079999 -2.615 -1.71 0.37
3.7219999 -2.6070001 -1.7130001 0.37
3.723 -2.5899999 -1.709 0.37
3.7309999 -2.579 -1.709 0.33000001
3.75 -2.5739999 -1.714 0.38999999
3.7420001 -2.552 -1.707 0.34999999
3.7509999 -2.549 -1.709 0.36000001
3.7539999 -2.5339999 -1.707 0.36000001
3.767 -2.526 -1.709 0.38
3.7750001 -2.5139999 -1.709 0.37
3.7839999 -2.503 -1.71 0.31999999
3.7839999 -2.4860001 -1.706 0.38999999
3.7950001 -2.4760001 -1.707 0.38
3.802 -2.4719999 -1.709 0.37
3.8010001 -2.454 -1.704 0.36000001
3.813 -2.4449999 -1.707 0.34999999
3.825 -2.4360001 -1.709 0.33000001
3.832 -2.4230001 -1.7079999 0.38999999
3.839 -2.411 -1.7079999 0.37
3.842 -2.3959999 -1.706 0.34999999
3.8469999 -2.391 -1.707 0.36000001
3.8640001 -2.385 -1.711 0.37
3.8670001 -2.3699999 -1.709 0.36000001
3.8759999 -2.359 -1.71 0.34999999
3.875 -2.342 -1.706 0.28999999
3.888 -2.332 -1.7079999 0.37
3.8929999 -2.319 -1.707 0.44999999
3.8970001 -2.313 -1.707 0.36000001
3.9030001 -2.3 -1.707 0.37
3.9100001 -2.2880001 -1.707 0.37
3.9170001 -2.2750001 -1.707 0.38
3.9260001 -2.2639999 -1.707 0.37
3.931 -2.2509999 -1.707 0.36000001
3.9400001 -2.2390001 -1.707 0.34999999
3.9419999 -2.2320001 -1.707 0.36000001
3.957 -2.224 -1.71 0.38
3.957 -2.2079999 -1.707 0.36000001
3.9630001 -2.1949999 -1.707 0.31
3.974 -2.1849999 -1.709 0.38999999
3.98 -2.1719999 -1.7079999 0.34
3.9849999 -2.158 -1.707 0.34
3.9909999 -2.1459999 -1.707 0.36000001
3.993 -2.1389999 -1.707 0.36000001
3.9979999 -2.125 -1.706 0.36000001
4.0079999 -2.1140001 -1.707 0.37
4.0079999 -2.098 -1.704 0.36000001
4.0159998 -2.086 -1.705 0.36000001
4.0310001 -2.0780001 -1.709 0.37
4.0380001 -2.0650001 -1.709 0.36000001
4.0380001 -2.0569999 -1.707 0.34
4.0419998 -2.0439999 -1.707 0.34999999
4.0510001 -2.0320001 -1.707 0.37
4.0500002 -2.016 -1.704 0.36000001
4.0580001 -2.0039999 -1.705 0.34
4.0700002 -1.994 -1.707 0.37
4.0739999 -1.98 -1.707 0.34999999
4.0770001 -1.974 -1.707 0.34
4.0799999 -1.959 -1.705 0.36000001
4.0929999 -1.95 -1.7079999 0.36000001
4.0939999 -1.934 -1.706 0.36000001
4.0999999 -1.9220001 -1.706 0.36000001
4.1059999 -1.909 -1.706 0.34
4.1149998 -1.897 -1.707 0.36000001
4.118 -1.891 -1.707 0.38
4.1230001 -1.877 -1.707 0.37
4.1230001 -1.862 -1.704 0.36000001
4.1329999 -1.85 -1.706 0.37
4.1370001 -1.837 -1.705 0.37
4.1389999 -1.822 -1.704 0.38
4.145 -1.809 -1.704 0.37
4.1529999 -1.8049999 -1.706 0.36000001
4.1630001 -1.794 -1.7079999 0.37
4.1669998 -1.78 -1.707 0.34999999
4.1729999 -1.767 -1.707 0.36000001
4.1750002 -1.753 -1.706 0.34999999
4.1719999 -1.7359999 -1.702 0.34999999
4.1880002 -1.727 -1.707 0.37
4.1869998 -1.719 -1.705 0.37
4.1960001 -1.707 -1.707 0.34
4.2030001 -1.6950001 -1.707 0.38
4.2129998 -1.684 -1.71 0.36000001
4.217 -1.67 -1.709 0.37
4.2129998 -1.653 -1.705 0.37
4.2220001 -1.641 -1.707 0.34999999
4.2210002 -1.633 -1.705 0.31999999
4.2350001 -1.623 -1.709 0.38999999
4.23 -1.6059999 -1.704 0.38
4.2379999 -1.594 -1.706 0.36000001
4.25 -1.5829999 -1.709 0.34
4.2449999 -1.566 -1.704 0.36000001
4.2480001 -1.552 -1.704 0.36000001
4.2589998 -1.549 -1.707 0.34
4.2639999 -1.535 -1.707 0.36000001
4.263 -1.52 -1.705 0.36000001
4.2719998 -1.508 -1.707 0.36000001
4.2690001 -1.492 -1.704 0.36000001
4.27 -1.477 -1.702 0.34999999
4.2839999 -1.467 -1.706 0.36000001
4.2810001 -1.451 -1.7029999 0.36000001
4.2849998 -1.4450001 -1.704 0.36000001
4.2989998 -1.434 -1.707 0.36000001
4.2930002 -1.4170001 -1.7029999 0.36000001
4.3010001 -1.405 -1.704 0.34
4.3119998 -1.3940001 -1.707 0.34
4.3060002 -1.377 -1.7029999 0.36000001
4.3099999 -1.363 -1.7029999 0.36000001
4.323 -1.36 -1.707 0.36000001
4.3179998 -1.3430001 -1.704 0.37
4.322 -1.33 -1.704 0.34
4.335 -1.319 -1.707 0.34999999
4.3309999 -1.303 -1.704 0.34
4.3400002 -1.291 -1.706 0.34
4.3530002 -1.28 -1.71 0.36000001
4.3439999 -1.27 -1.705 0.37
4.348 -1.256 -1.705 0.37
4.3610001 -1.245 -1.709 0.36000001
4.3509998 -1.227 -1.7029999 0.37
4.349 -1.212 -1.701 0.36000001
4.369 -1.2029999 -1.707 0.37
4.3639998 -1.187 -1.704 0.36000001
4.368 -1.1799999 -1.704 0.34999999
4.3769999 -1.168 -1.707 0.36000001
4.3769999 -1.153 -1.705 0.37
4.3790002 -1.1390001 -1.704 0.38
4.3860002 -1.126 -1.706 0.38
4.3870001 -1.112 -1.705 0.36000001
4.3839998 -1.096 -1.702 0.34
4.3940001 -1.092 -1.706 0.38
4.3850002 -1.075 -1.701 0.33000001
4.3920002 -1.062 -1.702 0.36000001
4.395 -1.048 -1.702 0.36000001
4.3899999 -1.0319999 -1.698 0.36000001
4.3969998 -1.0190001 -1.7 0.37
4.4050002 -1.006 -1.702 0.37
4.408 -0.99299997 -1.702 0.36000001
4.408 -0.98500001 -1.701 0.36000001
4.4180002 -0.97299999 -1.704 0.36000001
4.4070001 -0.95599997 -1.698 0.27000001
4.4299998 -0.94700003 -1.707 0.46000001
4.4400001 -0.93400002 -1.71 0.31999999
4.4250002 -0.91600001 -1.702 0.30000001
4.4190001 -0.90100002 -1.698 0.25
4.4289999 -0.89499998 -1.702 0.2
4.434 -0.88200003 -1.7029999 0.18000001
4.4450002 -0.87 -1.707 0.090000004
4.441 -0.85399997 -1.704 0.18000001
4.427 -0.83700001 -1.697 0.2
4.4629998 -0.82999998 -1.71 0
4.467 -0.81599998 -1.711 0
4.1529999 1.126 -1.659 0.13
4.1539998 1.14 -1.6619999 0.2
4.1630001 1.15 -1.666 0.23
4.158 1.1619999 -1.665 0.2
4.152 1.175 -1.665 0.27000001
4.1430001 1.186 -1.6619999 0.25
4.138 1.199 -1.6619999 0.25
4.1430001 1.215 -1.665 0.19
4.1339998 1.226 -1.663 0.27000001
4.132 1.233 -1.663 0.25
4.1329999 1.247 -1.665 0.27000001
4.1259999 1.2589999 -1.664 0.19
4.131 1.275 -1.668 0.28
4.1230001 1.2869999 -1.666 0.25
4.1240001 1.301 -1.668 0.23999999
4.1129999 1.312 -1.665 0.16
4.1110001 1.318 -1.665 0.30000001
4.1090002 1.332 -1.666 0.23999999
4.1259999 1.352 -1.675 0.16
4.1129999 1.362 -1.6720001 0.28999999
4.1129999 1.376 -1.674 0.2
4.1090002 1.3890001 -1.674 0.20999999
4.0929999 1.398 -1.668 0.18000001
4.092 1.405 -1.669 0.23
4.0840001 1.4170001 -1.668 0.19
4.085 1.431 -1.67 0.13
4.072 1.441 -1.666 0.20999999
4.072 1.456 -1.668 0.20999999
4.0640001 1.467 -1.6670001 0.20999999
4.0669999 1.483 -1.67 0.28
4.0570002 1.493 -1.668 0.25
4.0560002 1.5 -1.668 0.23999999
4.0310001 1.505 -1.659 0.25
4.0359998 1.522 -1.664 0.11
4.0229998 1.531 -1.66 0.17
4.0250001 1.5470001 -1.663 0.20999999
4.006 1.554 -1.6569999 0.18000001
4.0240002 1.575 -1.6670001 0.16
4.0190001 1.581 -1.666 0.23999999
4.02 1.596 -1.668 0.20999999
4.0009999 1.603 -1.6619999 0.22
4.0040002 1.619 -1.666 0.20999999
3.984 1.625 -1.659 0.31999999
3.9820001 1.6390001 -1.661 0.27000001
3.9790001 1.652 -1.6619999 0.11
3.971 1.656 -1.659 0.18000001
3.9690001 1.67 -1.661 0.1
3.9619999 1.682 -1.66 0.20999999
3.9319999 1.683 -1.649 0.16
3.9530001 1.707 -1.661 0.25999999
3.9649999 1.727 -1.668 0.15000001
3.941 1.7309999 -1.66 0.25999999
3.947 1.7410001 -1.664 0.17
3.9460001 1.756 -1.666 0.23
3.9319999 1.765 -1.6619999 0.20999999
3.9419999 1.784 -1.669 0.31
3.938 1.7970001 -1.67 0.25999999
3.924 1.806 -1.666 0.12
3.921 1.819 -1.668 0.18000001
3.9100001 1.822 -1.664 0.050000001
3.8840001 1.824 -1.655 0.16
3.902 1.848 -1.665 0.2
3.8989999 1.862 -1.6670001 0.1
3.892 1.873 -1.666 0.18000001
3.891 1.888 -1.668 0.23
3.878 1.897 -1.665 0.22
3.872 1.901 -1.664 0.11
3.8610001 1.911 -1.6619999 0.19
3.865 1.928 -1.666 0.1
3.842 1.932 -1.659 0.19
3.8410001 1.946 -1.661 0.14
3.858 1.97 -1.6720001 0.15000001
3.8340001 1.973 -1.663 0.20999999
3.842 1.985 -1.668 0.19
3.8329999 1.995 -1.6670001 0.1
3.8069999 1.997 -1.658 0.20999999
3.8169999 2.0179999 -1.665 0.20999999
3.8199999 2.0350001 -1.67 0.23999999
3.803 2.0409999 -1.665 0.19
3.806 2.0580001 -1.669 0.20999999
3.7939999 2.0669999 -1.6670001 0.18000001
3.786 2.0699999 -1.665 0.23
3.783 2.0840001 -1.666 0.22
3.7780001 2.0969999 -1.6670001 0.11
3.773 2.1099999 -1.668 0.18000001
3.783 2.131 -1.675 0.28999999
3.7679999 2.138 -1.6720001 0.27000001
3.7690001 2.154 -1.675 0.23
3.763 2.158 -1.674 0.36000001
3.757 2.171 -1.675 0.25999999
3.75 2.1830001 -1.675 0.23999999
3.7449999 2.1960001 -1.675 0.28999999
3.74 2.2079999 -1.676 0.28
3.72 2.2119999 -1.67 0.33000001
3.7309999 2.227 -1.677 0.25
3.7130001 2.2320001 -1.6720001 0.17
3.704 2.243 -1.671 0.31
3.71 2.2620001 -1.677 0.22
3.7030001 2.2739999 -1.677 0.27000001
3.6889999 2.2809999 -1.674 0.25999999
3.6989999 2.3039999 -1.682 0.36000001
3.6830001 2.302 -1.676 0.31999999
3.6730001 2.3110001 -1.675 0.20999999
3.684 2.335 -1.684 0.31999999
3.664 2.3380001 -1.678 0.27000001
3.6459999 2.3429999 -1.6720001 0.28999999
3.648 2.3599999 -1.677 0.27000001
3.6470001 2.3759999 -1.6799999 0.2
3.6259999 2.378 -1.673 0.12
3.6229999 2.385 -1.674 0.19
3.6110001 2.3929999 -1.6720001 0.2
3.6170001 2.414 -1.678 0.23999999
3.6070001 2.4230001 -1.677 0.18000001
3.608 2.441 -1.681 0.25
3.598 2.45 -1.6799999 0.22
3.582 2.4560001 -1.676 0.23
3.586 2.467 -1.6799999 0.18000001
3.5829999 2.4809999 -1.682 0.23999999
3.563 2.484 -1.676 0.25
3.5599999 2.4979999 -1.678 0.11
3.553 2.51 -1.679 0.18000001
3.5439999 2.5209999 -1.678 0.28999999
3.533 2.529 -1.677 0.2
3.5469999 2.5480001 -1.686 0.28
3.5239999 2.5480001 -1.678 0.18000001
3.5280001 2.5680001 -1.684 0.25
3.523 2.5810001 -1.686 0.20999999
3.51 2.589 -1.684 0.20999999
3.4949999 2.595 -1.6799999 0.20999999
3.497 2.6129999 -1.6849999 0.12
3.4679999 2.609 -1.675 0.19
3.4809999 2.628 -1.684 0.2
3.473 2.638 -1.684 0.19
3.471 2.654 -1.687 0.31999999
3.4560001 2.6600001 -1.684 0.25999999
3.457 2.678 -1.688 0.23999999
3.4349999 2.678 -1.681 0.17
3.427 2.6889999 -1.681 0.13
3.4170001 2.6900001 -1.678 0.2
3.421 2.711 -1.6849999 0.2
3.4059999 2.7160001 -1.681 0.19
3.404 2.733 -1.6849999 0.23
3.3970001 2.744 -1.686 0.19
3.3840001 2.7520001 -1.684 0.22
3.3759999 2.7620001 -1.684 0.17
3.3670001 2.7639999 -1.681 0.23999999
3.3510001 2.7690001 -1.678 0.25
3.358 2.7920001 -1.686 0.25999999
3.3529999 2.806 -1.688 0.27000001
3.345 2.8169999 -1.688 0.30000001
3.339 2.8299999 -1.6900001 0.28999999
3.3280001 2.839 -1.689 0.30000001
3.313 2.835 -1.683 0.28
3.322 2.8610001 -1.693 0.23999999
3.3180001 2.8759999 -1.696 0.28
3.29 2.869 -1.6849999 0.27000001
3.2880001 2.8859999 -1.689 0.27000001
3.2880001 2.905 -1.694 0.38999999
3.2539999 2.8929999 -1.681 0.23
3.2650001 2.9119999 -1.689 0.25999999
3.257 2.9230001 -1.6900001 0.20999999
3.247 2.9319999 -1.689 0.12
3.2320001 2.937 -1.686 0.2
3.223 2.947 -1.686 0.27000001
3.2090001 2.954 -1.684 0.2
3.21 2.973 -1.689 0.23999999
3.2079999 2.98 -1.691 0.19
3.191 2.984 -1.687 0.12
3.181 2.993 -1.686 0.090000004
3.1860001 3.017 -1.694 0.16
3.1700001 3.02 -1.691 0.25
3.168 3.0380001 -1.6950001 0.27000001
3.151 3.04 -1.691 0.23999999
3.1389999 3.039 -1.687 0.23
3.1429999 3.0610001 -1.694 0.25
3.122 3.059 -1.688 0.23
3.112 3.069 -1.688 0.2
3.109 3.086 -1.691 0.23
3.098 3.0940001 -1.691 0.090000004
3.0880001 3.1040001 -1.691 0
3.0780001 3.1129999 -1.691 0
3.0710001 3.1159999 -1.689 0
3.053 3.1170001 -1.684 0
0.94800001 1.038 -0.463 0
0.94099998 1.0369999 -0.461 0
0.949 1.052 -0.46799999 0
0.95499998 1.066 -0.47400001 0
0.93400002 1.045 -0.46200001 0
0.93800002 1.057 -0.46599999 0
0.92900002 1.053 -0.46200001 0
0.92799997 1.058 -0.46399999 0
0.92400002 1.0599999 -0.463 0
0.92199999 1.064 -0.46399999 0
0.92500001 1.076 -0.46799999 0
0.91799998 1.0700001 -0.465 0
0.93900001 1.103 -0.48100001 0
0.91000003 1.074 -0.46399999 0
0.935 1.113 -0.48300001 0.13
0.92400002 1.1059999 -0.47799999 0.2
0.93199998 1.13 -0.48800001 0.31999999
0.90399998 1.103 -0.472 0.23999999
0.88999999 1.0880001 -0.463 0.11
0.90799999 1.119 -0.47799999 0
0.88599998 1.098 -0.465 0
2.7149999 3.473 -1.7029999 0
2.707 3.4860001 -1.705 0.059999999
2.6949999 3.493 -1.704 0.14
2.681 3.497 -1.702 0.1
2.671 3.4949999 -1.699 0.16
2.6730001 3.5209999 -1.7079999 0.12
2.661 3.5280001 -1.707 0.19
2.6500001 3.536 -1.707 0.20999999
2.6400001 3.546 -1.7079999 0.2
2.6370001 3.566 -1.714 0.25999999
2.618 3.5639999 -1.709 0.13
2.6029999 3.5669999 -1.706 0.2
2.5940001 3.566 -1.704 0.18000001
2.5869999 3.5799999 -1.707 0.1
2.582 3.5969999 -1.711 0.18000001
2.5710001 3.605 -1.711 0.20999999
2.553 3.6040001 -1.707 0.18000001
2.549 3.6229999 -1.712 0.23999999
2.536 3.628 -1.71 0.23999999
2.53 3.632 -1.71 0.11
2.5179999 3.638 -1.71 0.20999999
2.51 3.652 -1.7130001 0.20999999
2.5020001 3.665 -1.715 0.18000001
2.49 3.6730001 -1.715 0.30000001
2.474 3.6730001 -1.711 0.22
2.4619999 3.681 -1.711 0.11
2.451 3.677 -1.707 0.19
2.4449999 3.6919999 -1.711 0.11
2.431 3.697 -1.71 0.18000001
2.425 3.7119999 -1.714 0.11
2.414 3.721 -1.714 0.18000001
2.4030001 3.73 -1.715 0.23
2.3840001 3.7249999 -1.709 0.18000001
2.3840001 3.7520001 -1.7180001 0.23
2.3759999 3.7520001 -1.717 0.23
2.3610001 3.7550001 -1.714 0.31999999
2.352 3.767 -1.717 0.25
2.3440001 3.7809999 -1.72 0.20999999
2.3239999 3.7739999 -1.7130001 0.090000004
2.312 3.7809999 -1.7130001 0.18000001
2.3050001 3.796 -1.717 0.20999999
2.3050001 3.8110001 -1.722 0.34
2.2909999 3.8150001 -1.72 0.28999999
2.2809999 3.826 -1.722 0.12
2.2639999 3.823 -1.717 0.090000004
2.2520001 3.8299999 -1.717 0.15000001
2.2379999 3.8340001 -1.716 0.050000001
2.223 3.836 -1.714 0.17
2.2320001 3.865 -1.726 0.11
2.2190001 3.8710001 -1.725 0.18000001
2.1989999 3.865 -1.719 0.30000001
2.194 3.885 -1.725 0.25999999
2.187 3.901 -1.73 0.27000001
2.1689999 3.8970001 -1.724 0.31
2.154 3.8989999 -1.722 0.20999999
2.158 3.9219999 -1.7309999 0.23
2.1429999 3.9219999 -1.728 0.19
2.135 3.938 -1.733 0.22
2.118 3.9349999 -1.728 0.18000001
2.108 3.947 -1.73 0.23
2.0940001 3.95 -1.729 0.1
2.0840001 3.9619999 -1.7309999 0.18000001
2.0669999 3.96 -1.727 0.20999999
2.0699999 3.9809999 -1.7359999 0.22
2.0580001 3.9879999 -1.7359999 0.28
2.046 3.9960001 -1.7359999 0.25999999
2.0409999 4.0170002 -1.743 0.31999999
2.0190001 4.0050001 -1.735 0.31
2.0090001 4.0170002 -1.737 0.25999999
2.0009999 4.0310001 -1.7410001 0.31999999
1.985 4.0139999 -1.732 0.20999999
1.982 4.0409999 -1.7410001 0.28999999
1.969 4.0469999 -1.7410001 0.22
1.956 4.053 -1.7410001 0.12
1.941 4.0539999 -1.739 0.20999999
1.931 4.0650001 -1.7410001 0.1
1.911 4.0560002 -1.734 0.18000001
1.909 4.0669999 -1.738 0.2
1.897 4.0770001 -1.739 0.19
1.883 4.079 -1.738 0.25
1.872 4.0890002 -1.739 0.34999999
1.8559999 4.0890002 -1.737 0.30000001
1.845 4.099 -1.739 0.2
1.844 4.131 -1.751 0
1.824 4.1040001 -1.737 0
0.66600001 1.5089999 -0.56400001 0
0.667 1.523 -0.56900001 0
0.66000003 1.522 -0.56800002 0
0.65499997 1.522 -0.56699997 0
0.65499997 1.53 -0.56999999 0
0.64600003 1.522 -0.565 0
0.64300001 1.527 -0.56699997 0
0.63099998 1.512 -0.55900002 0
0.62400001 1.5089999 -0.55699998 0
1.643 4.164 -1.7309999 0
1.637 4.1680002 -1.732 0.13
1.632 4.1919999 -1.74 0.18000001
1.619 4.1989999 -1.7410001 0.19
1.6059999 4.204 -1.7410001 0.12
1.592 4.2069998 -1.74 0.18000001
1.579 4.2140002 -1.7410001 0.23
1.5700001 4.2290001 -1.7460001 0.2
1.561 4.2270002 -1.743 0.22
1.546 4.2259998 -1.7410001 0.31
1.529 4.2189999 -1.7359999 0.31999999
1.517 4.2270002 -1.737 0.36000001
1.5039999 4.2340002 -1.738 0.31
1.487 4.2280002 -1.733 0.31999999
1.477 4.2410002 -1.737 0.28999999
1.4579999 4.23 -1.73 0.34
1.444 4.21 -1.72 0.38999999
1.432 4.2179999 -1.722 0.28
1.423 4.2360001 -1.728 0.31999999
1.4170001 4.2620001 -1.737 0.38999999
1.405 4.2729998 -1.74 0.34999999
1.3940001 4.283 -1.743 0.28999999
1.3839999 4.3000002 -1.748 0.41
1.368 4.2719998 -1.735 0.23999999
1.355 4.2779999 -1.7359999 0.27000001
1.347 4.3000002 -1.743 0.46000001
1.332 4.2989998 -1.7410001 0.28
1.321 4.3099999 -1.744 0.27000001
1.309 4.3189998 -1.7460001 0.34999999
1.295 4.322 -1.7460001 0.28
1.276 4.3099999 -1.739 0.38999999
1.272 4.3189998 -1.742 0.30000001
1.255 4.3140001 -1.738 0.31999999
1.2460001 4.3319998 -1.744 0.38999999
1.2309999 4.3309999 -1.742 0.31
1.226 4.3670001 -1.755 0.41
1.2079999 4.3540001 -1.749 0.25
1.2029999 4.362 -1.751 0.31999999
1.186 4.3530002 -1.7460001 0.34999999
1.171 4.3530002 -1.744 0.28
1.156 4.3509998 -1.742 0.31999999
1.1440001 4.3639998 -1.7460001 0.43000001
1.135 4.3850002 -1.753 0.33000001
1.119 4.3800001 -1.749 0.28999999
1.105 4.3800001 -1.748 0.38999999
1.098 4.3829999 -1.749 0.31
1.08 4.369 -1.7410001 0.34999999
1.066 4.3699999 -1.74 0.40000001
1.048 4.3559999 -1.733 0.25
1.04 4.382 -1.743 0.28999999
1.026 4.3860002 -1.743 0.41999999
1.0089999 4.3759999 -1.737 0.33000001
0.99800003 4.3559999 -1.728 0.38999999
0.98699999 4.3759999 -1.735 0.34
0.97299999 4.3769999 -1.734 0.31999999
0.96399999 4.4000001 -1.743 0.34
0.94599998 4.3850002 -1.735 0.41
0.93099999 4.3790002 -1.7309999 0.28999999
0.91900003 4.3920002 -1.7359999 0.34999999
0.90600002 4.3969998 -1.7359999 0.28
0.90100002 4.4089999 -1.7410001 0.38
0.889 4.421 -1.745 0.38999999
0.87599999 4.4310002 -1.748 0.25
0.86500001 4.448 -1.7539999 0.36000001
0.85000002 4.4439998 -1.751 0.34
0.83600003 4.447 -1.751 0.46000001
0.81999999 4.4380002 -1.7460001 0.31999999
0.81400001 4.4450002 -1.749 0.31999999
0.80500001 4.4749999 -1.76 0.34999999
0.78600001 4.454 -1.75 0.28999999
0.77200001 4.4510002 -1.748 0.14
0.75599998 4.4419999 -1.743 0.40000001
0.74199998 4.4460001 -1.744 0.44999999
0.72899997 4.4520001 -1.7460001 0.28999999
0.72100002 4.4460001 -1.743 0.25999999
0.70700002 4.454 -1.745 0.25
0.69300002 4.4520001 -1.743 0.28
0.67799997 4.4450002 -1.739 0.28
0.662 4.4349999 -1.734 0.31
0.648 4.4349999 -1.733 0.28999999
0.63200003 4.428 -1.73 0.28
0.61799997 4.4239998 -1.727 0.25
0.611 4.4289999 -1.729 0.27000001
0.597 4.4310002 -1.729 0.28999999
0.58200002 4.4219999 -1.724 0.27000001
0.56699997 4.4159999 -1.721 0.27000001
0.55400002 4.4250002 -1.724 0.25
0.54100001 4.4299998 -1.726 0.28999999
0.52600002 4.4250002 -1.723 0.28999999
0.51899999 4.4239998 -1.722 0.28999999
0.50400001 4.4159999 -1.7180001 0.31
0.48899999 4.4089999 -1.714 0.28
0.47600001 4.4169998 -1.717 0.30000001
0.46200001 4.4130001 -1.715 0.28999999
0.447 4.4089999 -1.7130001 0.30000001
0.43200001 4.4000001 -1.7079999 0.27000001
0.42500001 4.3909998 -1.704 0.28999999
0.412 4.4109998 -1.712 0.31999999
0.398 4.4070001 -1.71 0.28999999
0.384 4.402 -1.707 0.30000001
0.368 4.3800001 -1.697 0.25
0.35600001 4.3990002 -1.705 0.36000001
0.34099999 4.3930001 -1.702 0.28999999
0.32800001 4.4029999 -1.706 0.28
0.32100001 4.3940001 -1.702 0.28
0.30599999 4.3860002 -1.698 0.31
0.292 4.3850002 -1.697 0.28999999
0.27900001 4.3920002 -1.7 0.25999999
0.26499999 4.3930001 -1.7 0.23999999
0.25099999 4.382 -1.6950001 0.19
0.23800001 4.3959999 -1.701 0.28
0.23 4.3829999 -1.6950001 0.23999999
0.21600001 4.375 -1.691 0.2
0.20299999 4.3870001 -1.696 0.27000001
0.18799999 4.3709998 -1.689 0.23999999
0.175 4.3769999 -1.691 0.25
0.161 4.3860002 -1.6950001 0.25
0.148 4.3940001 -1.698 0.28999999
0.14 4.382 -1.693 0.30000001
0.126 4.3769999 -1.691 0.27000001
0.113 4.3839998 -1.694 0.25
0.098999999 4.3829999 -1.693 0.19
0.085000001 4.3829999 -1.693 0.28999999
0.071000002 4.3759999 -1.6900001 0.25
0.057999998 4.3740001 -1.689 0.28
0.050999999 4.3889999 -1.6950001 0.25999999
0.037 4.3779998 -1.691 0.27000001
0.023 4.388 -1.694 0.30000001
0.0099999998 4.3860002 -1.694 0.27000001
-0.0040000002 4.3930001 -1.697 0.30000001
-0.017999999 4.421 -1.7079999 0.28999999
-0.032000002 4.369 -1.687 0.38
-0.045000002 4.3449998 -1.677 0.28999999
-0.052000001 4.3800001 -1.691 0.1
-0.066 4.3909998 -1.696 0.15000001
-0.079999998 4.3920002 -1.697 0.23
-0.093999997 4.3940001 -1.697 0.17
-0.108 4.401 -1.701 0.16
-0.122 4.3909998 -1.697 0.16
-0.13500001 4.3930001 -1.697 0.039999999
-0.142 4.3850002 -1.694 0.07
-0.156 4.3940001 -1.698 0.079999998
-0.17 4.3860002 -1.6950001 0.15000001
-0.184 4.3990002 -1.701 0.18000001
-0.198 4.3909998 -1.697 0.18000001
-0.212 4.395 -1.7 0.039999999
-0.22499999 4.3800001 -1.694 0.16
-0.233 4.4039998 -1.704 0.050000001
-0.24600001 4.3860002 -1.697 0.16
-0.26100001 4.402 -1.704 0.19
-0.27399999 4.3940001 -1.701 0.18000001
-0.289 4.4060001 -1.706 0.090000004
-0.301 4.3920002 -1.701 0.090000004
-0.315 4.3930001 -1.701 0.18000001
-0.329 4.3850002 -1.698 0.25
-0.336 4.395 -1.7029999 0.22
-0.34999999 4.388 -1.701 0.18000001
-0.36399999 4.3930001 -1.7029999 0.25
-0.377 4.382 -1.699 0.22
-0.39199999 4.3940001 -1.704 0.11
-0.40599999 4.3930001 -1.704 0.17
-0.419 4.3860002 -1.702 0.20999999
-0.426 4.3909998 -1.704 0.17
-0.43900001 4.3800001 -1.701 0.18000001
-0.454 4.3850002 -1.7029999 0.16
-0.46900001 4.3959999 -1.7079999 0.17
-0.48199999 4.3850002 -1.704 0.16
-0.49599999 4.3889999 -1.707 0.17
-0.509 4.3800001 -1.704 0.18000001
-0.523 4.3839998 -1.706 0.050000001
-0.528 4.369 -1.7 0.17
-0.546 4.3940001 -1.711 0.2
-0.55900002 4.3909998 -1.71 0.090000004
-0.57300001 4.3850002 -1.709 0.090000004
-0.58700001 4.3870001 -1.71 0.15000001
-0.60000002 4.3839998 -1.71 0.12
-0.61400002 4.3800001 -1.709 0.18000001
-0.62199998 4.3839998 -1.711 0.22
-0.63200003 4.362 -1.7029999 0.23
-0.648 4.375 -1.709 0.050000001
-0.66100001 4.3639998 -1.705 0.16
-0.676 4.3730001 -1.71 0.11
-0.68900001 4.3629999 -1.707 0.20999999
-0.70499998 4.3769999 -1.714 0.2
-0.71100003 4.3730001 -1.712 0.039999999
-0.72399998 4.3670001 -1.71 0.17
-0.73900002 4.3699999 -1.7130001 0.18000001
-0.75199997 4.362 -1.71 0.1
-0.76499999 4.3579998 -1.71 0.039999999
-0.77899998 4.3569999 -1.71 0.14
-0.79400003 4.3579998 -1.712 0.19
-0.80599999 4.3499999 -1.71 0.039999999
-0.81300002 4.3509998 -1.71 0.17
-0.82800001 4.3520002 -1.712 0.050000001
-0.84200001 4.3530002 -1.714 0.14
-0.85799998 4.3610001 -1.7180001 0.20999999
-0.866 4.3309999 -1.707 0.16
-0.88300002 4.3470001 -1.714 0.23
-0.89600003 4.3390002 -1.712 0.14
-0.90600002 4.3530002 -1.719 0.27000001
-0.92000002 4.349 -1.7180001 0.16
-0.93599999 4.3569999 -1.723 0.23999999
-0.94700003 4.3429999 -1.7180001 0.19
-0.96100003 4.3429999 -1.72 0.25
-0.97399998 4.3369999 -1.7180001 0.31999999
-0.991 4.3460002 -1.723 0.34
-0.99800003 4.348 -1.725 0.31
-1.012 4.3470001 -1.726 0.47
-1.025 4.3379998 -1.723 0.36000001
-1.035 4.323 -1.7180001 0.33000001
-1.048 4.3179998 -1.717 0.25999999
-1.067 4.336 -1.726 0.51999998
-1.0829999 4.3400002 -1.73 0.17
-1.0930001 4.3239999 -1.724 0.17
-1.1059999 4.3429999 -1.733 0.18000001
-1.118 4.3340001 -1.7309999 0.14
-1.128 4.3179998 -1.726 0.30000001
-1.142 4.3150001 -1.726 0.33000001
-1.163 4.3379998 -1.737 0.1
-1.177 4.3379998 -1.739 0.18000001
-1.192 4.3379998 -1.74 0.20999999
-1.201 4.3429999 -1.743 0.1
-1.2130001 4.3340001 -1.7410001 0.17
-1.229 4.3390002 -1.745 0.20999999
-1.242 4.3309999 -1.743 0.18000001
-1.258 4.336 -1.747 0.1
-1.2690001 4.3239999 -1.743 0.18000001
-1.285 4.3280001 -1.747 0.050000001
-1.298 4.323 -1.7460001 0.18000001
-1.3049999 4.3210001 -1.7460001 0.050000001
-1.318 4.3150001 -1.7460001 0.16
-1.339 4.3330002 -1.755 0.050000001
-1.347 4.3130002 -1.749 0.16
-1.364 4.3200002 -1.753 0.17
-1.3789999 4.3189998 -1.755 0.38999999
-1.395 4.322 -1.758 0.23
-1.397 4.3070002 -1.752 0.25
-1.42 4.3309999 -1.765 0.2
-1.433 4.323 -1.763 0.1
-1.4450001 4.3130002 -1.761 0.18000001
-1.457 4.3049998 -1.7589999 0.13
-1.472 4.3060002 -1.762 0.46000001
-1.482 4.29 -1.757 0.23999999
-1.4859999 4.2810001 -1.7539999 0.36000001
-1.499 4.2750001 -1.753 0.31999999
-1.511 4.2649999 -1.751 0.34
-1.526 4.2649999 -1.753 0.40000001
-1.5369999 4.2529998 -1.75 0.31999999
-1.5470001 4.2399998 -1.7460001 0.36000001
-1.5700001 4.2610002 -1.758 0.31999999
-1.581 4.2490001 -1.755 0.36000001
-1.591 4.2550001 -1.7589999 0.34999999
-1.61 4.2659998 -1.765 0.34
-1.624 4.2620001 -1.766 0.38999999
-1.635 4.25 -1.763 0.36000001
-1.652 4.2540002 -1.767 0.36000001
-1.664 4.2470002 -1.766 0.31999999
-1.683 4.2550001 -1.772 0.28
-1.684 4.2389998 -1.766 0.38999999
-1.699 4.237 -1.768 0.38999999
-1.7130001 4.2329998 -1.768 0.31999999
-1.733 4.2449999 -1.776 0.31
-1.739 4.2210002 -1.768 0.46000001
-1.757 4.2270002 -1.773 0.28
-1.762 4.2030001 -1.765 0.34
-1.776 4.217 -1.772 0.30000001
-1.767 4.1609998 -1.749 0.37
-1.779 4.152 -1.748 0.36000001
-1.79 4.1409998 -1.7460001 0.28
-1.8329999 4.2030001 -1.776 0.44
-1.844 4.1919999 -1.774 0.38
-1.858 4.1900001 -1.775 0.27000001
-1.875 4.191 -1.778 0.36000001
-1.8890001 4.2049999 -1.786 0.44
-1.893 4.178 -1.777 0.31
-1.9170001 4.1960001 -1.788 0.31999999
-1.931 4.1919999 -1.788 0.38
-1.949 4.197 -1.794 0.34
-1.951 4.1659999 -1.7819999 0.31
-1.974 4.1820002 -1.7920001 0.31
-1.971 4.158 -1.783 0.28
-1.9960001 4.177 -1.794 0.37
-2.0050001 4.1630001 -1.791 0.31
-2.02 4.1599998 -1.7920001 0.33000001
-2.036 4.158 -1.794 0.36000001
-2.046 4.1469998 -1.7920001 0.31999999
-2.0650001 4.152 -1.7970001 0.33000001
-2.0780001 4.145 -1.7970001 0.34
-2.075 4.1240001 -1.789 0.38999999
-2.092 4.1240001 -1.7920001 0.30000001
-2.1140001 4.1360002 -1.801 0.31999999
-2.1289999 4.132 -1.802 0.31999999
-2.1440001 4.1300001 -1.804 0.31999999
-2.1600001 4.1290002 -1.807 0.28999999
-2.1659999 4.1090002 -1.801 0.44999999
-2.177 4.1129999 -1.804 0.38
-2.188 4.1030002 -1.803 0.41
