# .PCD v0.7 - Point Cloud Data file format
VERSION 0.7
FIELDS x y z intensity
SIZE 4 4 4 4
TYPE F F F F
COUNT 1 1 1 1
WIDTH 1385
HEIGHT 1
VIEWPOINT 0 0 0 1 0 0 0
POINTS 1385
DATA ascii
-6.3340001 -9.0369997 0.51200002 0.47999999
-6.402 -9.1949997 0.51599997 0.34
-6.3330002 -9.1569996 0.51499999 0.31
-7.0380001 -10.24 0.55000001 0.47999999
-6.7800002 -9.9320002 0.53899997 0.23999999
-6.9380002 -10.231 0.54799998 0.23
-6.9289999 -10.288 0.54900002 0.64999998
-6.3860002 -9.5159998 0.52399999 0.34
-6.2119999 -9.3219995 0.51599997 0.38999999
-6.1719999 -9.3249998 0.51599997 0.37
-6.0630002 -9.224 0.51200002 0.47999999
-6.0549998 -9.2749996 0.51300001 0.28999999
-6.1069999 -9.4180002 0.51700002 0.5
-6.0799999 -9.4420004 0.51700002 0.25999999
-6.3889999 -9.9540005 0.53399998 0.41
-6.1849999 -9.7040005 0.52499998 0.34
-6.0739999 -9.5970001 0.52100003 0.25999999
-6.1129999 -9.7250004 0.52399999 0.46000001
-5.948 -9.5299997 0.51700002 0.43000001
-5.8759999 -9.4809999 0.51499999 0.28999999
-5.8730001 -9.5439997 0.51700002 0.36000001
-5.9169998 -9.6479998 0.51999998 0.31
-5.8579998 -9.6190004 0.51800001 0.38
-5.816 -9.6190004 0.51700002 0.38999999
-5.8959999 -9.8199997 0.523 0.19
-6.1849999 -10.372 0.54000002 0.62
-5.6760001 -9.5900002 0.51499999 0.2
-5.677 -9.6619997 0.51700002 0.19
-5.6789999 -9.6999998 0.51700002 0.56
-5.4439998 -9.3669996 0.50599998 0.20999999
-5.3140001 -9.2110004 0.50099999 0.20999999
-5.1539998 -8.9989996 0.49399999 0.56999999
-5.2140002 -9.1700001 0.498 0.34999999
-5.1220002 -9.0749998 0.495 0.25
-5.1389999 -9.1730003 0.498 0.31
-5.1399999 -9.2069998 0.498 0.38999999
-5.1209998 -9.2419996 0.49900001 0.36000001
-5.0890002 -9.2530003 0.49900001 0.27000001
-5.033 -9.2200003 0.49700001 0.43000001
-5.0510001 -9.3219995 0.5 0.2
-5.5409999 -10.298 0.52999997 0.34999999
-5.4159999 -10.143 0.52499998 0.33000001
-5.3779998 -10.109 0.523 0.47
-5.197 -9.8450003 0.51499999 0.28999999
-5.1550002 -9.8400002 0.514 0.38
-5.0700002 -9.7530003 0.51099998 0.36000001
-5.0229998 -9.7370005 0.50999999 0.43000001
-4.9889998 -9.7480001 0.50999999 0.38
-4.9619999 -9.7320004 0.509 0.31
-4.928 -9.7410002 0.509 0.25999999
-4.8850002 -9.7309999 0.50800002 0.38
-5.592 -11.219 0.55299997 0.38999999
-5.2750001 -10.669 0.53600001 0.31
-5.257 -10.718 0.537 0.47999999
-5.3779998 -11.051 0.546 0.2
-5.244 -10.82 0.53899997 0.49000001
-5.0830002 -10.574 0.53100002 0.38999999
-4.967 -10.416 0.52600002 0.31999999
-5.1170001 -10.817 0.537 0.15000001
-5.158 -10.992 0.542 0.61000001
-5.2529998 -11.285 0.551 0.28999999
-4.8720002 -10.556 0.528 0.33000001
-5.2930002 -11.511 0.55699998 0.38999999
-5.2199998 -11.446 0.55400002 0.27000001
-5.1659999 -11.424 0.55299997 0.25
-5.4660001 -12.184 0.57599998 0.64999998
-5.052 -11.361 0.55000001 0.30000001
-5.0380001 -11.426 0.55199999 0.31
-5.447 -12.454 0.58200002 0.43000001
-5.4130001 -12.43 0.58099997 0.31999999
-4.9660001 -11.506 0.55299997 0.36000001
-4.9510002 -11.571 0.55400002 0.37
-2.9089999 -6.8839998 0.414 0.38999999
-2.858 -6.8249998 0.412 0.16
-5.4520001 -13.074 0.59799999 0.30000001
-2.8410001 -6.9060001 0.414 0.25999999
-2.846 -6.9489999 0.41499999 0.28
-3.0079999 -7.4060001 0.428 0.36000001
-2.9400001 -7.3039999 0.42500001 0.18000001
-5.8049998 -14.487 0.63700002 0.14
-5.7340002 -14.44 0.63599998 0.51999998
-2.747 -7.0190001 0.41600001 0.23
-2.7880001 -7.1560001 0.41999999 0.36000001
-2.7290001 -7.0689998 0.417 0.11
-5.5739999 -14.5 0.63499999 0.23999999
-5.5229998 -14.503 0.63499999 0.46000001
-5.4689999 -14.499 0.634 0.60000002
-2.5639999 -6.9029999 0.41100001 0.11
-5.4530001 -14.736 0.63999999 0.20999999
-5.4689999 -14.849 0.64300001 0.56999999
-5.4640002 -14.979 0.64700001 0.51999998
-2.5610001 -7.132 0.417 0.25
-2.549 -7.1680002 0.41800001 0.28999999
-2.3380001 -6.6469998 0.40200001 0.20999999
-2.3169999 -6.6539998 0.40200001 0.41
-2.2809999 -6.618 0.40099999 0.36000001
-2.283 -6.6570001 0.40200001 0.28
-2.3099999 -6.802 0.40599999 0.18000001
-2.2160001 -6.598 0.40000001 0.28
-2.1989999 -6.6160002 0.40000001 0.38999999
-2.247 -6.829 0.40599999 0.23
-2.267 -6.9619999 0.41 0.23999999
-2.2839999 -7.0890002 0.41299999 0.47
-2.24 -6.9899998 0.41 0.25999999
-2.2379999 -7.059 0.412 0.44999999
-2.197 -7.0050001 0.41 0.19
-2.188 -7.0560002 0.412 0.34
-2.1289999 -6.9450002 0.40799999 0.19
-1.964 -6.4829998 0.39500001 0.14
-2.138 -7.1300001 0.41299999 0.25999999
-1.857 -6.2399998 0.38800001 0.23999999
-2.082 -7.0650001 0.41100001 0.25999999
-2.0999999 -7.2080002 0.41499999 0.38
-1.964 -6.8270001 0.40400001 0.25
-1.943 -6.835 0.40400001 0.25999999
-1.9349999 -6.8850002 0.405 0.36000001
-1.909 -6.8759999 0.405 0.31
-1.857 -6.7319999 0.40099999 0.23
-1.859 -6.823 0.403 0.44999999
-1.846 -6.8600001 0.40400001 0.34
-1.7690001 -6.6589999 0.398 0.20999999
-1.707 -6.5120001 0.39399999 0.27000001
-1.711 -6.6079998 0.396 0.36000001
-1.694 -6.586 0.39500001 0.27000001
-1.714 -6.75 0.40000001 0.18000001
-1.671 -6.6700001 0.398 0.38
-1.638 -6.6259999 0.396 0.31999999
-1.516 -6.224 0.38499999 0.30000001
-1.573 -6.5430002 0.39399999 0.22
-1.567 -6.6090002 0.39500001 0.19
-1.538 -6.5310001 0.39300001 0.36000001
-1.505 -6.4840002 0.39199999 0.20999999
-1.386 -6.0640001 0.38 0.18000001
-1.4450001 -6.4109998 0.389 0.38999999
-1.39 -6.2579999 0.38499999 0.23
-1.42 -6.4840002 0.391 0.2
-1.442 -6.6820002 0.396 0.2
-1.41 -6.5869999 0.39399999 0.55000001
-1.392 -6.6069999 0.39399999 0.16
-1.4069999 -6.7789998 0.39899999 0.31
-1.414 -6.9190001 0.403 0.37
-1.4680001 -7.2909999 0.41299999 0.12
-1.469 -7.414 0.41600001 0.5
-1.255 -6.4590001 0.389 0.18000001
-1.238 -6.428 0.38800001 0.28999999
-1.214 -6.4099998 0.38800001 0.23
-1.223 -6.5650001 0.39199999 0.43000001
-1.228 -6.71 0.396 0.18000001
-1.155 -6.427 0.38800001 0.34
-1.148 -6.5050001 0.38999999 0.16
-1.197 -6.8990002 0.40099999 0.31999999
-1.164 -6.777 0.398 0.20999999
-1.155 -6.8530002 0.40000001 0.22
-1.1289999 -6.829 0.39899999 0.34999999
-1.113 -6.8660002 0.40000001 0.2
-1.003 -6.323 0.38499999 0.40000001
-1.012 -6.5120001 0.38999999 0.19
-1 -6.566 0.391 0.16
-0.99900001 -6.6269999 0.39300001 0.23999999
-0.912 -6.1950002 0.38100001 0.30000001
-0.89399999 -6.2059999 0.38100001 0.30000001
-0.87400001 -6.2049999 0.38100001 0.36000001
-0.875 -6.3559999 0.38499999 0.23999999
-0.87699997 -6.513 0.389 0.31
-0.838 -6.3049998 0.38299999 0.15000001
-0.80599999 -6.2199998 0.38100001 0.5
-0.824 -6.506 0.389 0.25
-0.824 -6.6750002 0.39300001 0.25
-0.79100001 -6.579 0.391 0.23
-0.796 -6.7950001 0.39700001 0.37
-0.74400002 -6.5359998 0.389 0.28999999
-0.71799999 -6.3959999 0.38499999 0.31
-0.69300002 -6.3600001 0.384 0.31999999
-0.676 -6.388 0.38499999 0.2
-0.67500001 -6.5669999 0.38999999 0.36000001
-0.64200002 -6.454 0.38699999 0.22
-0.653 -6.7659998 0.39500001 0.28
-0.63300002 -6.7800002 0.396 0.25
-0.62099999 -6.7690001 0.39500001 0.31999999
-0.60100001 -6.7789998 0.396 0.25
-0.57599998 -6.7470002 0.39500001 0.52999997
-0.60299999 -7.2989998 0.41 0.16
-0.56099999 -7.0799999 0.40400001 0.25999999
-0.67500001 -8.7869997 0.45100001 0.15000001
-0.64600003 -8.7629995 0.44999999 0.38
-0.56800002 -7.9089999 0.42699999 0.20999999
-0.55800003 -8.1219997 0.43200001 0.25999999
-0.60600001 -9.1990004 0.46200001 0.36000001
-0.50099999 -8.0340004 0.43000001 0.23
-0.426 -7.243 0.40799999 0.28999999
-0.40200001 -7.217 0.40700001 0.23
-0.38999999 -7.2129998 0.40700001 0.38999999
-0.45899999 -8.8970003 0.45300001 0.23
-0.405 -8.3800001 0.43900001 0.2
-0.41600001 -9.1700001 0.461 0.23
-0.30199999 -7.2750001 0.40900001 0.19
-0.66600001 -16.503 0.662 0.14
-0.28799999 -8.0819998 0.43099999 0.25999999
-0.28 -8.2209997 0.435 0.14
-0.53600001 -16.497 0.662 0.23999999
-0.484 -16.483 0.662 0.64999998
-0.19499999 -7.9489999 0.42699999 0.47
-0.329 -16.485001 0.662 0.2
-0.27700001 -16.497999 0.662 0.47
-0.25099999 -16.469999 0.66100001 0.67000002
-0.082000002 -7.8790002 0.42500001 0.22
-0.147 -16.474001 0.66100001 0.25999999
-0.096000001 -16.502001 0.662 0.27000001
-0.044 -16.482 0.662 0.63999999
0.0080000004 -16.482 0.662 0.49000001
0.086000003 -16.476 0.66100001 0.28
0.041999999 -8.0389996 0.43000001 0.41
0.079999998 -8.0389996 0.43000001 0.27000001
0.189 -16.495001 0.662 0.20999999
0.241 -16.486 0.662 0.58999997
0.29300001 -16.492001 0.662 0.40000001
0.345 -16.517 0.66299999 0.69999999
0.205 -7.9510002 0.42699999 0.33000001
0.21699999 -7.9559999 0.42699999 0.20999999
0.47400001 -16.481001 0.662 0.38999999
0.52600002 -16.49 0.662 0.40000001
0.57800001 -16.478001 0.662 0.66000003
0.63099998 -16.51 0.66299999 0.40000001
0.68099999 -16.474001 0.662 0.31
0.70700002 -16.466999 0.662 0.31
0.75800002 -16.443001 0.66100001 0.28
0.80900002 -16.436001 0.66100001 0.34
0.84799999 -16.181999 0.65399998 0.19
0.88099998 -15.858 0.64499998 0.25999999
0.96200001 -16.393999 0.66000003 0
0.94800001 -15.301 0.63 0.1
1.705 -27.159 0.95599997 0.14
1.9450001 -29.531 1.022 0.31999999
1.859 -26.908001 0.94999999 0.14
0.99000001 -13.515 0.58099997 0
1.2410001 -16.316999 0.65799999 0
1.847 -23.466999 0.85500002 0
1.85 -22.586 0.83099997 0
1.817 -21.752001 0.80800003 0
1.824 -21.025999 0.78899997 0
1.822 -20.250999 0.76700002 0.07
1.829 -19.625999 0.75 0
1.581 -15.838 0.64600003 0.2
1.862 -18.114 0.70899999 0.31
1.817 -17.395 0.68900001 0.38
1.8329999 -17.025999 0.67900002 0.18000001
1.859 -16.773001 0.67199999 0.2
1.8430001 -16.155001 0.65499997 0.27000001
1.855 -15.816 0.64600003 0.51999998
1.865 -15.473 0.63700002 0.25
1.659 -13.204 0.574 0.38
1.7970001 -13.96 0.59500003 0.16
1.806 -13.689 0.588 0.16
1.819 -13.461 0.58200002 0.25
1.813 -13.101 0.57200003 0.18000001
1.8150001 -12.812 0.56400001 0.15000001
1.817 -12.537 0.55699998 0.23
1.8 -12.281 0.55000001 0.18000001
1.801 -12.02 0.54299998 0.15000001
1.796 -11.731 0.53500003 0.11
1.823 -11.66 0.53299999 0.38
1.86 -11.663 0.53299999 0.38
1.896 -11.647 0.53299999 0.41
1.933 -11.645 0.53299999 0.38
1.954 -11.661 0.53399998 0.37
1.99 -11.651 0.53299999 0.41
2.027 -11.647 0.53299999 0.40000001
2.0669999 -11.656 0.53399998 0.40000001
2.102 -11.646 0.53399998 0.40000001
2.1389999 -11.641 0.53399998 0.33000001
2.1630001 -11.665 0.53500003 0.36000001
2.1989999 -11.656 0.53500003 0.38999999
2.2360001 -11.653 0.53500003 0.47999999
2.2750001 -11.658 0.53500003 0.37
2.3110001 -11.649 0.53500003 0.36000001
2.3499999 -11.649 0.53500003 0.37
2.3870001 -11.648 0.53500003 0.36000001
2.4059999 -11.644 0.53500003 0.37
2.4460001 -11.656 0.53600001 0.36000001
2.483 -11.65 0.53600001 0.34
2.5209999 -11.648 0.53600001 0.33000001
2.562 -11.662 0.537 0.31999999
2.6099999 -11.704 0.53799999 0.34
2.6500001 -11.712 0.53899997 0.40000001
2.668 -11.704 0.53799999 0.47
2.7019999 -11.682 0.53799999 0.44999999
2.7320001 -11.646 0.537 0.36000001
2.77 -11.645 0.53799999 0.34999999
2.8099999 -11.65 0.53799999 0.34
2.846 -11.639 0.53799999 0.34999999
2.885 -11.64 0.53799999 0.34999999
2.908 -11.653 0.53899997 0.37
2.944 -11.643 0.53899997 0.38999999
2.984 -11.648 0.53899997 0.31999999
3.023 -11.646 0.53899997 0.40000001
3.0610001 -11.64 0.53899997 0.34999999
3.0999999 -11.642 0.54000002 0.31999999
3.122 -11.649 0.54000002 0.31999999
3.1600001 -11.647 0.54000002 0.36000001
3.1989999 -11.646 0.54100001 0.30000001
3.2420001 -11.659 0.54100001 0.38999999
3.2839999 -11.667 0.542 0
1.812 -6.3189998 0.389 0.13
1.834 -6.3189998 0.389 0.2
1.836 -6.289 0.389 0.23
1.862 -6.303 0.389 0.31
1.886 -6.3119998 0.38999999 0.19
3.5539999 -11.706 0.54500002 0.23999999
3.5940001 -11.704 0.54500002 0.51999998
3.6270001 -11.68 0.54500002 0.47
3.6359999 -11.645 0.54400003 0.31999999
3.677 -11.647 0.54400003 0.38999999
3.7149999 -11.641 0.54400003 0.37
3.7539999 -11.637 0.54500002 0.28999999
3.7980001 -11.648 0.54500002 0.36000001
3.836 -11.642 0.54500002 0.25
3.8740001 -11.632 0.546 0.38
3.8959999 -11.639 0.546 0.36000001
3.9389999 -11.644 0.546 0.36000001
3.977 -11.637 0.54699999 0.34999999
4.0190001 -11.641 0.54699999 0.28
4.0650001 -11.653 0.54799998 0.38
4.099 -11.635 0.54799998 0.30000001
4.1420002 -11.639 0.54799998 0.31999999
4.165 -11.645 0.54799998 0.36000001
4.2049999 -11.642 0.54900002 0.36000001
4.2449999 -11.64 0.54900002 0.34
4.29 -11.649 0.55000001 0.38999999
4.3280001 -11.639 0.55000001 0.36000001
4.3759999 -11.657 0.551 0.31999999
4.4109998 -11.693 0.55199999 0.31999999
4.4530001 -11.693 0.55199999 0.5
4.4860001 -11.671 0.55199999 0.38999999
4.52 -11.65 0.55199999 0.38999999
4.5599999 -11.643 0.55199999 0.38
4.6020002 -11.643 0.55299997 0.30000001
4.645 -11.645 0.55299997 0.5
4.6669998 -11.647 0.55299997 0.31
4.7090001 -11.646 0.55400002 0.33000001
4.7490001 -11.64 0.55400002 0.36000001
4.7930002 -11.644 0.55500001 0.31999999
4.8379998 -11.647 0.55500001 0.25999999
4.8870001 -11.663 0.55599999 0.38
4.9120002 -11.62 0.55500001 0.34
4.8940001 -11.526 0.55299997 0.44999999
4.9000001 -11.44 0.551 0.34
4.9060001 -11.353 0.54799998 0.46000001
4.9130001 -11.272 0.546 0.36000001
4.9349999 -11.227 0.546 0.46000001
4.9770002 -11.226 0.546 0.44999999
5.0180001 -11.223 0.546 0.44999999
5.0419998 -11.23 0.54699999 0.46000001
5.086 -11.234 0.54699999 0.46000001
5.1329999 -11.244 0.54799998 0.47999999
5.1739998 -11.24 0.54900002 0.47
5.2140002 -11.233 0.54900002 0.46000001
5.2579999 -11.236 0.55000001 0.46000001
5.2839999 -11.246 0.55000001 0.47999999
5.3260002 -11.244 0.55000001 0.46000001
5.3699999 -11.245 0.551 0.44999999
5.414 -11.246 0.55199999 0.46000001
5.4559999 -11.244 0.55199999 0.47
5.5009999 -11.246 0.55299997 0.47
5.5419998 -11.24 0.55299997 0.46000001
5.5700002 -11.252 0.55400002 0.47
5.6139998 -11.253 0.55400002 0.47
5.6560001 -11.248 0.55500001 0.47
5.6999998 -11.248 0.55500001 0.46000001
5.743 -11.244 0.55599999 0.47
5.7880001 -11.245 0.55599999 0.47
5.8330002 -11.245 0.55699998 0.47999999
5.8590002 -11.254 0.55699998 0.47999999
5.9029999 -11.251 0.55800003 0.47999999
5.948 -11.25 0.55800003 0.47
5.9910002 -11.246 0.55900002 0.46000001
6.0409999 -11.255 0.56 0.46000001
6.0840001 -11.25 0.56 0.47
6.1259999 -11.243 0.56 0.46000001
6.1539998 -11.253 0.56099999 0.47
6.1999998 -11.253 0.56199998 0.47999999
6.2519999 -11.263 0.56300002 0.47
6.2950001 -11.257 0.56300002 0.46000001
6.3410001 -11.256 0.56400001 0.47
6.3889999 -11.259 0.56400001 0.46000001
6.427 -11.244 0.565 0.46000001
6.4569998 -11.255 0.565 0.47
6.5089998 -11.264 0.56599998 0.46000001
6.5510001 -11.256 0.56599998 0.47
6.598 -11.254 0.56699997 0.47999999
6.6459999 -11.256 0.56800002 0.46000001
6.6900001 -11.248 0.56800002 0.47
6.717 -11.253 0.56900001 0.47
6.7709999 -11.263 0.56999999 0.47999999
6.8119998 -11.252 0.56999999 0.47999999
6.8540001 -11.241 0.56999999 0.69
6.901 -11.24 0.57099998 0.34
6.9369998 -11.218 0.57099998 0.51999998
6.9850001 -11.217 0.57200003 0.40000001
7.0100002 -11.217 0.57200003 0.41999999
7.0560002 -11.214 0.57300001 0.44999999
7.0999999 -11.205 0.57300001 0.47
7.158 -11.218 0.574 0.47
7.2030001 -11.211 0.57499999 0.46000001
7.2480001 -11.203 0.57499999 0.55000001
7.3569999 -11.295 0.579 0.43000001
7.4920001 -11.464 0.58499998 0.40000001
7.5500002 -11.474 0.58600003 0.67000002
7.5960002 -11.465 0.58700001 0.40000001
7.612 -11.411 0.58600003 0.15000001
7.6739998 -11.426 0.58700001 0.34999999
7.7340002 -11.438 0.588 0.38999999
7.7800002 -11.428 0.58899999 0.41999999
7.8179998 -11.446 0.58999997 0.43000001
7.8720002 -11.448 0.58999997 0.44
7.9169998 -11.436 0.59100002 0.44
7.9689999 -11.434 0.59200001 0.43000001
8.0190001 -11.429 0.59200001 0.56
8.0670004 -11.421 0.59299999 0.58999997
8.0869999 -11.412 0.59299999 0.19
8.1700001 -11.452 0.59500003 0.19
8.2229996 -11.45 0.59600002 0.31
8.283 -11.459 0.597 0.50999999
8.3219995 -11.436 0.597 0.18000001
8.3850002 -11.447 0.59899998 0.33000001
8.4169998 -11.415 0.59799999 0.27000001
8.441 -11.41 0.59899998 0.44999999
8.4549999 -11.355 0.59799999 0.55000001
8.4589996 -11.285 0.59600002 0.40000001
8.4840002 -11.246 0.59600002 0.47
8.5369997 -11.241 0.59600002 0.44999999
8.585 -11.232 0.597 0.46000001
8.651 -11.244 0.59799999 0.44999999
8.6829996 -11.25 0.59899998 0.46000001
8.7390003 -11.249 0.60000002 0.46000001
8.7969999 -11.25 0.60100001 0.44
8.849 -11.245 0.602 0.46000001
8.9029999 -11.24 0.60299999 0.47
8.9530001 -11.231 0.60299999 0.70999998
8.8389997 -11.015 0.597 0.44999999
8.8009996 -10.933 0.59399998 0.19
9.0600004 -11.184 0.60399997 0.46000001
9.0480003 -11.098 0.602 0.38
9.1490002 -11.15 0.60500002 0.31999999
9.1700001 -11.104 0.60399997 0.36000001
9.2150002 -11.087 0.60500002 0.63999999
9.0340004 -10.799 0.59500003 0.18000001
9.3339996 -11.124 0.60799998 0.36000001
9.0019999 -10.658 0.59200001 0.44999999
9.3879995 -11.046 0.60699999 0.40000001
9.0769997 -10.611 0.59200001 0.27000001
8.9910002 -10.444 0.58700001 0.30000001
8.7370005 -10.083 0.57499999 0.31999999
8.7110004 -10.021 0.57300001 0.47999999
8.7360001 -9.9860001 0.57300001 0.23999999
8.7670002 -9.9580002 0.57300001 0.41
8.9770002 -10.133 0.58099997 0.50999999
8.9530001 -10.042 0.57800001 0.27000001
9.0469999 -10.084 0.58099997 0.36000001
8.7600002 -9.7019997 0.56800002 0.27000001
8.8850002 -9.8100004 0.57200003 0.47999999
8.7620001 -9.6110001 0.56599998 0.27000001
8.8900003 -9.691 0.56999999 0.33000001
9.0179996 -9.7690001 0.574 0.33000001
8.9960003 -9.684 0.57200003 0.22
9.2749996 -9.9230003 0.58200002 0.62
9.0410004 -9.6110001 0.57099998 0.20999999
8.9280005 -9.46 0.56599998 0.30000001
9.0319996 -9.5100002 0.56900001 0.44
8.9860001 -9.4020004 0.56599998 0.34999999
9.073 -9.4350004 0.56800002 0.33000001
9.0220003 -9.323 0.565 0.34
9.0080004 -9.25 0.56300002 0.37
9.0100002 -9.1929998 0.56199998 0.31999999
9.1370001 -9.2939997 0.56699997 0.38
9.401 -9.5030003 0.57599998 0.25
9.1879997 -9.2299995 0.56599998 0.43000001
9.3970003 -9.3800001 0.57300001 0.31
9.3959999 -9.3210001 0.57200003 0.38
9.3920002 -9.2580004 0.57099998 0.37
9.4460001 -9.2819996 0.57300001 0.36000001
11.628 -11.363 0.65499997 0.23
9.5699997 -9.2869997 0.57499999 0.43000001
9.6440001 -9.3000002 0.57700002 0.30000001
9.7019997 -9.2969999 0.57800001 0.37
9.6949997 -9.2320004 0.57599998 0.31
9.6990004 -9.1780005 0.57599998 0.44999999
9.7370005 -9.1850004 0.57599998 0.16
11.977 -11.236 0.66000003 0.68000001
11.803 -11.003 0.65200001 0.23
12.139 -11.246 0.66299999 0.40000001
12.214 -11.245 0.66500002 0.41999999
12.282 -11.236 0.66600001 0.54000002
12.362 -11.238 0.66799998 0.40000001
12.415 -11.251 0.66900003 0.41
12.477 -11.236 0.67000002 0.57999998
12.542 -11.223 0.671 0.36000001
12.647 -11.246 0.67400002 0.38999999
12.715 -11.236 0.67500001 0.41999999
12.695 -11.147 0.67299998 0.66000003
12.801 -11.204 0.676 0.38
12.708 -11.052 0.671 0.23
12.948 -11.191 0.67900002 0.23
11.932 -10.244 0.64099997 0.50999999
11.815 -10.015 0.634 0.44999999
12.876 -10.848 0.671 0.28999999
12.957 -10.882 0.67400002 0.20999999
11.835 -9.8730001 0.63200003 0.38
12.101 -10.032 0.64099997 0.38
12.627 -10.402 0.65799999 0.19
12.294 -10.062 0.64499998 0.43000001
12.217 -9.9350004 0.64099997 0.18000001
12.17 -9.8330002 0.639 0.38999999
12.149 -9.7840004 0.63700002 0.20999999
12.987 -10.394 0.66600001 0
12.572 -9.9969997 0.64999998 0.090000004
12.101 -9.559 0.63200003 0.15000001
12.209 -9.5819998 0.63499999 0.14
12.277 -9.5740004 0.63599998 0.61000001
13.567 -10.514 0.68000001 0.20999999
13.321 -10.29 0.671 0.23999999
12.781 -9.8070002 0.65100002 0.57999998
14.941 -11.396 0.72500002 0.2
13.44 -10.18 0.67199999 0.13
12.943 -9.7390003 0.65399998 0.5
13.007 -9.724 0.65499997 0.14
12.939 -9.6090002 0.65100002 0.30000001
12.618 -9.3389997 0.63999999 0.5
13.33 -9.8030005 0.66299999 0.25999999
15.265 -11.157 0.72799999 0.19
13.506 -9.8030005 0.667 0.47
13.036 -9.3979998 0.64999998 0.18000001
12.857 -9.2080002 0.64300001 0.30000001
12.846 -9.1379995 0.64200002 0.46000001
13.378 -9.4870005 0.65899998 0.31999999
15.569 -10.972 0.73199999 0.23
15.672 -10.972 0.73400003 0.56999999
15.215 -10.579 0.71799999 0.27000001
14.988 -10.352 0.70899999 0.34999999
16.393999 -11.25 0.755 0.27000001
14.76 -10.091 0.69999999 0.47999999
14.61 -9.9209995 0.69400001 0.22
13.712 -9.2460003 0.66299999 0.23999999
15.684 -10.509 0.727 0.28999999
15.223 -10.13 0.71100003 0.50999999
17.115 -11.238 0.77100003 0.62
15.152 -9.9110003 0.70599997 0.31999999
15.27 -9.9200001 0.70899999 0.18000001
15.296 -9.8690004 0.70899999 0.55000001
15.411 -9.875 0.71200001 0.19
15.262 -9.7119999 0.70599997 0.5
15.302 -9.6700001 0.70599997 0.43000001
15.453 -9.698 0.70999998 0.38
17.806999 -11.14 0.78600001 0.14
18.149 -11.276 0.796 0.40000001
18.254 -11.262 0.79799998 0.37
15.691 -9.6090002 0.71399999 0.54000002
15.744 -9.573 0.71499997 0.22
19.035 -11.498 0.81999999 0
19.282 -11.443 0.82499999 0.28
17.077 -10.058 0.75300002 0.38999999
19.483 -11.397 0.829 0.20999999
16.221001 -9.415 0.72399998 0.25999999
16.799 -9.6820002 0.741 0.23
17.243999 -9.9029999 0.755 0.20999999
16.872 -9.618 0.74199998 0.44999999
16.892 -9.559 0.74199998 0.23999999
17.141001 -9.6300001 0.74900001 0.31999999
17.139999 -9.5579996 0.74800003 0.49000001
17.263 -9.5559998 0.75099999 0.34999999
17.242001 -9.474 0.74900001 0.36000001
17.33 -9.4870005 0.75199997 0.34
17.292 -9.3950005 0.74900001 0.37
17.202999 -9.2770004 0.74599999 0.30000001
17.142 -9.1750002 0.74299997 0.2
17.014 -9.0369997 0.73799998 0.46000001
17.127001 -9.0279999 0.741 0.40000001
17.145 -8.9689999 0.74000001 0.36000001
17.212 -8.9700003 0.74199998 0.23
17.243999 -8.9180002 0.74199998 0.44999999
17.291 -8.8730001 0.74299997 0.36000001
17.287001 -8.8030005 0.74199998 0.38
17.5 -8.842 0.74699998 0.28999999
17.308001 -8.677 0.741 0.47
17.471001 -8.6899996 0.745 0.27000001
17.485001 -8.6630001 0.745 0.31
17.639 -8.6709995 0.74900001 0.44999999
17.542 -8.5550003 0.745 0.33000001
17.458 -8.4449997 0.74199998 0.30000001
17.709 -8.4989996 0.74800003 0.47999999
18.007999 -8.573 0.75700003 0.2
17.945999 -8.5089998 0.75400001 0.57999998
24.157 -11.278 0.94099998 0.55000001
24.275999 -11.241 0.94400001 0.20999999
28.719 -13.194 1.077 0.31
28.813 -13.128 1.079 0.36000001
28.826 -13.025 1.0779999 0.38
28.798 -12.957 1.076 0.38999999
28.767 -12.835 1.074 0.40000001
28.707001 -12.7 1.071 0.33000001
28.618 -12.554 1.067 0.34999999
28.552999 -12.418 1.064 0.38
28.533001 -12.303 1.062 0.34
28.528 -12.194 1.061 0.37
28.504999 -12.131 1.0599999 0.43000001
28.506001 -12.026 1.059 0.36000001
28.556 -11.942 1.059 0.37
28.556999 -11.837 1.058 0.38
28.561001 -11.733 1.057 0.43000001
28.573 -11.634 1.056 0.38999999
28.551001 -11.572 1.0549999 0.22
28.559 -11.471 1.054 0.49000001
28.563 -11.369 1.053 0.23
28.58 -11.272 1.053 0.56999999
25.445999 -9.9399996 0.95899999 0.20999999
29.052999 -11.248 1.0650001 0.41
25.101 -9.6239996 0.94700003 0.25999999
25.304001 -9.6560001 0.95300001 0.15000001
30.455 -11.518 1.103 0.37
25.525 -9.5579996 0.958 0.14
25.615 -9.5 0.95899999 0.57999998
25.562 -9.3889999 0.95700002 0.20999999
25.398001 -9.2379999 0.95099998 0.33000001
25.409 -9.151 0.95099998 0.18000001
25.18 -9.0240002 0.94400001 0.36000001
25.481001 -9.0419998 0.95200002 0.25
25.493 -8.9560003 0.95099998 0.34
25.107 -8.7320004 0.93900001 0.31999999
24.815001 -8.5419998 0.93000001 0.27000001
25.049999 -8.5360003 0.93599999 0.30000001
25.145 -8.4799995 0.93800002 0.37
25.136 -8.4329996 0.93699998 0.25
24.962999 -8.2869997 0.93099999 0.30000001
24.85 -8.1630001 0.92699999 0.25999999
24.931 -8.1029997 0.92900002 0.41
24.853001 -7.9920001 0.926 0.25999999
24.895 -7.9190001 0.926 0.38
25.049999 -7.882 0.93000001 0.31999999
25.080999 -7.848 0.93099999 0.27000001
24.993 -7.7340002 0.92799997 0.36000001
24.684999 -7.5539999 0.91799998 0.31999999
24.919001 -7.54 0.92400002 0.23
24.674 -7.381 0.91600001 0.30000001
24.565001 -7.2649999 0.91299999 0.27000001
24.948 -7.2930002 0.92299998 0.50999999
25.332001 -7.3629999 0.93400002 0.2
24.575001 -7.0580001 0.91100001 0.33000001
24.690001 -7.007 0.91399997 0.44999999
24.860001 -6.9710002 0.91799998 0.25
24.643 -6.8270001 0.91100001 0.36000001
24.562 -6.7210002 0.90799999 0.34
24.59 -6.6869998 0.90899998 0.37
24.881001 -6.6830001 0.917 0.23
24.716 -6.5549998 0.91100001 0.46000001
24.75 -6.4809999 0.912 0.28999999
24.979 -6.4580002 0.91799998 0.33000001
25.360001 -6.4710002 0.92799997 0.37
25.562 -6.4380002 0.93300003 0.25
25.528 -6.3860002 0.93199998 0.34999999
25.525999 -6.3010001 0.93099999 0.20999999
25.865 -6.2989998 0.94 0.41999999
25.695999 -6.1719999 0.935 0.28
25.886 -6.132 0.94 0.36000001
25.809999 -6.0279999 0.93699998 0.31
40.327999 -9.3000002 1.346 0.15000001
40.433998 -9.2580004 1.348 0.41999999
40.637001 -9.1700001 1.353 0.23
40.589001 -9.026 1.351 0.27000001
40.575001 -8.8889999 1.35 0
41.400002 -8.934 1.372 0.11
41.814999 -8.8859997 1.383 0
38.544998 -8.0629997 1.291 0
38.543999 -7.9990001 1.29 0
57.708 -11.801 1.827 0
57.715 -11.613 1.826 0
32.505001 -6.4229999 1.119 0.12
32.501999 -6.316 1.118 0
54.368999 -10.406 1.73 0
54.214001 -10.2 1.724 0
54.16 -10.102 1.722 0
55.164001 -10.11 1.75 0
54.494999 -9.8109999 1.73 0
54.172001 -9.5769997 1.72 0.050000001
47.785999 -8.29 1.541 0.14
47.780998 -8.1339998 1.54 0
47.979 -8.0909996 1.546 0.07
47.945 -7.9299998 1.544 0.14
47.806 -7.7529998 1.539 0
48.136002 -7.651 1.548 0.1
47.830002 -7.4489999 1.539 0.1
47.803001 -7.2909999 1.5369999 0.090000004
47.796001 -7.1360002 1.5369999 0.15000001
47.893002 -7.0739999 1.539 0.20999999
47.77 -6.902 1.535 0.11
47.685001 -6.737 1.5319999 0
47.695999 -6.586 1.5319999 0
47.601002 -6.4200001 1.528 0.059999999
47.702 -6.2810001 1.531 0.14
47.009998 -6.04 1.511 0.18000001
47.397999 -6.0139999 1.521 0.22
47.479 -5.8730001 1.523 0.2
47.480999 -5.7220001 1.523 0.1
47.91 -5.6209998 1.534 0.079999998
49.737 -5.678 1.584 0.16
49.824001 -5.5289998 1.586 0
49.993999 -5.3889999 1.59 0
50.856998 -5.402 1.614 0
51.596001 -5.3169999 1.6339999 0
51.646 -5.158 1.635 0
57.701 -5.5830002 1.802 0
58.155998 -5.4429998 1.814 0
58.528999 -5.2930002 1.823 0
59.358002 -5.1799998 1.846 0
60.618999 -5.1950002 1.88 0
60.592999 -5.0009999 1.8789999 0
60.787998 -4.8249998 1.8839999 0
64.082001 -4.8850002 1.975 0
64.735001 -4.7309999 1.992 0
70.860001 -4.9569998 2.1600001 0
73.206001 -5.006 2.2249999 0
74.443001 -4.6220002 2.2579999 0
73.567001 -4.335 2.234 0
73.846001 1.399 1.89 0
65.765999 1.656 1.707 0
65.439003 1.854 1.699 0
65.643997 2.066 1.704 0
65.997002 2.2850001 1.712 0
65.695999 2.3770001 1.706 0
52.528 2.0610001 1.406 0
52.445 2.223 1.404 0
52.518002 2.391 1.406 0
52.598 2.5599999 1.408 0
52.299999 2.711 1.401 0
51.754002 2.845 1.3890001 0
50.563999 2.859 1.362 0
50.581001 3.0190001 1.362 0
50.702999 3.1860001 1.365 0
50.424999 3.3280001 1.359 0
50.148998 3.4679999 1.353 0
49.993999 3.615 1.35 0
50.141998 3.7839999 1.354 0
50.234001 3.8699999 1.3559999 0
50.341 4.0380001 1.359 0
51.275002 4.2750001 1.38 0
49.009998 4.2399998 1.329 0
49.018002 4.3959999 1.329 0
50.563 4.6960001 1.365 0
50.735001 4.7919998 1.369 0
54.258999 5.4710002 1.45 0
48.957001 5.0890002 1.329 0
48.983002 5.2480001 1.33 0
48.803001 5.3839998 1.327 0
50.370998 5.7179999 1.363 0
51.429001 5.9200001 1.387 0
50.023998 5.9169998 1.3559999 0
53.556 6.507 1.437 0
49.077 6.1170001 1.335 0
49.105 6.2779999 1.336 0
51.423 6.7389998 1.3890001 0
48.778 6.5469999 1.329 0
48.979 6.6529999 1.334 0
48.966 6.8080001 1.334 0
49.726002 7.073 1.352 0
52.862 7.6900001 1.425 0
49.713001 7.3899999 1.353 0
51.986 7.8959999 1.406 0
50.033001 7.7600002 1.3609999 0
50.491001 7.9120002 1.372 0
50.599998 8.092 1.375 0
48.619999 7.9310002 1.33 0
48.512001 8.0699997 1.3279999 0
48.513 8.2270002 1.329 0
48.397999 8.3640003 1.327 0
53.292 9.3850002 1.441 0
48.604 8.6359997 1.3329999 0
48.605999 8.7939997 1.3329999 0
49.168999 9.375 1.348 0
26.937 5.4320002 0.83399999 0.19
26.972 5.527 0.83499998 0.23
26.951 5.6110001 0.83499998 0.25
26.924999 5.6939998 0.83499998 0.16
26.952 5.7880001 0.83600003 0.5
27.117001 5.869 0.83999997 0.23
27.473 6.0359998 0.84899998 0.12
26.906 6 0.83600003 0.16
26.294001 5.9499998 0.82200003 0.23
26.075001 5.9860001 0.81800002 0.20999999
25.992001 6.053 0.81599998 0.30000001
26.007 6.1430001 0.81699997 0.37
26.007 6.1859999 0.81699997 0.31
25.771999 6.2150002 0.81199998 0.28999999
25.775999 6.302 0.81300002 0.27000001
26 6.4439998 0.81800002 0.17
25.858 6.4949999 0.81599998 0.36000001
26.268999 6.6859999 0.82599998 0.19
26.216999 6.7610002 0.82499999 0.16
25.638 6.6539998 0.81199998 0.40000001
25.961 6.8249998 0.81999999 0.13
25.712999 6.8460002 0.81400001 0.38999999
26.073999 7.0300002 0.82300001 0.27000001
26.153999 7.1399999 0.82599998 0.19
26.9 7.4359999 0.84399998 0.18000001
25.540001 7.145 0.81199998 0.33000001
27.725 7.8049998 0.86400002 0.15000001
25.499001 7.263 0.81199998 0.25999999
28.386 8.1850004 0.88099998 0.16
27.493999 8.0209999 0.861 0.20999999
27.313999 8.0609999 0.85699999 0.19
27.415001 8.1850004 0.86000001 0.28999999
27.555 8.3210001 0.86400002 0.23
28.806999 8.75 0.89399999 0
28.584 8.7799997 0.889 0
55.708 17.714001 1.54 0
55.537998 17.851999 1.5369999 0
28.261 9.1199999 0.88499999 0
53.924999 17.614 1.5 0
53.584999 17.688999 1.494 0
53.027 17.690001 1.4809999 0
52.904999 17.834 1.48 0
52.657001 17.934999 1.475 0
51.568001 17.743999 1.45 0
51.011002 17.642 1.438 0
50.497002 17.642 1.427 0
50.153 17.698 1.42 0
49.702 17.715 1.41 0
49.324001 17.754999 1.402 0
49.018002 17.819 1.396 0
48.846001 17.843 1.393 0
48.032001 17.716 1.374 0
47.625 17.736 1.3660001 0
47.575001 17.888 1.3660001 0
46.639999 17.702999 1.345 0
46.363998 17.764999 1.339 0
46.113998 17.836 1.334 0
46.056 17.896 1.334 0
44.785999 17.563999 1.304 0
45.764 18.115 1.329 0
45.779999 18.287001 1.331 0
45.77 18.451 1.332 0
45.825001 18.639999 1.335 0
45.394001 18.631001 1.326 0
44.557999 18.368999 1.306 0
44.666 18.577999 1.3099999 0
44.867001 18.827999 1.316 0
44.616001 18.886999 1.312 0
44.373001 18.948999 1.307 0
44.998001 19.384001 1.324 0
44.847 19.486 1.322 0
44.73 19.518999 1.3200001 0
49.713001 21.882 1.4450001 0
49.544998 21.993999 1.443 0
49.394001 22.113001 1.441 0
49.237 22.229 1.439 0
44.432999 20.225 1.3200001 0
44.289001 20.327999 1.318 0.07
44.026001 20.291 1.312 0.1
44.139999 20.511999 1.317 0
43.945 20.59 1.314 0.12
43.855 20.716 1.313 0.090000004
43.827 20.871 1.314 0.090000004
43.793999 21.024 1.3150001 0
43.942001 21.266001 1.3200001 0
43.955002 21.357 1.321 0
43.811001 21.458 1.319 0
43.889999 21.667999 1.323 0
43.811001 21.799999 1.323 0
43.917 22.025999 1.327 0
44.123001 22.302999 1.334 0
44.478001 22.57 1.344 0
44.002998 22.503 1.334 0
44.117001 22.736 1.339 0
44.088001 22.896999 1.34 0
44.179001 23.121 1.344 0
43.993 23.200001 1.341 0
44.077999 23.422001 1.345 0
43.973 23.455 1.3430001 0
43.912998 23.6 1.344 0
43.918999 23.782 1.346 0
31.455999 17.281 1.026 0.15000001
31.174 17.254 1.02 0.16
31.125 17.355 1.02 0.30000001
31.159 17.438 1.022 0.11
31.219 17.601 1.025 0.14
30.555 17.353001 1.0089999 0.28999999
30.419001 17.402 1.006 0.18000001
30.354 17.490999 1.006 0.36000001
30.117001 17.481001 1.001 0.14
29.868999 17.462 0.99599999 0.15000001
29.791 17.48 0.995 0.16
29.462999 17.412001 0.98799998 0.20999999
29.447001 17.528 0.98900002 0.2
29.25 17.535 0.98500001 0.31
29.077999 17.556 0.98199999 0.2
28.837 17.534 0.977 0.31
28.635 17.534 0.97299999 0.18000001
28.531 17.532 0.97100002 0.38
28.513 17.645 0.972 0.2
28.129999 17.530001 0.963 0.23
27.983999 17.561001 0.96100003 0.11
27.653 17.474001 0.95300001 0.41
27.462999 17.475 0.94999999 0.22
27.341 17.458 0.94700003 0.34
27.011999 17.367001 0.94 0.18000001
26.931 17.434999 0.93900001 0.37
26.929001 17.554001 0.94 0.27000001
26.635 17.482 0.93400002 0.16
26.523001 17.528 0.93199998 0.41999999
26.222 17.447001 0.926 0.20999999
25.973 17.34 0.92000002 0.17
25.874001 17.392 0.91799998 0.41
25.73 17.412001 0.91600001 0.23
25.426001 17.323 0.90899998 0.17
25.495001 17.487 0.912 0.38999999
25.086 17.323 0.903 0.25
25.032 17.402 0.903 0.25
24.739 17.254999 0.89499998 0.27000001
24.617001 17.285999 0.89300001 0.25999999
24.504 17.320999 0.89200002 0.30000001
24.43 17.384001 0.89099997 0.25999999
24.312 17.416 0.889 0.27000001
24.128 17.398001 0.88599998 0.28999999
24.045 17.454 0.88499999 0.28999999
24.055 17.518999 0.88599998 0.28999999
23.979 17.579 0.88499999 0.31999999
24.051001 17.747999 0.889 0.25
23.844 17.711 0.88499999 0.28999999
23.917999 17.882999 0.88800001 0.28999999
23.959999 18.033001 0.89099997 0.25999999
23.856001 18.072001 0.88999999 0.18000001
23.837 18.117001 0.88999999 0.46000001
23.523001 17.993999 0.88300002 0.13
23.392 18.011 0.88099998 0.2
23.358999 18.103001 0.88099998 0.19
22.653 17.669001 0.86299998 0.1
23.249001 18.253 0.88099998 0.27000001
22.191999 17.534 0.852 0.19
22.311001 17.686001 0.85699999 0.23
22.212 17.721001 0.85500002 0.31999999
22.184 17.813 0.85600001 0.30000001
22.333 18.049 0.86199999 0.30000001
22.365999 18.191999 0.86500001 0.34999999
22.302999 18.257 0.86500001 0.23999999
22.356001 18.419001 0.86799997 0.28999999
22.457001 18.561001 0.87199998 0.25999999
22.612 18.809 0.87800002 0.25
21.551001 18.040001 0.84799999 0.16
23.608999 19.892 0.91100001 0.15000001
23.67 20.070999 0.91500002 0.28
23.587 20.129 0.91500002 0.20999999
23.587999 20.194 0.91600001 0
21.822001 18.799 0.86400002 0.12
23.695999 20.547001 0.92299998 0.14
23.666 20.650999 0.92400002 0.41999999
23.563999 20.691999 0.92299998 0.2
23.438999 20.712999 0.921 0.28
22.906 20.371 0.90600002 0.17
22.719 20.268 0.90200001 0.14
22.504 20.202999 0.89700001 0.14
22.479 20.308001 0.898 0
22.396 20.361 0.898 0.059999999
22.413 20.506001 0.89999998 0.090000004
22.424999 20.646999 0.903 0.090000004
22.238001 20.604 0.89899999 0.16
22.16 20.597 0.89700001 0.31
22.181999 20.747 0.89999998 0.20999999
22.016001 20.722 0.89700001 0.14
22.017 20.854 0.89899999 0.46000001
21.962999 20.934 0.89899999 0.22
21.916 21.021 0.89999998 0.31
21.974001 21.209999 0.90399998 0.17
22.032 21.333 0.90700001 0.38
21.951 21.388 0.90600002 0.18000001
21.792 21.368 0.903 0.20999999
21.645 21.357 0.90100002 0.25999999
21.518999 21.365999 0.89899999 0.27000001
21.392 21.374001 0.89700001 0.25
21.299 21.348 0.89499998 0.20999999
21.169001 21.351 0.89300001 0
20.570999 20.878 0.87599999 0.14
20.914 21.361 0.889 0.16
20.813 21.392 0.88800001 0.38999999
20.681999 21.391001 0.88599998 0.23999999
20.549999 21.388 0.884 0.19
20.434 21.402 0.88200003 0.41
20.351999 21.382999 0.88099998 0.20999999
19.087999 20.179001 0.84100002 0.28999999
19.080999 20.299 0.84299999 0.30000001
18.996 20.337 0.84200001 0.28
18.848 20.305 0.83899999 0.13
18.563 20.125 0.83200002 0
6.119 6.6700001 0.414 0.25
6.0799999 6.6700001 0.414 0.38
6.0479999 6.677 0.41299999 0.28999999
6.026 6.6950002 0.41299999 0.33000001
6.0040002 6.7119999 0.41299999 0.30000001
5.9809999 6.73 0.41299999 0.34
5.987 6.757 0.414 0.33000001
5.9749999 6.7859998 0.414 0.25
5.9619999 6.816 0.41499999 0.34
5.9580002 6.8540001 0.41499999 0.23
16.145 18.761 0.77200001 0.38
15.997 18.705999 0.76899999 0.23
14.85 17.474001 0.73100001 0.2
14.765 17.429001 0.72899997 0.31
14.783 17.562 0.73100001 0.44
14.808 17.704 0.73400003 0.13
14.856 17.875999 0.73799998 0.33000001
18.836 22.820999 0.88200003 0.11
18.73 22.837999 0.88099998 0.38999999
14.308 17.549 0.72399998 0.2
15.135 18.625999 0.755 0.14
14.207 17.594 0.72299999 0.41
14.164 17.653999 0.72399998 0.16
13.984 17.542 0.71899998 0.56999999
14.968 18.900999 0.75700003 0.2
14.207 18.054001 0.73199999 0.38
14.241 18.216 0.73500001 0.18000001
13.865 17.791 0.722 0.34
14.029 18.118999 0.73000002 0.17
13.572 17.642 0.71499997 0.41
13.253 17.339001 0.70499998 0.30000001
13.298 17.511 0.70899999 0.18000001
13.331 17.67 0.71200001 0.40000001
13.317 17.768 0.71399999 0.28
13.208 17.679001 0.71100003 0.25
12.849 17.311001 0.699 0.31
12.859 17.440001 0.70200002 0.28999999
12.773 17.437 0.70099998 0.27000001
12.736 17.500999 0.70099998 0.47999999
12.606 17.437 0.69800001 0.28999999
12.43 17.308001 0.69400001 0.25999999
12.386 17.304001 0.69300002 0.33000001
12.298 17.296 0.69199997 0.34
12.308 17.426001 0.69400001 0.34
12.27 17.487 0.69499999 0.37
12.265 17.598 0.69700003 0.31
12.127 17.516001 0.69300002 0.34999999
12.009 17.464001 0.69099998 0.33000001
11.972 17.468 0.69099998 0.33000001
11.81 17.348 0.68599999 0.36000001
11.816 17.475 0.68900001 0.28
11.741 17.482 0.68800002 0.23
11.687 17.52 0.68800002 0.54000002
11.664 17.605 0.68900001 0.22
11.627 17.67 0.69 0.36000001
12.06 18.393 0.70899999 0.14
12.493 19.187 0.73000002 0.49000001
12.352 19.1 0.72600001 0.19
11.415 17.77 0.68900001 0.40000001
11.274 17.673 0.68599999 0.31
11.178 17.643999 0.68400002 0.33000001
11.148 17.719 0.685 0.28999999
11.076 17.666 0.68300003 0.44999999
11.125 17.868 0.68800002 0.25
10.979 17.759001 0.68400002 0.28999999
10.941 17.822001 0.685 0.41
10.908 17.893999 0.68599999 0.36000001
10.855 17.933001 0.68599999 0.27000001
10.743 17.875 0.68300003 0.37
10.764 17.974001 0.685 0.38
11.04 18.568001 0.69999999 0.25999999
10.848 18.375 0.69400001 0.33000001
10.647 18.164 0.68800002 0.30000001
10.589 18.198 0.68800002 0.38
10.564 18.285999 0.68900001 0.30000001
10.663 18.594 0.69599998 0.36000001
10.695 18.716 0.699 0.25
10.636 18.75 0.699 0.40000001
10.6 18.825001 0.69999999 0.28
10.582 18.931999 0.70200002 0.38999999
10.567 19.045 0.704 0.28
10.525 19.112 0.70499998 0.38999999
10.48 19.171 0.70599997 0.31999999
10.454 19.195999 0.70599997 0.31999999
10.502 19.43 0.71100003 0.41999999
10.618 19.794001 0.72000003 0.19
10.49 19.702 0.71700001 0.38999999
10.457 19.791 0.71799999 0.23999999
10.404 19.841999 0.71899998 0.31999999
10.57 20.236 0.72799999 0.28999999
10.614 20.476999 0.73400003 0.20999999
10.535 20.481001 0.73299998 0.23
10.427 20.429001 0.73100001 0.36000001
10.375 20.487 0.73100001 0.34
10.354 20.605 0.73299998 0.31
10.32 20.700001 0.73500001 0.30000001
10.272 20.684 0.73400003 0.40000001
10.255 20.815001 0.73699999 0.27000001
10.255 20.98 0.74000001 0.34
10.159 20.951 0.73900002 0.23
10.119 21.037001 0.74000001 0.44999999
13.603 28.528999 0.92799997 0.19
13.411 28.356001 0.92299998 0.2
10.811 22.940001 0.78600001 0.27000001
13.213 28.281 0.91900003 0.14
10.706 23.091999 0.78799999 0.30000001
10.616 23.087999 0.787 0.18000001
10.508 23.042999 0.78500003 0.12
10.472 23.158001 0.787 0.17
10.374 23.134001 0.78600001 0.17
10.227 22.902 0.77999997 0
12.686 28.664 0.92199999 0.050000001
9.9090004 22.568001 0.76999998 0.11
14.446 33.215 1.033 0.36000001
9.6999998 22.67 0.76999998 0.31
9.6120005 22.660999 0.76899999 0.31999999
9.5579996 22.632 0.76800001 0.40000001
9.4840002 22.655001 0.76800001 0.28
9.3929996 22.636 0.76599997 0.55000001
9.3400002 22.712 0.76800001 0.31999999
9.3299999 22.891001 0.77100003 0.28999999
9.2650003 22.937 0.77200001 0.34999999
9.1780005 22.929001 0.77100003 0.38
9.132 22.917 0.76999998 0.38
9.0489998 22.917999 0.76899999 0.38
8.9639997 22.915001 0.76899999 0.36000001
8.882 22.917 0.76800001 0.38999999
8.8009996 22.922001 0.76800001 0.38
8.7159996 22.914 0.76700002 0.38
8.632 22.909 0.76599997 0.38
8.5869999 22.899 0.76499999 0.38999999
8.5039997 22.895 0.76499999 0.38
8.4200001 22.889999 0.764 0.38
8.3409996 22.898001 0.76300001 0.38999999
8.2559996 22.888 0.76200002 0.40000001
8.1759996 22.889 0.76200002 0.40000001
8.1009998 22.907 0.76200002 0.34999999
8.0500002 22.877001 0.76099998 0.40000001
7.9679999 22.872999 0.75999999 0.38999999
7.8899999 22.879 0.759 0.43000001
7.8080001 22.874001 0.759 0.31999999
7.7340002 22.893 0.759 0.34
7.652 22.886 0.75800002 0.38999999
7.5700002 22.879999 0.75700003 0.34
7.526 22.867001 0.75700003 0.47999999
7.4499998 22.877001 0.75599998 0.18000001
6.1849999 19.186001 0.667 0.57999998
6.2259998 19.521999 0.67500001 0.16
5.9000001 18.700001 0.65499997 0.23999999
5.8150001 18.632999 0.653 0.25999999
5.7550001 18.646999 0.653 0.41
5.7309999 18.673 0.653 0.40000001
5.6750002 18.701 0.653 0.38999999
5.664 18.879 0.65700001 0.37
5.5570002 18.733999 0.653 0.23999999
5.4889998 18.721001 0.653 0.38999999
5.4250002 18.721001 0.65200001 0.38999999
5.3610001 18.718 0.65200001 0.31
5.3309999 18.725 0.65200001 0.34999999
5.2750001 18.750999 0.65200001 0.33000001
5.2410002 18.860001 0.65399998 0.5
5.1859999 18.892 0.65399998 0.28999999
5.6399999 20.809999 0.699 0.28999999
5.0669999 18.924 0.65399998 0.2
4.9850001 18.853001 0.65200001 0.34999999
4.9489999 18.837999 0.65200001 0.34999999
4.8850002 18.834 0.65100002 0.38999999
4.8270001 18.855 0.65200001 0.41
4.7810001 18.922001 0.653 0.27000001
4.7259998 18.955 0.653 0.31999999
4.6700001 18.981001 0.653 0.38
4.6149998 19.017 0.65399998 0.23999999
4.5809999 19.009001 0.65399998 0.47999999
4.526 19.040001 0.65399998 0.34999999
4.5009999 19.205999 0.65799999 0.41
4.48 19.388 0.66100001 0.23
4.388 19.267 0.65799999 0.38
4.316 19.228001 0.65700001 0.18000001
3.8789999 17.527 0.61699998 0.54000002
4.256 19.389 0.66000003 0.2
3.793 17.534 0.61699998 0.25
3.7360001 17.535999 0.61699998 0.36000001
3.681 17.545 0.61699998 0.28
3.6229999 17.542999 0.616 0.31999999
3.5610001 17.521 0.61500001 0.31999999
3.4990001 17.497 0.61500001 0.36000001
3.483 17.561001 0.616 0.33000001
3.427 17.566 0.616 0.23999999
3.362 17.528 0.61500001 0.46000001
3.303 17.514999 0.61400002 0.28
3.2309999 17.434 0.61199999 0.36000001
3.1719999 17.421 0.61199999 0.41
3.145 17.586 0.61500001 0.36000001
3.138 17.711 0.61799997 0.34
3.04 17.476999 0.61199999 0.31999999
3.072 17.997 0.62400001 0.44999999
2.9960001 17.888 0.62099999 0.30000001
2.973 18.105 0.62599999 0.28
2.848 17.684999 0.616 0.20999999
2.9489999 18.695999 0.639 0.43000001
2.7690001 17.73 0.61699998 0.18000001
2.714 17.739 0.61699998 0.25999999
2.6159999 17.466 0.611 0.46000001
2.599 17.732 0.616 0.31
2.5209999 17.582001 0.61299998 0.41999999
2.4909999 17.775999 0.61699998 0.25
2.427 17.724001 0.616 0.25999999
2.3659999 17.48 0.61000001 0.41
2.3299999 17.634001 0.61299998 0.37
2.2869999 17.738001 0.616 0.34999999
2.115 17.25 0.60399997 0.52999997
2.0580001 17.233 0.60399997 0.2
2.118 18.233 0.62599999 0.38
2.108 18.399 0.63 0.2
2.05 18.405001 0.63 0.19
1.9910001 18.398001 0.63 0.11
1.927 18.351999 0.62900001 0.30000001
1.842 18.08 0.62199998 0.22
1.7920001 18.155001 0.62400001 0.38999999
1.751 18.332001 0.62800002 0.22
1.717 18.275 0.62599999 0.20999999
1.649 18.172001 0.62400001 0.19
2.2539999 25.851 0.79900002 0.12
2.177 25.916 0.801 0.25
2.1210001 26.236 0.80800003 0.20999999
1.585 20.333 0.67299998 0.19
1.584 21.195 0.69199997 0.36000001
1.4450001 19.73 0.65899998 0.2
1.456 20.792 0.68300003 0.43000001
1.3940001 20.84 0.68400002 0.25999999
1.314 20.618999 0.67900002 0.18000001
1.226 20.226 0.67000002 0.34999999
1.177 20.483 0.676 0.31
1.145 20.490999 0.676 0.19
0.93300003 17.632999 0.61000001 0.44999999
0.87900001 17.659 0.611 0.16
0.99199998 21.403 0.69599998 0.57999998
0.764 17.563 0.60900003 0.16
0.84200001 21.01 0.68699998 0.15000001
0.77100003 20.872 0.68400002 0.37
0.69800001 20.643 0.67900002 0.14
0.17399999 5.3319998 0.33000001 0
0.65600002 20.32 0.671 0
0.787 30.813999 0.91000003 0.079999998
0.47600001 20.879 0.68400002 0.18000001
0.40599999 20.641001 0.67799997 0.16
0.36899999 22.465 0.72000003 0.2
0.29800001 22.454 0.72000003 0.44
0.26300001 22.457001 0.72000003 0.36000001
0.193 22.459 0.72000003 0.41
0.122 22.452 0.72000003 0.40000001
0.050999999 22.454 0.72000003 0.40000001
-0.018999999 22.450001 0.72000003 0.41
-0.090000004 22.452 0.72000003 0.41
-0.16 22.448 0.72000003 0.40000001
-0.19499999 22.448999 0.72000003 0.41
-0.266 22.451 0.72000003 0.40000001
-0.33700001 22.450001 0.72000003 0.41999999
-0.40700001 22.454 0.72000003 0.41
-0.47799999 22.455 0.72000003 0.41
-0.54799998 22.452999 0.72000003 0.41999999
-0.58399999 22.457001 0.72000003 0.41
-0.65399998 22.451 0.72000003 0.41
-0.72500002 22.452 0.72000003 0.41
-0.79500002 22.454 0.72000003 0.41
-0.866 22.452999 0.72000003 0.41
-0.93699998 22.452999 0.72000003 0.41
-1.007 22.444 0.72000003 0.41
-1.0779999 22.444 0.72000003 0.41999999
-1.114 22.459999 0.72000003 0.41
-1.184 22.452999 0.72000003 0.41
-1.255 22.447001 0.72000003 0.40000001
-1.325 22.445 0.72000003 0.40000001
-1.397 22.461 0.72100002 0.31999999
-1.467 22.444 0.72100002 0.47999999
-1.539 22.462999 0.72100002 0.25
-1.573 22.438999 0.72100002 0.56
-1.3329999 18.271 0.62599999 0.38
-1.385 18.191 0.62400001 0.20999999
-1.7869999 22.455 0.72100002 0.5
-1.8559999 22.434999 0.72100002 0.25
-1.482 17.32 0.60399997 0.2
-1.9630001 22.445999 0.72100002 0.55000001
-2.033 22.434 0.72100002 0.30000001
-1.595 17.066999 0.59899998 0.25
-1.63 16.879 0.59399998 0.38
-1.717 17.204 0.602 0.38999999
-1.784 17.32 0.60500002 0.25
-1.8200001 17.143 0.60100001 0.40000001
-1.877 17.415001 0.60699999 0.34
-1.899 17.122 0.60100001 0.38999999
-1.961 17.186001 0.602 0.38
-2.059 17.549 0.611 0.22
-2.102 17.443001 0.60799998 0.25999999
-2.1340001 17.26 0.60399997 0.44
-2.8559999 22.452999 0.72399998 0.28
-2.3039999 17.708 0.61500001 0.28999999
-2.296 17.437 0.60900003 0.18000001
-2.335 17.313 0.60600001 0.28999999
-3.1040001 22.43 0.72399998 0.40000001
-2.421 17.143 0.60299999 0.41
-2.4920001 17.254 0.60500002 0.25999999
-0.472 3.2349999 0.28299999 0.039999999
-2.497 16.912001 0.59799999 0
-0.47999999 3.22 0.28200001 0.17
-2.638 17.479 0.611 0
-0.486 3.1919999 0.28200001 0.16
-0.49599999 3.191 0.28200001 0.41999999
-0.50300002 3.171 0.28099999 0.25
-0.51200002 3.1659999 0.28099999 0.27000001
-0.51499999 3.151 0.28099999 0.28
-0.52399999 3.1440001 0.28099999 0.27000001
-0.53500003 3.152 0.28099999 0.25999999
-0.54500002 3.148 0.28099999 0.28999999
-0.55400002 3.145 0.28099999 0.28
-0.56400001 3.1429999 0.28099999 0.28
-0.56900001 3.1159999 0.28 0.27000001
-0.57700002 3.128 0.28099999 0.18000001
-0.58700001 3.1289999 0.28099999 0.15000001
-0.59500003 3.1170001 0.28099999 0.15000001
-0.602 3.099 0.28 0.23
-0.611 3.0969999 0.28 0.19
-0.62 3.0899999 0.28 0.18000001
-0.62800002 3.082 0.28 0.33000001
-0.63999999 3.0899999 0.28 0.19
-0.65499997 3.1329999 0.28099999 0.17
-0.67199999 3.165 0.28200001 0
-0.68599999 3.1800001 0.28200001 0.16
-1.451 6.5 0.36000001 0.25
-1.471 6.4959998 0.36000001 0.28
-1.499 6.5219998 0.361 0.23999999
-1.518 6.5139999 0.361 0.20999999
-1.511 6.4390001 0.359 0.17
-1.569 6.5879998 0.36300001 0.14
-4.5219998 18.525 0.64300001 0.23
-4.5869999 18.538 0.64300001 0.37
-4.625 18.444 0.64099997 0.28999999
-4.6830001 18.429001 0.64099997 0.34999999
-4.46 17.444 0.61799997 0.30000001
-4.7340002 18.27 0.63800001 0.16
-4.6149998 17.586 0.62199998 0.27000001
-4.7259998 17.780001 0.62699997 0.49000001
-4.7880001 17.788 0.62800002 0.25
-4.8319998 17.732 0.62699997 0.15000001
-4.802 17.407 0.62 0.30000001
-5.1690001 18.617001 0.648 0.46000001
-5.2729998 18.761999 0.65200001 0.20999999
-6.026 21.173 0.70999998 0.16
-5.2659998 18.296 0.64200002 0.25
-5.2870002 18.155001 0.639 0.31999999
-5.3130002 18.033001 0.63599998 0.28999999
-5.237 17.573 0.62599999 0.14
-5.224 17.333 0.62099999 0.34
-5.27 17.386 0.62199998 0.40000001
-5.3169999 17.344999 0.62099999 0.25
-5.6059999 18.08 0.639 0.43000001
-5.6020002 17.870001 0.63499999 0.25999999
-5.5609999 17.547001 0.62800002 0.28
-5.6040001 17.490999 0.62699997 0.5
-5.697 17.591999 0.62900001 0.23999999
-5.6789999 17.441999 0.62599999 0.25
-5.691 17.295 0.62300003 0.5
-5.5949998 16.827999 0.61199999 0.2
-5.7659998 17.16 0.62099999 0.36000001
-5.8340001 17.181999 0.62199998 0.47999999
-5.757 16.785 0.61199999 0.20999999
-5.895 17.098 0.62 0.2
-5.9219999 17.003 0.61799997 0.41
-6.0180001 17.105 0.62099999 0.41999999
-6.0700002 17.083 0.62099999 0.33000001
-6.1739998 17.201 0.625 0.40000001
-6.1160002 16.875 0.61699998 0.27000001
-6.1240001 16.732 0.61400002 0.34999999
-6.2360001 16.955 0.62 0.19
-6.2909999 16.941 0.62 0.54000002
-6.4790001 17.278 0.62900001 0.28
-6.46 17.065001 0.62400001 0.44999999
-8.1079998 21.200001 0.72500002 0.23
-8.1829996 21.195 0.72600001 0.28999999
-8.2539997 21.183001 0.72600001 0.28999999
-8.3339996 21.190001 0.727 0.31999999
-8.375 21.195 0.727 0.27000001
-8.415 21.104 0.72600001 0.36000001
-8.5319996 21.202 0.72899997 0.18000001
-2.8169999 6.9829998 0.38 0.27000001
-2.846 6.9910002 0.38 0.25999999
-2.868 6.9819999 0.38 0.14
-2.8510001 6.8499999 0.377 0.2
-2.8840001 6.869 0.37799999 0.47
-2.9059999 6.8600001 0.37799999 0.34
-9.6099997 22.341999 0.76200002 0
-2.9349999 6.8099999 0.377 0
-16.666 38.039001 1.154 0
-2.9960001 6.8319998 0.37799999 0
-3.0009999 6.8150001 0.37799999 0.12
-3.0469999 6.862 0.37900001 0.17
